ply
format ascii 1.0
element vertex 805
property float x
property float y
property float z
end_header
1.7109177112579346 -0.17247337102890015 -0.5694692730903625
-1.6355161666870117 -0.16109724342823029 0.14290231466293335
0.6160473823547363 -0.08479104936122894 -0.7342991828918457
-1.3577073812484741 0.4585930109024048 0.6322440505027771
-1.6354838609695435 0.17441093921661377 0.5656613111495972
0.26866281032562256 0.5679285526275635 0.10851036012172699
-2.683058977127075 -0.383794903755188 -0.28732025623321533
-1.4101728200912476 0.22224105894565582 0.5955324769020081
-0.7089313268661499 0.37668803334236145 0.670519232749939
-1.8711280822753906 0.10539981722831726 -0.15049687027931213
0.30372634530067444 0.06165626645088196 0.4153863489627838
-0.6592206358909607 -0.2539047598838806 -0.10059282183647156
0.029315993189811707 -0.2689657211303711 0.04775211960077286
1.576810359954834 -0.19430029392242432 -0.6224960684776306
2.754709482192993 0.25132516026496887 0.30949318408966064
-0.3580307364463806 0.029077813029289246 -0.02666354551911354
-1.8887447118759155 0.13700726628303528 -1.1436858177185059
1.6369743347167969 -0.28286463022232056 0.05156787112355232
2.5651981830596924 0.15327167510986328 0.19291332364082336
-1.346360445022583 0.2779782712459564 0.02353641390800476
-0.8044847249984741 0.24383853375911713 -0.41053709387779236
1.1353386640548706 0.31186196208000183 -0.20931179821491241
3.237683057785034 -0.2895691990852356 0.3595077395439148
1.636191487312317 -0.2261582612991333 -0.43089497089385986
1.973239541053772 0.11041934788227081 0.2682824730873108
2.583678722381592 -0.17939317226409912 0.16506098210811615
2.32279634475708 -0.0643669068813324 1.0386826992034912
1.6206599473953247 -0.263505220413208 -0.5945325493812561
0.23212921619415283 0.3283115029335022 -0.24064742028713226
-1.6618459224700928 0.020451337099075317 -0.6965136528015137
1.9070379734039307 0.073597252368927 0.5485931038856506
-1.8220030069351196 0.022434547543525696 -0.2810724079608917
-1.4948458671569824 0.24088282883167267 0.035658180713653564
0.10441747307777405 0.43737852573394775 -0.13293986022472382
0.4857533574104309 0.30540820956230164 0.16334795951843262
1.6862094402313232 0.034565284848213196 -0.7158048748970032
2.988123893737793 0.007287129759788513 -0.44694557785987854
-1.54002845287323 -0.2453082799911499 0.3415362536907196
-0.9912477731704712 -0.03232070803642273 -0.0827343612909317
-1.3058301210403442 0.06324273347854614 0.07027322053909302
0.4787082076072693 0.2888448238372803 0.020403675734996796
1.6291561126708984 0.12954604625701904 0.08954126387834549
-0.7583572864532471 -0.23610755801200867 0.16852280497550964
-0.8103304505348206 0.1386723518371582 0.4841042757034302
0.5196197032928467 0.2512207329273224 -0.05057743191719055
-0.14964792132377625 -0.27105873823165894 0.23236560821533203
-0.2982054054737091 -0.2502325177192688 -0.0062590427696704865
0.300639808177948 0.12012317776679993 -0.4394244849681854
1.5426610708236694 -0.04661557078361511 0.6554845571517944
0.6279280185699463 -0.2981530725955963 -0.15069614350795746
-1.2226289510726929 0.533509373664856 0.1856410652399063
-1.8302251100540161 0.2827361822128296 -0.4961685538291931
1.08660089969635 -0.20350724458694458 -0.168863445520401
0.7445960640907288 -0.297354519367218 0.025937868282198906
-1.784724473953247 0.176134392619133 -0.1432819813489914
-0.01020820066332817 0.2598578631877899 0.031939197331666946
-1.631785273551941 0.07868547737598419 -0.5666406154632568
-1.5793135166168213 -0.17396549880504608 0.20113760232925415
-0.7419315576553345 0.19814012944698334 -0.33849602937698364
2.421391725540161 0.019769519567489624 0.8284344673156738
-0.67982417345047 0.22827625274658203 0.7909806966781616
0.7689187526702881 -0.14287039637565613 0.3632653057575226
2.426180362701416 -0.2187511920928955 -0.4875822067260742
-1.3991364240646362 0.03696949779987335 0.43105679750442505
-2.450208902359009 0.4259423017501831 0.05867787078022957
0.9954302310943604 -0.3088078498840332 0.21071580052375793
1.2404977083206177 -0.22491355240345 0.09067414700984955
-1.3410062789916992 -0.08796201646327972 0.16422952711582184
-1.6201972961425781 -0.23643481731414795 0.0008863294497132301
2.2682273387908936 -0.1078379899263382 0.25477245450019836
1.0441458225250244 0.12534058094024658 0.31509003043174744
-1.939710021018982 -0.06300844252109528 -0.014604028314352036
0.4743900001049042 -0.1289847493171692 0.7221685647964478
2.1047146320343018 -0.30148619413375854 0.5196689367294312
-0.3903149962425232 -0.19397902488708496 0.25960469245910645
2.778306484222412 0.24201121926307678 0.49337929487228394
-2.450277805328369 0.23755934834480286 -0.4196423888206482
-0.1229969784617424 0.1031981110572815 0.33599990606307983
2.228726863861084 0.3254163861274719 -0.1872895509004593
-0.18201211094856262 -0.21930673718452454 -0.13273701071739197
0.7255069613456726 -0.2738497853279114 0.0036024420987814665
0.5627373456954956 0.2905811071395874 0.20818257331848145
-1.2136653661727905 -0.16539056599140167 0.2976110279560089
-0.4308665692806244 -0.2471681535243988 0.5202507972717285
0.5405890345573425 0.3849309980869293 0.39717939496040344
-1.801464319229126 -0.062091976404190063 -0.07869744300842285
-0.9600892066955566 0.28141382336616516 0.7173668146133423
1.838679313659668 -0.12067046761512756 0.00629084836691618
-0.08776378631591797 0.153529092669487 0.6353538036346436
1.2776257991790771 -0.16410446166992188 0.7400137186050415
2.0287728309631348 0.15810799598693848 -0.3287378251552582
-2.081199884414673 0.14398552477359772 -0.5563288927078247
1.329008936882019 0.37206795811653137 -0.5359055399894714
-2.384925365447998 -0.03914184868335724 -0.14282208681106567
0.24617040157318115 0.4837605953216553 -0.3456096351146698
0.6994649171829224 -0.2847828269004822 0.38503971695899963
1.7460260391235352 -0.10778562724590302 -0.6838077306747437
-1.1122835874557495 0.33293911814689636 -0.12473751604557037
0.5059999227523804 0.310901939868927 0.6950075626373291
1.750553011894226 -0.2837328314781189 0.24805721640586853
1.5783274173736572 -0.002902477979660034 -0.21630579233169556
0.7624786496162415 -0.23526404798030853 -0.5385255217552185
-1.0666059255599976 -0.264417827129364 -0.24384571611881256
2.5389485359191895 0.3806398808956146 -0.06943716108798981
2.532223701477051 0.11576339602470398 0.30461010336875916
-0.045778676867485046 0.34132692217826843 0.6807143092155457
-1.6486763954162598 -0.04969660937786102 0.0835971087217331
-0.7518659830093384 0.02879205346107483 0.7696936130523682
0.3501618802547455 0.2895919680595398 -0.09517364948987961
-2.1553258895874023 -0.2298385500907898 0.7705703973770142
0.7167708277702332 0.07139593362808228 -0.2007300704717636
2.194002628326416 -0.3245476484298706 0.05413370579481125
2.460017442703247 -0.1676265150308609 0.23541969060897827
-0.8180282115936279 -0.20575612783432007 -0.18999995291233063
-1.3546053171157837 0.22465509176254272 -0.49246296286582947
0.14022567868232727 0.21572379767894745 -0.6069510579109192
0.6984216570854187 0.09731912612915039 -0.13373485207557678
0.09340275824069977 0.20970822870731354 0.25249162316322327
0.0785156637430191 -0.2666167616844177 0.34518176317214966
1.6378200054168701 -0.25447243452072144 -0.4172511696815491
1.9815316200256348 -0.272716224193573 -0.43045562505722046
-0.3121505081653595 -0.02043469250202179 -0.7025507092475891
0.8859416246414185 -0.27011558413505554 0.02912348508834839
1.5487372875213623 -0.25329336524009705 -0.1627495288848877
0.3787860870361328 -0.19895124435424805 0.6142882704734802
-1.2976186275482178 0.4755367040634155 0.10712847113609314
1.306235909461975 -0.11139655113220215 -0.6402521729469299
2.7902042865753174 -0.17716936767101288 0.14245182275772095
0.4226759076118469 0.1878451108932495 0.35434648394584656
-1.2334908246994019 0.2606852650642395 -0.47463926672935486
-0.3756997883319855 -0.24617958068847656 0.12327269464731216
-1.7048360109329224 -0.2314833104610443 0.6476471424102783
-0.8582266569137573 0.39215365052223206 0.3475387692451477
1.4211390018463135 -0.2146822214126587 0.5746271014213562
2.9160566329956055 0.1005111038684845 -0.38078799843788147
1.846691370010376 -0.2662438750267029 -0.12907849252223969
-0.8561734557151794 -0.2443597912788391 0.030989045277237892
2.7062926292419434 -0.24953433871269226 0.24464547634124756
-1.3817282915115356 0.40076178312301636 -0.2371455579996109
2.8382327556610107 0.22762653231620789 -0.27827131748199463
2.5607244968414307 -0.24534064531326294 0.4327738881111145
2.3514440059661865 -0.1228819489479065 -0.6903649568557739
-0.7994570732116699 0.10026140511035919 0.23543518781661987
0.29378730058670044 -0.12290166318416595 0.02195735089480877
1.6711022853851318 0.0329972505569458 -0.6256925463676453
-0.8439565896987915 -0.22135958075523376 -1.855950951576233
0.07453957200050354 0.12085641920566559 0.012713529169559479
-1.4341981410980225 -0.2124788761138916 0.735012948513031
1.5890607833862305 -0.038815051317214966 -0.6092134118080139
-0.11215170472860336 0.1313551664352417 0.48080968856811523
2.0374021530151367 -0.1062568724155426 0.5572540163993835
-0.43254879117012024 -0.2696268558502197 -0.12592875957489014
-1.2863670587539673 0.10374073684215546 -0.08157993853092194
-1.2403650283813477 0.2701107859611511 0.367938369512558
0.929316520690918 -0.24940118193626404 -0.06883615255355835
2.6052606105804443 0.1969519853591919 -0.2527528405189514
-1.802861213684082 0.46261608600616455 -0.39361605048179626
-0.0059660449624061584 -0.3382774591445923 -0.4920405149459839
-1.7714923620224 0.1149539202451706 0.25757309794425964
-0.5199716091156006 0.4212416708469391 -0.0768657773733139
0.431376576423645 -0.07531033456325531 0.7156410217285156
0.43544650077819824 -0.2713792026042938 -0.2429186999797821
-0.993951678276062 -0.0036395639181137085 0.2987355887889862
0.058611027896404266 0.0022789090871810913 0.29784655570983887
2.2926316261291504 -0.2931334972381592 0.15330590307712555
-1.0748058557510376 0.36420899629592896 -0.6889907121658325
0.8498529195785522 -0.2032938003540039 0.6406593322753906
2.4074652194976807 0.0785004049539566 -0.6946969032287598
-1.6529490947723389 -0.22865024209022522 -0.02240535244345665
-1.7338675260543823 0.40461263060569763 -0.6719536185264587
-1.986495018005371 0.13222846388816833 0.43944674730300903
0.5668771266937256 0.2842772901058197 -0.10396061837673187
2.3542370796203613 -0.0860661119222641 0.24074134230613708
-0.8767989277839661 -0.1320287138223648 -0.5448135137557983
2.066459894180298 -0.13088609278202057 0.0036269151605665684
2.471893072128296 -0.2735625207424164 0.07019636034965515
1.0369880199432373 0.3415793180465698 -0.6344404220581055
0.6519584655761719 0.26368123292922974 0.5984526872634888
1.1034225225448608 0.4484494924545288 -0.4461437165737152
-0.9938706159591675 0.20545411109924316 -0.5224368572235107
-0.7024145722389221 -0.17094041407108307 0.11737483739852905
2.311415195465088 -0.06409524381160736 -0.1504925787448883
0.28152337670326233 -0.2594667077064514 0.14731131494045258
0.9687277674674988 0.12634965777397156 -0.49801626801490784
1.376694917678833 -0.2055741548538208 0.12083465605974197
0.36425837874412537 -0.2820460796356201 -0.49894875288009644
1.7183136940002441 0.21636152267456055 0.5237061381340027
2.939791202545166 -0.27599090337753296 0.4117469787597656
0.3165212869644165 -0.19092294573783875 0.1771399974822998
0.14236196875572205 -0.27608972787857056 -0.2524835765361786
-0.513538658618927 0.05414062738418579 0.11760170012712479
2.173868179321289 0.29685500264167786 0.3181716501712799
1.1387805938720703 0.16548685729503632 0.002769865095615387
-1.7525421380996704 0.2583831548690796 -0.12276498228311539
-1.5248061418533325 0.49464142322540283 0.06650827080011368
3.4791665077209473 -0.038204923272132874 0.04781452938914299
1.718226432800293 -0.29317593574523926 -0.4357343912124634
2.774782419204712 0.24471941590309143 -0.2608555555343628
-0.31922030448913574 -0.006895169615745544 0.4924028217792511
0.3712281286716461 0.4165065884590149 0.11579003185033798
-0.6555380821228027 -0.16479220986366272 0.5254990458488464
1.1536589860916138 -0.07430833578109741 -0.6502817273139954
-2.0271408557891846 -0.2333909273147583 -0.4267745912075043
-2.0999550819396973 -0.04479449987411499 0.4439202547073364
0.5357093811035156 0.18186956644058228 -0.7248791456222534
2.294914960861206 0.33997029066085815 -0.14442773163318634
-1.6826512813568115 0.21318355202674866 -0.4606688618659973
0.6871797442436218 -0.2522154152393341 0.2544079124927521
2.6223886013031006 -0.10233137011528015 -0.5827786922454834
1.8036327362060547 -0.23225831985473633 -0.27610528469085693
-1.862178087234497 0.01990927755832672 -0.27182814478874207
0.4326760768890381 -0.3092800974845886 -0.06065121293067932
-1.9520171880722046 0.27856457233428955 0.22949324548244476
1.6167359352111816 -0.28156450390815735 0.25646254420280457
0.4027974307537079 0.336872935295105 0.3683639466762543
0.30098482966423035 -0.274844229221344 -0.11943677812814713
-0.9237363338470459 0.3280400335788727 -0.13363860547542572
-0.768767237663269 0.17688363790512085 0.06894528120756149
-0.06513263285160065 -0.2345365285873413 0.7411829233169556
1.6852798461914062 0.3942015469074249 0.3537932336330414
-1.4833463430404663 -0.24722155928611755 0.2740385830402374
-0.8830131888389587 0.3594842255115509 -0.05497616156935692
1.956823706626892 -0.2578761577606201 0.17294467985630035
1.7522693872451782 -0.03367321193218231 0.1627892255783081
0.02948414534330368 0.1323365420103073 -0.7026437520980835
0.7935040593147278 -0.2746557295322418 -0.1410829722881317
2.318338394165039 0.04794296622276306 0.17849278450012207
1.179923415184021 -0.2821500599384308 -0.14806315302848816
2.5359244346618652 0.28383541107177734 0.18248453736305237
2.175967216491699 -0.09847693145275116 0.47872552275657654
0.07220123708248138 -0.07802736759185791 -0.7124084234237671
1.0924185514450073 0.3818623423576355 -0.33349063992500305
1.8162413835525513 -0.0923665314912796 -0.6929664015769958
2.1862754821777344 -0.24081194400787354 0.5527836084365845
0.3420059084892273 -0.23887722194194794 0.36485743522644043
2.312347650527954 -0.09091129899024963 0.5740008354187012
2.717609405517578 0.23714976012706757 -1.240257740020752
-0.5759234428405762 0.044942706823349 0.43690142035484314
-1.0910420417785645 -0.2535780072212219 0.08794085681438446
1.7506674528121948 0.35210639238357544 0.24902603030204773
-1.4316747188568115 0.18020981550216675 -0.2729804515838623
-2.1009857654571533 0.15794426202774048 0.23731020092964172
3.075770854949951 0.12872745096683502 0.07282783091068268
1.2910511493682861 0.10398295521736145 -0.41348695755004883
0.5228225588798523 -0.13938269019126892 -0.714739203453064
-0.1809990108013153 -0.25315243005752563 -0.19601301848888397
2.127237558364868 -0.3093397915363312 0.45833060145378113
-0.8611397743225098 -0.14868979156017303 0.4423338770866394
1.7537198066711426 -0.06014472246170044 0.12848800420761108
1.2388551235198975 -0.09235185384750366 0.630685567855835
2.716559886932373 0.1827562004327774 -0.4732450842857361
-1.234548568725586 -0.05314677953720093 -0.02704477310180664
-1.479259967803955 0.29182663559913635 -0.36116141080856323
2.6112236976623535 0.19200415909290314 -0.17763744294643402
1.5248291492462158 0.36480438709259033 0.3698475956916809
2.8108930587768555 0.20567473769187927 0.3475841283798218
1.6376179456710815 0.2801172733306885 -0.23176375031471252
0.9753352403640747 -0.3336219787597656 -0.646575927734375
-1.319812297821045 0.09126332402229309 -0.3577360212802887
-0.9273819923400879 0.3352908492088318 -0.3468886911869049
-2.1080729961395264 0.12499061226844788 -0.2917478680610657
-1.1600860357284546 0.12965776026248932 -0.39491191506385803
2.322408676147461 -0.2255975306034088 0.3572275638580322
0.023135222494602203 -0.2835583984851837 -0.6198901534080505
-1.2151495218276978 -0.18528714776039124 0.439227432012558
-0.11321896314620972 -0.2029464989900589 0.47990891337394714
2.3034965991973877 0.24389338493347168 0.09326519817113876
1.585189938545227 0.10259154438972473 -0.5230684876441956
-0.5458361506462097 -0.2425239384174347 0.6132035255432129
2.4799771308898926 0.29487645626068115 0.03167809545993805
1.7186528444290161 -0.1011081337928772 0.47352370619773865
0.4891413748264313 -0.18913143873214722 -0.3424769937992096
-2.4977939128875732 0.23726394772529602 -0.15930578112602234
1.86447012424469 0.3015882968902588 0.6972694396972656
-2.3533310890197754 0.21278220415115356 -0.010436197742819786
0.3314099907875061 0.28526607155799866 0.17646072804927826
0.986739456653595 0.2944338917732239 0.10889828205108643
-0.9728026986122131 -0.2098458856344223 -0.18969878554344177
2.156034231185913 0.32863491773605347 0.0958813950419426
1.3461742401123047 0.15326844155788422 -0.25290483236312866
0.3493550419807434 -0.28188836574554443 -0.47437429428100586
2.2508938312530518 -0.25520139932632446 -0.009504493325948715
0.8777047991752625 -0.23564207553863525 0.046745166182518005
1.8477201461791992 -0.05589398741722107 -0.28373998403549194
-1.6449981927871704 0.1959860771894455 0.2777021825313568
0.7703065872192383 0.1109628826379776 -0.06209074333310127
-2.63790225982666 0.1561896800994873 0.049964215606451035
-1.2852863073349 0.11338645219802856 0.170673668384552
2.2359330654144287 -0.2563702464103699 0.3489985764026642
1.6282238960266113 0.05971768498420715 -0.07530935108661652
-0.5717375874519348 -0.2269717901945114 0.03941437229514122
0.5870537161827087 0.39584270119667053 0.8415147066116333
2.25201153755188 0.18876580893993378 -1.3919758796691895
-1.569167137145996 -0.21770358085632324 0.13299493491649628
1.0554977655410767 0.11334007978439331 0.46849027276039124
-1.0995731353759766 0.1449422538280487 -0.2161376178264618
-2.061939001083374 0.11010600626468658 0.0022697411477565765
-0.10147291421890259 -0.2663349509239197 -0.13351638615131378
1.3074719905853271 -0.26806938648223877 0.03725126385688782
-0.7581135034561157 0.14750471711158752 -0.694699764251709
0.06878427416086197 -0.24169865250587463 0.5178765654563904
-0.8324710130691528 -0.21251532435417175 -0.3001176714897156
-1.637903094291687 0.4193912446498871 -0.8154840469360352
-1.4169330596923828 0.33666619658470154 0.3034343719482422
-1.3590600490570068 0.0992327630519867 0.6582854986190796
-0.9557887315750122 -0.08213400840759277 0.7334779500961304
-0.044771708548069 -0.2294374406337738 0.6150305867195129
0.1505620777606964 0.42230841517448425 -0.557955801486969
-1.729042887687683 -0.02457849681377411 0.23076845705509186
1.4343136548995972 -0.25067588686943054 -0.21272386610507965
1.0045404434204102 0.3123154640197754 0.4109388589859009
2.5113649368286133 -0.08649107813835144 0.3466111421585083
-0.2950531244277954 -0.08774667978286743 0.4789375364780426
-0.9785717129707336 0.07254846394062042 -0.2726803421974182
0.6328824162483215 -0.27022838592529297 -0.006549180950969458
-0.7769272327423096 0.26100224256515503 -0.6529106497764587
-0.503133237361908 0.3476645350456238 0.5807052850723267
0.18938443064689636 0.15849953889846802 0.06284336000680923
-1.633852243423462 -0.23842406272888184 -0.04381921514868736
1.541885256767273 -0.05563056468963623 0.05792895704507828
-1.2285752296447754 0.32983994483947754 0.7190231084823608
-1.874381422996521 0.36635398864746094 -0.3028595745563507
-1.4425262212753296 -0.04879145324230194 0.6082139611244202
-0.4158415198326111 0.20534802973270416 -0.7615070343017578
1.9230890274047852 0.018474861979484558 -0.24892304837703705
2.052184581756592 -0.01870793104171753 0.2669807970523834
-1.5178669691085815 0.5235257148742676 -0.5121278762817383
3.1080665588378906 0.1320430040359497 -0.13189515471458435
0.5739282369613647 0.23276101052761078 -0.6443510055541992
1.0616867542266846 -0.25686147809028625 0.013697031885385513
1.5789371728897095 -0.26949191093444824 0.33731845021247864
2.487535238265991 -0.16148614883422852 -1.5475108623504639
-1.6153266429901123 -0.26364845037460327 0.6185945868492126
0.41550153493881226 0.2747906744480133 0.5618364214897156
1.9886229038238525 -0.2681066393852234 0.11689843237400055
1.2303329706192017 0.27301082015037537 0.16754776239395142
2.7439448833465576 -0.011623784899711609 0.6053746938705444
0.7532497048377991 -0.3968421220779419 -0.17582133412361145
-0.03899664431810379 0.16632643342018127 0.17936405539512634
-0.016276191920042038 -0.08402096480131149 0.07788185775279999
3.4852168560028076 -0.2758897542953491 0.4770270586013794
0.8413989543914795 -0.11440625786781311 0.5117138028144836
2.6405346393585205 -0.14780661463737488 0.4820525646209717
2.566774368286133 -0.17528975009918213 -0.5870457291603088
1.3050049543380737 0.37711596488952637 0.03609439358115196
1.3824892044067383 -0.28966736793518066 -0.22113098204135895
1.5194066762924194 -0.2404899299144745 -0.18566060066223145
2.8356404304504395 0.3133147954940796 -0.28363052010536194
-1.1548075675964355 -0.23363304138183594 0.5844879746437073
-1.6061651706695557 -0.08394621312618256 0.31452280282974243
-0.9409991502761841 0.4485582709312439 0.05835827440023422
-1.086830973625183 -0.07044000923633575 -0.005768345668911934
-0.36001160740852356 0.18408727645874023 0.10294674336910248
2.552067279815674 -0.24114090204238892 0.749177098274231
2.4658007621765137 -0.1179172694683075 0.44274216890335083
1.1971195936203003 0.4450017213821411 0.3340613543987274
0.24096542596817017 0.14973734319210052 -0.14359727501869202
-0.11160594969987869 0.40513065457344055 0.4028417766094208
0.4509965777397156 0.02288036048412323 0.0913759171962738
0.9586452841758728 -0.04290226101875305 0.6407618522644043
1.4309080839157104 0.2584778964519501 -0.005844548344612122
-1.0122140645980835 -0.032247304916381836 0.22587838768959045
-2.4844279289245605 -0.23360687494277954 0.7301653623580933
0.5566387176513672 0.16913923621177673 -0.31369298696517944
0.15674272179603577 0.4341220557689667 0.4723278880119324
-1.0568137168884277 -0.1003028005361557 -0.07416969537734985
-0.1347719132900238 0.4253104031085968 0.6065773963928223
-0.040568940341472626 -0.14651770889759064 0.04595058411359787
1.0650335550308228 0.24819380044937134 -0.7018114328384399
-0.8235200643539429 0.21423503756523132 0.3635435700416565
1.770683765411377 0.22672784328460693 0.16929355263710022
0.12340608984231949 -0.1209082156419754 0.42212530970573425
-1.8339884281158447 0.171927809715271 0.13545018434524536
-1.4126238822937012 -0.10665515065193176 -0.6455449461936951
1.4566924571990967 -0.15977510809898376 0.30894017219543457
-2.025848865509033 0.34736037254333496 -0.021572904661297798
1.9309866428375244 -0.2489822506904602 -0.3405614197254181
-0.5068336725234985 0.29280519485473633 -0.1878436654806137
-1.4185595512390137 -0.34768378734588623 -0.15159206092357635
0.909731924533844 0.28744006156921387 -0.0261464212089777
1.2979508638381958 0.28976815938949585 -0.4075985252857208
-0.9650549292564392 -0.23160386085510254 -0.19189020991325378
-1.3616273403167725 -0.2613040506839752 0.22078923881053925
2.062967300415039 0.34580421447753906 0.08876725286245346
-0.16770029067993164 -0.25310859084129333 -0.18010780215263367
0.8157653212547302 -0.3221614360809326 -0.20780211687088013
1.378076434135437 -0.06745733320713043 -0.013550298288464546
1.4840102195739746 0.23861351609230042 0.44984444975852966
2.468935966491699 0.06533323228359222 -0.1578913778066635
-1.5239241123199463 -0.19022664427757263 -0.266501247882843
2.24308443069458 -0.29778313636779785 0.333180695772171
-2.3686254024505615 0.32366153597831726 0.06595604121685028
0.12831422686576843 -0.2382165789604187 0.40793347358703613
1.258791208267212 0.21171438694000244 0.09691889584064484
0.04893621429800987 0.08955252170562744 0.06516078859567642
0.06081099063158035 -0.301673024892807 0.21205182373523712
-0.0323643758893013 0.2866453230381012 -0.16562175750732422
-0.8874912261962891 -0.19120781123638153 -0.36131662130355835
-0.06272158026695251 -0.2878873944282532 0.11605547368526459
1.2411001920700073 0.3164686858654022 -0.040105465799570084
0.6057428121566772 -0.27348947525024414 -0.41205447912216187
0.8606613278388977 -0.26718398928642273 -0.08763833343982697
0.14248192310333252 0.4174671173095703 0.30140072107315063
-1.6788647174835205 -0.23704582452774048 0.053922973573207855
0.191262349486351 0.3447533845901489 0.48708391189575195
0.9816725850105286 0.07473969459533691 0.17001891136169434
1.6643173694610596 0.026501521468162537 0.40865662693977356
2.4172937870025635 -0.21219424903392792 0.3793462812900543
-1.2339805364608765 0.1539844572544098 -0.1689901053905487
0.2443617284297943 0.44673746824264526 -0.482424795627594
-0.01131528615951538 0.12333621084690094 -0.010134907439351082
0.1304306983947754 -0.20238685607910156 0.6671478748321533
-0.40480658411979675 -0.2199743092060089 -0.5406843423843384
-0.6857360005378723 0.33697059750556946 -0.46138623356819153
-0.8058382272720337 -0.2218974232673645 -0.22161293029785156
-0.8440370559692383 -0.04397892951965332 -0.4118090569972992
0.33549657464027405 -0.23956048488616943 -0.6937211751937866
1.6330742835998535 0.18917062878608704 0.7422975301742554
-0.24803532660007477 0.40417414903640747 0.49302375316619873
0.18030935525894165 -0.289276659488678 -0.6801637411117554
0.8045175075531006 -0.07059548795223236 0.4363991618156433
2.7420668601989746 0.2825951874256134 0.33990028500556946
1.3852990865707397 0.17908164858818054 -0.3025452494621277
2.1817188262939453 -0.10337173938751221 0.19646862149238586
0.918171226978302 0.5059271454811096 0.1742801070213318
-0.7689468264579773 0.029693976044654846 -0.535158634185791
2.7085351943969727 -0.28959226608276367 -0.17006970942020416
1.0820493698120117 -0.23746460676193237 0.19860123097896576
1.4921891689300537 -0.2536689043045044 -0.7121137380599976
1.383430004119873 -0.010712459683418274 0.05592495948076248
-0.04340092092752457 0.005293935537338257 -0.3431416451931
0.9697356224060059 -0.28034505248069763 0.10161752998828888
2.0889639854431152 -0.014056101441383362 0.5284396409988403
0.6567812561988831 0.4410330653190613 -0.5680696964263916
3.277291774749756 -0.18378379940986633 0.10823431611061096
1.2733289003372192 -0.2217532992362976 0.3753948211669922
-0.774742066860199 0.4156605005264282 -0.5869123935699463
-0.9291468262672424 0.420283704996109 -0.4559386372566223
-1.5416368246078491 0.3518334627151489 -0.7028350830078125
1.4486727714538574 -0.21713145077228546 0.38419216871261597
-2.6401073932647705 0.10609900951385498 0.10874570906162262
0.9204474091529846 0.15322524309158325 0.7061835527420044
2.3698956966400146 -0.0798894613981247 0.5534452199935913
1.000260829925537 0.22885560989379883 0.6984415650367737
2.174635171890259 0.32301753759384155 -1.0781694650650024
-2.451531410217285 -0.3077729642391205 -0.785110592842102
2.626880407333374 -0.2982248067855835 0.5742482542991638
-0.37676936388015747 -0.22553300857543945 0.23809713125228882
1.5871732234954834 0.3999023735523224 -0.544517993927002
-0.5520230531692505 0.3945430815219879 -0.03808296471834183
-0.6539600491523743 -0.22897779941558838 -0.1567269265651703
1.0425891876220703 0.07587535679340363 -0.6426917910575867
-1.6480690240859985 0.17305788397789001 -0.49467799067497253
-0.23158898949623108 0.42055612802505493 -0.38474977016448975
1.2190132141113281 0.4516254961490631 0.2063155323266983
0.7883667945861816 0.4723719656467438 -0.07354536652565002
-1.3902459144592285 -0.12431365251541138 -0.07263749837875366
-1.5306488275527954 -0.03323400020599365 -0.5304151773452759
0.5383464694023132 0.5263572931289673 0.3493400514125824
-0.14785507321357727 -0.2587822377681732 -0.10682140290737152
0.09240160882472992 -0.2004317343235016 -0.700361430644989
-1.275923490524292 -0.13598406314849854 0.4672161638736725
2.4775187969207764 -0.23971527814865112 0.6864370703697205
1.2170475721359253 0.4339244067668915 -0.39056649804115295
0.4961133301258087 0.23186862468719482 0.5821341872215271
-0.15860304236412048 -0.23715044558048248 -0.00014479225501418114
0.0913453921675682 0.460751473903656 -0.4276275932788849
-0.2671366333961487 0.2445589303970337 0.018101170659065247
2.2147698402404785 0.22165590524673462 -0.034687794744968414
-2.1033008098602295 -0.18537980318069458 0.1971495896577835
0.8240086436271667 0.4340406656265259 0.02252933196723461
-2.0051581859588623 0.40211623907089233 0.108810655772686
0.054810091853141785 -0.27068883180618286 -0.13001449406147003
3.0307068824768066 -0.24083849787712097 0.47956523299217224
0.3381936550140381 -0.2848989963531494 -0.4764532446861267
1.3094173669815063 -0.19621732831001282 0.4341230094432831
1.940927505493164 -0.22435727715492249 0.36968350410461426
-0.9687724113464355 0.3931395411491394 0.1836678683757782
1.1145405769348145 -0.24349266290664673 0.002117716707289219
2.308908700942993 0.2063049077987671 -0.6283240914344788
-0.2934238016605377 -0.024020656943321228 0.02227291837334633
-1.0632834434509277 0.10498130321502686 0.3234424591064453
0.801559567451477 -0.27713844180107117 -0.6294515132904053
1.5297130346298218 -0.08576567471027374 -0.708382248878479
0.19176366925239563 0.04647611081600189 -0.7201597690582275
2.0093815326690674 -0.26180529594421387 -0.4482443034648895
0.008495643734931946 0.10535788536071777 0.15385490655899048
-2.1436479091644287 0.20030631124973297 0.5247914791107178
-2.013683557510376 -0.179733008146286 -0.3198988735675812
-1.5723621845245361 -0.09206274151802063 0.12627193331718445
2.2025153636932373 -0.05893594026565552 -0.2907572090625763
0.07141603529453278 0.17996633052825928 0.07849538326263428
-1.6663072109222412 -0.020595014095306396 -0.5849661827087402
0.16782182455062866 0.12113845348358154 -0.565312385559082
-1.488501787185669 0.35656604170799255 -0.5529704093933105
1.690277099609375 0.29990872740745544 -0.15368284285068512
-0.42530351877212524 0.37460440397262573 -0.032831378281116486
0.46183106303215027 0.17336231470108032 -0.4943520724773407
-0.009422246366739273 0.127040833234787 0.7861639261245728
-0.12498128414154053 0.3327415883541107 -0.05363874137401581
0.43701377511024475 -0.2531545162200928 0.5495787262916565
0.8674777150154114 -0.26559963822364807 -0.08852081745862961
0.7755517363548279 0.006477773189544678 0.7246432304382324
-0.962550163269043 -0.3455601930618286 0.6577999591827393
1.4992787837982178 0.2041826993227005 -0.745182454586029
1.9746581315994263 0.015883028507232666 -0.5752921104431152
0.7374511361122131 -0.26792165637016296 -0.09582158923149109
0.6839092373847961 0.08631987869739532 -0.12105455994606018
0.6254720091819763 -0.2947462499141693 -0.13276490569114685
0.5828620195388794 -0.08971940726041794 -0.07659295201301575
1.085604190826416 -0.2069658637046814 0.6866476535797119
-1.8184728622436523 -0.21503347158432007 -0.18157978355884552
1.9846640825271606 -0.2385828197002411 0.3498971462249756
0.8918006420135498 0.12909667193889618 -0.5329422950744629
2.177164316177368 -0.25789856910705566 0.29115983843803406
-0.3431304097175598 -0.2371458113193512 -0.003533884882926941
0.6811686754226685 0.24577030539512634 0.276714026927948
2.1027185916900635 0.18248695135116577 -0.29361143708229065
1.6660759449005127 0.4005158245563507 -0.6634773015975952
-0.9317781925201416 0.36223870515823364 -0.5797480940818787
-0.39045801758766174 0.1762060523033142 0.17154669761657715
-1.0490238666534424 0.030578166246414185 -0.5605329275131226
1.234932780265808 0.34425485134124756 0.06781965494155884
2.355754852294922 0.06449514627456665 -0.29119062423706055
-1.8314886093139648 0.2560582160949707 0.08840323984622955
1.4356958866119385 -0.2727540135383606 -0.12923374772071838
0.7493887543678284 -0.07242180407047272 0.41585496068000793
0.9247956275939941 0.004261210560798645 -0.6869628429412842
-0.7290881872177124 -0.2192549705505371 0.10715491324663162
2.522960662841797 -0.11153745651245117 0.17909745872020721
1.3907828330993652 0.11246106028556824 -0.21709448099136353
0.6269461512565613 0.3331240117549896 0.19119015336036682
-1.2133909463882446 0.22451287508010864 0.43711021542549133
0.9987877607345581 0.11891670525074005 0.569085955619812
0.9375394582748413 -0.3026261329650879 -0.5938711762428284
0.9160336256027222 0.039365530014038086 0.5294386744499207
1.8052252531051636 0.0385621041059494 0.8438091278076172
-1.9687427282333374 -0.04045210778713226 -0.40281906723976135
-0.12833376228809357 -0.2269722819328308 0.6389283537864685
-0.8966682553291321 0.19902344048023224 0.2906511723995209
-1.2118436098098755 -0.2549514174461365 0.7479541301727295
2.2008068561553955 0.27978599071502686 -0.3621447682380676
1.1459892988204956 -0.20437318086624146 0.48357316851615906
1.6608206033706665 -0.2976555824279785 -0.5937435626983643
1.6537208557128906 0.013813748955726624 0.290541410446167
0.8550783395767212 0.15507137775421143 0.5935336351394653
0.18996235728263855 0.06368254125118256 0.5646283030509949
0.669861376285553 -0.30633115768432617 0.05525679141283035
2.504889488220215 -0.2767798900604248 -0.04764735698699951
-0.38719427585601807 0.31663978099823 0.4178905487060547
1.0286102294921875 -0.3068757653236389 0.009329326450824738
-1.7283363342285156 0.3103053569793701 0.10152984410524368
-2.1499972343444824 0.2753700613975525 -0.6803119778633118
-0.6096211671829224 0.3836105167865753 -0.06178101524710655
0.053413670510053635 0.17123422026634216 -0.010778753086924553
-0.7177780270576477 -0.21673369407653809 -0.1696968525648117
1.7910689115524292 -0.03080536425113678 0.3068251311779022
1.311242699623108 0.21604138612747192 0.6050161719322205
0.8746583461761475 -0.21450495719909668 -0.7772167921066284
2.5896682739257812 0.07656648755073547 -0.3502834737300873
-2.365706443786621 0.3147367238998413 -0.7890294194221497
-0.6149799823760986 0.44140398502349854 0.02168826386332512
1.3489822149276733 -0.268119752407074 0.07808077335357666
1.2468523979187012 -0.25406306982040405 -0.17997436225414276
1.3237107992172241 0.4617490768432617 0.01895444467663765
0.8414851427078247 0.17972509562969208 -0.3373394310474396
-1.4478358030319214 -0.00696234405040741 0.5081654191017151
1.5431957244873047 -0.2671520411968231 0.24434532225131989
-0.23054775595664978 0.3567452132701874 -0.01252668909728527
2.197345018386841 -0.22246894240379333 0.24263116717338562
-1.4815601110458374 -0.242051899433136 0.7408590316772461
1.3603919744491577 0.13961677253246307 -0.7196694612503052
2.0784175395965576 0.007558807730674744 -0.5610584020614624
-1.0187779664993286 -0.18708115816116333 -0.6072818040847778
0.036328062415122986 0.1419738531112671 -0.0717877522110939
-1.5149680376052856 0.5492132306098938 -0.009998158551752567
2.2751903533935547 0.3532739281654358 -0.20303870737552643
0.29411324858665466 0.4434959292411804 -0.2425265610218048
-1.4010417461395264 -0.21399590373039246 -0.2521049678325653
-0.4056917726993561 0.26673436164855957 0.46008414030075073
2.80812668800354 -0.13879556953907013 -0.08235380053520203
-1.3476097583770752 0.04151687026023865 0.19732432067394257
2.129390001296997 0.21418052911758423 0.019510190933942795
-1.9074921607971191 0.2699394226074219 -0.19693078100681305
-0.8094472885131836 -0.23127949237823486 0.7494702339172363
1.5954383611679077 -0.18684375286102295 -0.7764310836791992
-0.3645014762878418 -0.2729032039642334 -0.17950977385044098
0.00804738700389862 0.20062242448329926 -0.7285343408584595
1.9963037967681885 -0.18693985044956207 -0.38726621866226196
-0.042719706892967224 0.08343446254730225 0.17396607995033264
-0.664149284362793 0.36969926953315735 -0.3226834535598755
-1.7926207780838013 0.31205523014068604 0.5500268340110779
0.40465760231018066 0.04542027413845062 0.5844300389289856
-1.7454149723052979 0.02358318865299225 0.005522077903151512
0.8464311361312866 0.11252593994140625 -0.046248629689216614
0.5566477179527283 -0.273285448551178 0.22435615956783295
-0.6027539372444153 -0.26163116097450256 0.20003217458724976
-2.4591777324676514 -0.20735213160514832 0.02935197576880455
0.9089576601982117 0.22066420316696167 0.5527676343917847
0.24266943335533142 -0.2893167734146118 0.015757659450173378
-2.234938621520996 0.13222917914390564 -0.14687295258045197
2.4734251499176025 -0.022265106439590454 -0.4597223699092865
0.49242541193962097 0.036814749240875244 -0.029587330296635628
-0.3522090017795563 -0.1763242483139038 -0.6631538271903992
0.7479948401451111 -0.27454066276550293 0.015464694239199162
2.9177405834198 -0.2252672016620636 -0.4889509379863739
-2.490013360977173 0.15353265404701233 -0.4996457099914551
-0.47722604870796204 -0.2390396147966385 -0.12749382853507996
1.5660839080810547 0.28896552324295044 -0.10495733469724655
-1.4356746673583984 -0.23493608832359314 0.3489052355289459
-0.24407750368118286 -0.08209744095802307 0.7073128819465637
2.8084640502929688 -0.22114676237106323 -0.024378212168812752
1.3558292388916016 0.10217748582363129 -0.6353924870491028
-0.6942050457000732 0.036150529980659485 -0.6008467078208923
-2.0528151988983154 -0.14964187145233154 -0.44170430302619934
1.592287540435791 0.09382319450378418 0.47459009289741516
-0.2007276862859726 0.05489759147167206 0.4904603362083435
-0.17782962322235107 0.44799941778182983 0.2223830372095108
1.3193764686584473 0.21976476907730103 0.6129032373428345
-2.177729606628418 -0.18824729323387146 -0.01928386092185974
-0.6968240141868591 -0.1984858214855194 -0.4623950719833374
-0.9462164044380188 0.1425241380929947 -0.24918228387832642
-1.8778325319290161 0.1667635589838028 -0.11444800347089767
0.012090131640434265 0.3870355784893036 -0.23547177016735077
0.4333580434322357 0.4181504249572754 0.5647541880607605
-0.5439946055412292 -0.03533060848712921 0.11790590733289719
1.6882789134979248 -0.10859763622283936 -0.1645684838294983
-0.7261393070220947 0.43779608607292175 0.4490828514099121
-0.3233560025691986 -0.27688068151474 0.37870877981185913
-1.8252874612808228 -0.18534713983535767 0.08759403228759766
2.0034279823303223 0.10682686418294907 -0.7041175365447998
0.5945491790771484 -0.043974727392196655 0.4493058919906616
0.48784029483795166 0.30368945002555847 -0.7034819722175598
-1.6411457061767578 0.42165765166282654 -0.05669841170310974
1.0289838314056396 -0.12044855952262878 0.25697875022888184
1.6738651990890503 0.36627915501594543 -0.7187410593032837
0.8629692196846008 -0.2586318254470825 0.07777921855449677
0.7988414168357849 -0.2880489230155945 -0.2925492227077484
-0.07245911657810211 0.16993103921413422 0.44882601499557495
2.452753782272339 -0.13600537180900574 -0.603905439376831
1.2641053199768066 0.007936865091323853 -0.012830955907702446
-0.2063915878534317 -0.19171695411205292 -0.3844987452030182
2.0717923641204834 0.2702774703502655 -0.943387508392334
-2.3492867946624756 0.25961974263191223 -0.10644130408763885
1.4037110805511475 -0.21424630284309387 0.1036081314086914
0.8449411988258362 -0.31987494230270386 -0.641430139541626
-0.8404555320739746 0.07461121678352356 -0.0014612646773457527
1.9727046489715576 0.2717638909816742 0.11344940960407257
0.30036768317222595 -0.22949081659317017 -0.42795994877815247
-0.17860570549964905 0.5254055261611938 -0.1529855877161026
1.608223557472229 0.1652260422706604 -0.6664968729019165
0.31255316734313965 -0.2998864948749542 -0.46778059005737305
0.7121880650520325 0.3364769220352173 -0.24524761736392975
0.24283367395401 -0.02479487657546997 0.7537438273429871
-0.5073614716529846 0.3293299078941345 -0.25797906517982483
-0.43953463435173035 -0.24181529879570007 0.15131059288978577
0.2451188564300537 -0.24518626928329468 0.11739358305931091
2.4431893825531006 -0.09456607699394226 -0.6464627981185913
-1.8941771984100342 -0.19633707404136658 0.5053433775901794
-0.03710247948765755 0.3677283227443695 -0.9090367555618286
-1.9625170230865479 -0.019317761063575745 0.27252936363220215
-1.117053747177124 0.01791924238204956 0.0530577190220356
-0.3472951352596283 0.42545953392982483 -0.04704256355762482
2.134104013442993 0.11664842069149017 0.19474086165428162
0.5443533658981323 -0.2676008343696594 0.16960212588310242
-0.8995121121406555 0.3402274549007416 -0.48234155774116516
0.18945474922657013 0.22488833963871002 -0.5629488825798035
-1.8282731771469116 -0.021796122193336487 -0.3453660011291504
-0.9522472620010376 -0.04942268133163452 -0.11740396916866302
1.8988126516342163 -0.2168387770652771 -0.6631087064743042
1.3461352586746216 0.2548982501029968 -0.7122384905815125
1.6577770709991455 0.11605489253997803 -0.06484412401914597
2.3386614322662354 -0.22421219944953918 -0.477408230304718
0.9821347594261169 0.4087606966495514 -0.4830036163330078
1.5672787427902222 0.03404572606086731 0.7668155431747437
2.4486637115478516 0.14122888445854187 -0.2979046106338501
1.83865225315094 0.060199081897735596 -0.6657512784004211
-0.8975421190261841 -0.39617061614990234 -0.1684611290693283
-1.1485259532928467 0.4195158779621124 -0.4883196949958801
0.3515610098838806 0.005781620740890503 0.7389593124389648
-1.3667525053024292 -0.009610936045646667 -0.31295499205589294
1.0671621561050415 0.10936009883880615 -0.08458024263381958
-0.6122788786888123 0.47221940755844116 -0.29463285207748413
-0.9218666553497314 -0.26539647579193115 -0.38003841042518616
2.7052817344665527 -0.2590973973274231 0.4450034201145172
0.49932006001472473 0.2527015805244446 -0.4914407730102539
0.9436179995536804 0.1311970353126526 0.7408761978149414
-1.0946732759475708 -0.1923057585954666 0.14744135737419128
-1.5260038375854492 0.06845428049564362 -0.5204582214355469
0.49506255984306335 0.4827348589897156 0.3198907673358917
2.017353057861328 0.175968199968338 0.5649337768554688
-1.3701448440551758 0.4166320860385895 0.15774792432785034
-0.042348429560661316 -0.25733208656311035 -0.6065617203712463
0.5868462920188904 -0.2928714156150818 0.33202964067459106
-0.9306791424751282 0.3620334565639496 0.30212852358818054
0.6412473320960999 0.26765313744544983 -0.4159851372241974
2.2128303050994873 -0.25051364302635193 -0.047327667474746704
-1.0890823602676392 -0.1208554059267044 0.2644890546798706
1.1563587188720703 0.4436136484146118 -0.07149551808834076
-1.0645681619644165 0.055072128772735596 -0.4293409287929535
-1.4558212757110596 -0.23205292224884033 -0.3770278990268707
-1.3818259239196777 0.44593727588653564 0.0624273419380188
1.5049362182617188 0.4397686719894409 -0.14584873616695404
2.487088680267334 -0.28869426250457764 -0.16228193044662476
1.2385144233703613 -0.25692570209503174 -0.289713978767395
-0.5031840801239014 -0.25594961643218994 1.3310654163360596
-0.5391270518302917 -0.21503394842147827 0.1721673160791397
1.2643722295761108 0.28489330410957336 0.3435713052749634
0.17043830454349518 -0.301322340965271 -0.2659684121608734
0.36009201407432556 0.3866695165634155 -0.4420848786830902
-0.8654680252075195 0.016655251383781433 0.030867934226989746
-0.5311631560325623 -0.26831984519958496 0.6094539165496826
1.234848976135254 0.3159014582633972 0.37113702297210693
2.2458889484405518 0.1358456015586853 0.5062448978424072
0.3257608711719513 -0.2774561643600464 -0.001456985017284751
1.3725550174713135 0.06749583780765533 -0.1833457499742508
-1.0403683185577393 -0.070207878947258 -0.621305525302887
0.22966277599334717 0.47426849603652954 0.0749085322022438
2.551151990890503 0.03463718295097351 0.5881221294403076
-1.2158178091049194 -0.29239869117736816 0.24967272579669952
-0.33059054613113403 -0.4381296634674072 0.2259902060031891
-1.5269362926483154 0.4632742404937744 -0.26351168751716614
-0.6682608127593994 -0.22619691491127014 -0.14634087681770325
0.10187479108572006 0.4196735620498657 -0.2166142761707306
1.313571810722351 -0.28332990407943726 -0.1808871030807495
1.4079190492630005 -0.2408844530582428 -0.31838661432266235
3.3600597381591797 -0.07248792052268982 0.17091341316699982
-1.305240273475647 -0.24763977527618408 0.46359407901763916
0.5884822010993958 0.049758657813072205 0.09048246592283249
-1.811074137687683 0.36303645372390747 0.18980228900909424
0.37855464220046997 0.1149832010269165 0.6080102920532227
1.91740882396698 -0.16097798943519592 0.21693016588687897
0.7636138796806335 -0.0905667245388031 0.5160641074180603
0.10676440596580505 -0.2599498927593231 -0.11699457466602325
1.378623127937317 0.01642449200153351 -0.09306799620389938
1.483115792274475 -0.07157027721405029 0.09159858524799347
0.42934226989746094 -0.28485995531082153 0.30384841561317444
0.7574313879013062 0.18347232043743134 -0.7505226731300354
-0.31961846351623535 0.1158849447965622 0.5467725396156311
-1.4596019983291626 0.2656101584434509 -0.5626142621040344
-1.3832433223724365 -0.24291086196899414 -0.2950231432914734
-2.430683135986328 -0.055492982268333435 -0.5647861361503601
-1.9707697629928589 -0.13520732522010803 0.5546258687973022
-0.4977642297744751 -0.00942307710647583 0.7773991227149963
-0.4950791597366333 0.35156968235969543 0.4030647575855255
2.6094810962677 0.3490135669708252 -0.7021185159683228
3.1106696128845215 -0.2269592583179474 0.3062181770801544
3.163830280303955 -0.12830951809883118 -0.38636472821235657
-0.25719040632247925 0.44451528787612915 0.25404730439186096
0.1911129653453827 0.3016607463359833 0.4986344277858734
1.0007691383361816 -0.19219177961349487 0.5427502393722534
1.138500452041626 0.294703871011734 0.5387879610061646
-0.44364410638809204 -0.27226531505584717 0.4392986297607422
-2.5581769943237305 0.058215782046318054 0.24029721319675446
2.2131190299987793 -0.2741650938987732 -0.1309589296579361
-0.663750171661377 0.34201687574386597 0.41890332102775574
1.7859660387039185 0.3842741549015045 -0.26901400089263916
-1.0858657360076904 0.30673447251319885 0.6197450160980225
-1.4672224521636963 0.06387339532375336 -0.08334781229496002
0.46909528970718384 0.4374706745147705 -0.003079000860452652
0.5510402321815491 -0.2642989754676819 -0.16621041297912598
-1.7261165380477905 0.25645190477371216 0.45301559567451477
-0.5063048005104065 0.42471200227737427 -0.9708821177482605
2.6415812969207764 -0.2594303786754608 0.7323378324508667
1.9700825214385986 -0.037517040967941284 0.3113919496536255
-2.380585193634033 0.07428611814975739 -0.23003865778446198
-0.07377368211746216 0.06605304777622223 0.24573145806789398
-0.6143381595611572 0.3279816210269928 0.7458198070526123
2.0096287727355957 0.33977746963500977 0.5734654664993286
0.09208577126264572 0.4309079051017761 -0.06456850469112396
-0.5280308723449707 0.3563486933708191 -0.6516796350479126
2.5070788860321045 -0.18000085651874542 0.11952097713947296
2.1151256561279297 -0.03247803449630737 -0.32250741124153137
1.8343491554260254 0.055999353528022766 -0.6329315900802612
1.2813833951950073 0.45094189047813416 0.09768932312726974
-0.6744555830955505 -0.218950092792511 0.8027153611183167
-2.120086431503296 -0.2272605299949646 0.26886725425720215
1.6936320066452026 -0.09305965900421143 0.490011602640152
-0.2068684846162796 0.19375325739383698 -0.5578805208206177
2.141834259033203 -0.24076634645462036 0.14786851406097412
0.606768786907196 0.06192418932914734 0.4602990746498108
-1.4814046621322632 0.0832812637090683 0.33372142910957336
0.9909375309944153 0.2975916266441345 0.04329168051481247
-2.034238576889038 -0.17912113666534424 0.21960146725177765
0.183885395526886 -0.276760995388031 -0.1916227787733078
-1.0895723104476929 0.08433400094509125 -0.627717137336731
-0.2764953374862671 -0.14730429649353027 -0.7171850204467773
0.27129247784614563 -0.30117231607437134 -0.6157272458076477
-1.3142987489700317 -0.31253886222839355 -0.2135218381881714
2.000542402267456 -0.053190961480140686 0.16683025658130646
-1.3157286643981934 -0.00747227668762207 -0.2913220524787903
0.04215312749147415 0.38576608896255493 0.32995209097862244
-0.9508510231971741 0.43952155113220215 -0.4373529553413391
-1.582428216934204 0.07433910667896271 0.10680507123470306
2.623368263244629 -0.16384470462799072 -0.5872385501861572
0.6780563592910767 -0.0018956959247589111 0.5314494371414185
-0.1874752640724182 0.22623403370380402 0.21662837266921997
0.436031699180603 -0.38713538646698 0.07377219200134277
-0.4166962206363678 -0.20452862977981567 -0.4042808413505554
1.1264773607254028 -0.07727587223052979 -0.6415971517562866
0.9646602272987366 -0.22147336602210999 0.5102783441543579
-0.24262726306915283 -0.24292200803756714 0.2936083674430847
0.3127411901950836 0.496561735868454 0.4627964198589325
-2.0832860469818115 0.36747732758522034 -0.683846116065979
0.267065167427063 -0.27569490671157837 -0.525698721408844
