ply
format ascii 1.0
element vertex 811
property float x
property float y
property float z
end_header
1.1681267023086548 -0.6819164156913757 1.2820875644683838
1.0528150796890259 -0.16187214851379395 2.082166910171509
0.6724931001663208 -0.06519539654254913 -0.533413290977478
-1.2436109781265259 0.0171068012714386 -0.6030046343803406
-1.0785801410675049 0.07326076924800873 -0.6687973141670227
1.9166953563690186 -0.5782523155212402 -0.5903929471969604
-2.1939749717712402 -0.08476825058460236 0.3047642111778259
-0.4422690272331238 0.1893194615840912 0.390006959438324
-1.039772629737854 -0.04027120769023895 1.0225151777267456
-1.471427321434021 -0.5626904964447021 1.3779515027999878
1.9240119457244873 0.14262951910495758 -0.2487797737121582
-0.0034380853176116943 0.09051968157291412 0.44748032093048096
2.024907112121582 0.6156420707702637 1.0852888822555542
-1.0669162273406982 0.11540091037750244 -0.4037211537361145
-2.3122448921203613 0.3260952830314636 0.35601145029067993
-0.0921795666217804 0.20829936861991882 -1.2652313709259033
-1.866714358329773 0.5063692331314087 0.054292187094688416
1.0475293397903442 0.20971937477588654 -1.4973639249801636
0.603935718536377 -0.015804573893547058 1.322616696357727
0.608644425868988 -0.4674428105354309 -0.28051531314849854
-0.08301564306020737 0.5320780873298645 0.8070831894874573
-0.8557718992233276 -0.30467453598976135 -0.8682764172554016
1.7416918277740479 0.7465878129005432 -0.2909010052680969
-1.9672274589538574 0.7717269659042358 1.3774566650390625
1.9831074476242065 0.03321944177150726 0.3193853795528412
0.6277503967285156 0.7270471453666687 -0.982945442199707
-1.7795668840408325 -0.1339196264743805 -0.6947001814842224
-0.9694094061851501 0.42895573377609253 0.6106844544410706
1.8542332649230957 -0.6454490423202515 0.36497756838798523
-0.7835970520973206 -0.18205657601356506 0.2142985612154007
-0.8269711136817932 0.31088414788246155 -0.670929491519928
1.875815987586975 0.16443438827991486 0.6086128354072571
0.45681068301200867 0.3369264304637909 -0.34929192066192627
-1.3387451171875 0.4184170365333557 1.3251816034317017
1.3544777631759644 0.5515737533569336 0.19830361008644104
-2.0035817623138428 0.2281053513288498 -0.02265983633697033
1.8427168130874634 0.17022092640399933 -0.7139009833335876
-0.40717270970344543 0.512788712978363 0.6382602453231812
1.0502684116363525 -0.5221422910690308 0.878642201423645
-1.1187807321548462 -0.46521416306495667 1.164602279663086
1.0162806510925293 -0.03162357211112976 0.6144147515296936
-1.3544267416000366 0.5403967499732971 -1.1062054634094238
1.2361327409744263 0.8300731778144836 0.5278608798980713
-2.115746021270752 -0.5379465818405151 -0.603245735168457
1.6690363883972168 -0.3318358063697815 -0.4226551651954651
-1.5258463621139526 -0.19865792989730835 0.5642486810684204
1.5978446006774902 0.014901593327522278 -0.31648561358451843
-2.761017084121704 0.12733124196529388 0.4807904362678528
-2.2939438819885254 -0.33514106273651123 0.3477024435997009
2.732067346572876 -0.28488755226135254 -0.9762439131736755
-0.41190844774246216 0.8166725635528564 -1.6622109413146973
-1.1666055917739868 0.34865301847457886 -0.08270055800676346
1.3003509044647217 -0.47723883390426636 1.358883023262024
-1.598742127418518 0.17374663054943085 0.052613403648138046
2.1519906520843506 -0.24427205324172974 -0.6495596766471863
-1.985498070716858 -0.5109822750091553 1.1317923069000244
0.6404522657394409 -0.3419715166091919 -0.0530703030526638
-0.9110689163208008 0.10795271396636963 1.1265833377838135
1.3082741498947144 -0.1664649248123169 -0.218429297208786
1.281365156173706 0.42200666666030884 -0.9129296541213989
-0.6814332008361816 0.3202764391899109 0.3707889914512634
0.3196395933628082 -0.0027282387018203735 -1.1737596988677979
1.4338704347610474 0.801876962184906 0.8473691344261169
-1.457615613937378 0.9584833979606628 -1.7596534490585327
-0.6513206362724304 -0.0686943382024765 -0.6397420167922974
-1.5729097127914429 0.15365168452262878 -0.49986326694488525
0.5325153470039368 0.728096604347229 0.4666876196861267
-2.456430196762085 1.0226564407348633 0.9505812525749207
0.8379032611846924 0.8935770988464355 -0.029360225424170494
0.4445464611053467 -0.02075931429862976 -0.07856925576925278
-1.4167625904083252 0.2574654221534729 -0.7351016998291016
-1.739640474319458 0.23093116283416748 0.38290148973464966
0.8572578430175781 0.27751803398132324 0.5975634455680847
2.18254017829895 0.24969390034675598 -0.8286647200584412
-2.524381160736084 0.2199476659297943 -0.02384883724153042
-1.2505407333374023 0.8891525864601135 0.8826274871826172
-1.1369922161102295 -0.5746384859085083 -0.15507619082927704
-1.3230687379837036 -0.5373354554176331 0.15002943575382233
-2.3948395252227783 1.1820012331008911 0.8019685745239258
0.898829996585846 -0.05168376863002777 0.5349096655845642
0.02391883358359337 -0.17442701756954193 -0.35988882184028625
0.21957045793533325 0.003563210368156433 -0.8471930027008057
2.83602237701416 -0.583000898361206 0.2518661320209503
-1.6988835334777832 -0.13732291758060455 -1.212273359298706
-1.2220444679260254 1.1445934772491455 0.06562143564224243
-1.7438753843307495 0.3502698540687561 -0.47887417674064636
-0.7670774459838867 -0.6314340829849243 -1.1024590730667114
0.18256498873233795 0.8729698061943054 -0.43341124057769775
-1.5161051750183105 0.7030355930328369 0.37426865100860596
2.22751522064209 0.16914066672325134 1.136009931564331
1.1552362442016602 -0.09165959060192108 -0.7492889165878296
-1.6512895822525024 1.207512378692627 -0.27541235089302063
0.5357574820518494 0.22349810600280762 -1.2746669054031372
-1.845764398574829 0.8049672245979309 1.439389944076538
0.18124939501285553 -0.5533510446548462 -1.121748685836792
0.7898461222648621 -0.3069545030593872 0.7445152401924133
-1.4513150453567505 0.4611501097679138 -1.0208520889282227
0.371100515127182 0.09656481444835663 0.7570939660072327
-0.1576235443353653 0.5046948194503784 0.04914410039782524
1.328402042388916 0.6571574211120605 0.5298176407814026
0.7848508954048157 -0.03280690312385559 -0.029774688184261322
-1.6047800779342651 0.2748106122016907 -1.281358242034912
-0.9476555585861206 0.8084026575088501 -0.35150325298309326
2.262519598007202 -0.6010092496871948 0.10078095644712448
-1.1328463554382324 0.27003246545791626 -0.7201921939849854
-1.3959847688674927 0.2131257951259613 -1.2244973182678223
-0.41715186834335327 -0.33711621165275574 1.2193528413772583
1.4850361347198486 -0.09235359728336334 0.21665598452091217
3.1132190227508545 -0.5808582305908203 0.8125486969947815
0.20390069484710693 -0.5617096424102783 -1.1536921262741089
0.25742238759994507 0.1431955099105835 -0.9773913025856018
-2.7180261611938477 0.6251398921012878 1.2007536888122559
-2.2613377571105957 0.5374048948287964 -0.00906472560018301
-0.9458488821983337 0.032263606786727905 -0.6422342658042908
1.9586687088012695 -0.12410014867782593 -0.7021798491477966
1.8332412242889404 0.1326700896024704 1.1956473588943481
0.6290146708488464 -0.5493080019950867 -0.2500661611557007
2.975522041320801 -0.6550719738006592 -0.608739972114563
1.7269092798233032 0.1539653241634369 -0.027177629992365837
0.033829644322395325 0.8648661375045776 -0.40606600046157837
-1.660839557647705 1.1484551429748535 0.9599425196647644
0.44747427105903625 -0.25514334440231323 0.0654788389801979
2.9361205101013184 0.008606843650341034 -0.2644446790218353
-0.20302212238311768 0.15780919790267944 0.05227931961417198
-1.016831874847412 0.36107951402664185 1.0638997554779053
-0.7162023782730103 1.2087411880493164 0.16487978398799896
-1.025215744972229 0.41561466455459595 0.7108315825462341
-0.2791219651699066 0.1977802813053131 0.33752694725990295
-1.3658692836761475 0.22501111030578613 -0.8536382913589478
0.7144795060157776 0.41226115822792053 0.3762587010860443
-0.6506074666976929 0.25887203216552734 -0.788076639175415
1.9622095823287964 -0.5348241329193115 -0.49451273679733276
2.0769922733306885 -0.46630555391311646 0.4426267743110657
-1.3803309202194214 -0.7516736388206482 0.7396832704544067
0.030313465744256973 -0.5389414429664612 1.3000489473342896
0.6960648894309998 -0.6452929973602295 -0.8500385284423828
-1.7572771310806274 -0.060506537556648254 -1.2667971849441528
0.7628454566001892 0.042014122009277344 -0.24181289970874786
-0.12333730608224869 -0.2011527717113495 0.7452598214149475
2.9930150508880615 -0.06443756818771362 0.310957133769989
-0.32872289419174194 0.47867876291275024 0.5660913586616516
-0.23049157857894897 0.6003527641296387 -0.9341732263565063
-0.695864737033844 -0.25172150135040283 -0.21858200430870056
-2.6913387775421143 0.2581212520599365 0.25405147671699524
-0.04787316918373108 0.6853129267692566 -0.462567001581192
0.8376127481460571 -0.3006047010421753 0.1359775960445404
0.3277609944343567 0.04581327736377716 -0.22968648374080658
0.22742077708244324 1.1341052055358887 0.6226887702941895
1.3688279390335083 -0.35929253697395325 1.2887206077575684
1.7603249549865723 0.15155258774757385 -0.4410041272640228
0.3586154878139496 -0.4000641107559204 -0.6723401546478271
-1.3711657524108887 -0.708869218826294 1.2670778036117554
1.770918369293213 0.26050281524658203 0.16402943432331085
-1.20457923412323 -0.09577059745788574 0.34619978070259094
2.4875235557556152 0.4491380751132965 -0.1862083375453949
-0.20876668393611908 -0.24083982408046722 0.13591623306274414
0.5563883185386658 -0.3948366045951843 -1.1838454008102417
1.9989100694656372 0.011187165975570679 0.2374178171157837
1.87276029586792 0.2813246250152588 -0.13565640151500702
-1.4579213857650757 0.10436810553073883 -0.8214588761329651
-0.5739296674728394 -0.16172075271606445 -0.0366213396191597
1.7319738864898682 -0.20624950528144836 1.0723189115524292
-1.4916051626205444 -0.06708374619483948 0.661746621131897
0.3220946490764618 -0.39984798431396484 0.7651313543319702
-1.9263993501663208 -0.25458648800849915 0.5156307220458984
-1.5495684146881104 0.26277482509613037 0.9865939021110535
0.5040877461433411 0.4100082516670227 -0.22152893245220184
-1.251846432685852 1.2468888759613037 0.009850554168224335
0.08544110506772995 0.04250746965408325 -1.3376222848892212
-0.7021791934967041 0.3562098741531372 0.41837194561958313
1.9331214427947998 0.37842661142349243 -0.5125181674957275
0.5837237238883972 0.19527097046375275 1.0778908729553223
-2.2661328315734863 1.0955039262771606 -0.11410769820213318
-1.3770101070404053 0.22745706140995026 0.23780237138271332
0.032558687031269073 -0.33019840717315674 0.39865076541900635
-0.4740600883960724 -0.1035817563533783 0.21421828866004944
0.7455461621284485 -0.5753188729286194 -0.4693041741847992
-1.6319189071655273 0.3353385925292969 -1.5260190963745117
0.7861415147781372 -0.08552858233451843 0.30555403232574463
-0.4081900715827942 -0.40167874097824097 -0.7354246973991394
0.8313013315200806 0.344789981842041 -1.5146949291229248
-0.5150662660598755 0.9453675150871277 -0.702497124671936
-1.5450975894927979 -0.5614715814590454 -0.5819091796875
-2.379359483718872 0.33935317397117615 0.0026207512710243464
0.9979153275489807 0.02096003293991089 1.3495820760726929
-1.128010869026184 0.8572152256965637 0.3048030138015747
-1.6906319856643677 0.24581216275691986 -0.4516085088253021
1.1303917169570923 -0.5966198444366455 -0.735973060131073
-1.1346280574798584 -0.20392082631587982 0.697712779045105
0.9301638007164001 0.1154642105102539 -0.310782790184021
-0.2386493980884552 -0.39524465799331665 0.5956794619560242
-1.3910257816314697 -0.5889974236488342 -0.1088041290640831
2.146538019180298 0.3712087571620941 -0.0335906445980072
-2.5387582778930664 0.22354090213775635 -0.5587722659111023
-0.9195124506950378 0.06582547724246979 0.2122039645910263
0.5977752208709717 -0.5472249388694763 1.2255715131759644
-1.5245023965835571 -0.6756093502044678 1.0102155208587646
-1.5568314790725708 0.4620153605937958 0.05590836703777313
1.824492335319519 -0.6076165437698364 0.39174818992614746
-1.5590885877609253 -0.2718442380428314 1.28091299533844
-2.9369044303894043 -0.3611699342727661 -0.3019194006919861
-1.5842554569244385 1.1799180507659912 0.29059135913848877
2.538010835647583 -0.03792452812194824 -0.1271052211523056
-0.11285419762134552 0.24794235825538635 -0.27014032006263733
0.54205322265625 -0.14407722651958466 0.08909280598163605
0.017187852412462234 0.5991142988204956 0.672676146030426
0.2116401046514511 -0.52363520860672 -0.06678621470928192
2.118204355239868 0.49815571308135986 0.1879229098558426
0.5364030003547668 -0.026833847165107727 1.3326383829116821
-2.5928330421447754 0.18271520733833313 0.21440798044204712
0.6177088022232056 0.6528760194778442 -0.18482178449630737
-0.27489590644836426 0.030357033014297485 -0.31348392367362976
0.6361284255981445 -0.2314320206642151 -1.3778762817382812
-2.1427769660949707 -0.21193580329418182 -0.31385478377342224
-0.6567992568016052 -0.2244565486907959 0.34956520795822144
-0.5810326337814331 -0.06102624535560608 -1.0490118265151978
1.2483010292053223 -0.14519453048706055 0.5247378349304199
1.8949651718139648 -0.40846434235572815 1.0869170427322388
-0.9087769985198975 0.08375035226345062 -0.7681581377983093
-1.3895171880722046 0.5614910125732422 -0.3610016107559204
1.258671760559082 -0.2684795558452606 -0.04357872158288956
1.4190860986709595 -0.2731229066848755 -0.7277904748916626
-0.8058308959007263 0.6191525459289551 -0.7888088822364807
0.002597019076347351 0.022372379899024963 0.22249074280261993
2.8276803493499756 -0.6218324899673462 -1.3857964277267456
-0.8111327886581421 0.6455535888671875 1.2607699632644653
-2.2035367488861084 -0.03495824337005615 0.5048142671585083
0.9179434776306152 0.3399994969367981 -0.3173465430736542
-1.8007224798202515 -0.10714009404182434 1.2309019565582275
1.314896583557129 -0.1194629818201065 -0.9047770500183105
-1.2241612672805786 0.5814571976661682 -0.9254181981086731
-1.0853859186172485 -0.6569406986236572 -0.40672510862350464
-0.8138772249221802 0.21379755437374115 -0.4163646996021271
0.7843583822250366 -0.25549614429473877 0.618523359298706
3.201098680496216 -0.04166388511657715 0.21147136390209198
2.14775013923645 0.030096590518951416 -1.2464364767074585
-1.8241491317749023 -0.23318445682525635 -0.671973466873169
-1.0593656301498413 0.1690034121274948 -0.6310814023017883
-0.8320697546005249 1.0764954090118408 0.42226922512054443
1.04954993724823 0.4760490357875824 0.35588255524635315
1.9565678834915161 0.09282676875591278 0.4874671399593353
-2.6357100009918213 -0.175849050283432 -1.318473219871521
-1.0814272165298462 1.0396933555603027 0.768827497959137
-1.0185948610305786 -0.5569314360618591 -0.9023746848106384
-0.24027307331562042 -0.21123230457305908 0.9254684448242188
1.0791820287704468 -0.20591245591640472 0.47123730182647705
-0.9201353192329407 -0.12051799893379211 0.021172692999243736
-2.5266318321228027 -0.139971524477005 -1.312945008277893
-0.3143734633922577 -0.005742847919464111 -0.7780895233154297
0.07907220721244812 0.007093995809555054 0.2960541546344757
-1.5226136445999146 -0.6625134348869324 -0.7761275172233582
-0.5014471411705017 0.6332260370254517 0.16561971604824066
-1.2619549036026 -0.04916687309741974 -0.6863439679145813
-1.3188658952713013 -0.1516248732805252 -0.06769032031297684
-0.09396516531705856 0.589905858039856 0.12256362289190292
-1.8071975708007812 0.22867494821548462 -0.7681658267974854
-1.543547511100769 1.1693700551986694 0.08882913738489151
0.34019261598587036 0.46143582463264465 0.4010063111782074
0.07567498832941055 0.6397477388381958 0.6192545294761658
1.4159258604049683 -0.11778168380260468 -0.7308074235916138
-1.6025288105010986 -0.07700809836387634 0.7790580987930298
-0.027257218956947327 -0.43786928057670593 -0.1870199292898178
-0.48919546604156494 0.8470044732093811 0.6954285502433777
1.7482004165649414 -0.6363500356674194 -0.07007670402526855
-2.0121726989746094 -0.6480836868286133 0.8753888607025146
1.437894344329834 -0.7373970746994019 1.1451350450515747
-1.646807074546814 0.9408140182495117 -0.5284218788146973
-0.7971757054328918 -0.2669859826564789 0.7326314449310303
1.3570499420166016 -0.287654846906662 0.7858092188835144
1.780148983001709 -0.6479637622833252 -0.5273923873901367
0.9708855748176575 0.063255175948143 0.21502429246902466
-1.659250020980835 0.5702581405639648 0.160511314868927
-0.4022064805030823 -0.3502744734287262 -1.9334441423416138
1.25861656665802 -0.21239061653614044 0.10134603083133698
0.2193312644958496 -0.5993112325668335 -1.5201170444488525
0.24482302367687225 0.6352830529212952 0.1824362576007843
-0.3385094702243805 0.10625097155570984 0.9444891214370728
-0.096387580037117 0.12478205561637878 -0.4267829656600952
-2.1652634143829346 0.5018126964569092 0.19980725646018982
0.9591026902198792 0.6649196147918701 -0.0727798119187355
-0.4616824984550476 1.1583131551742554 0.17961187660694122
0.948708176612854 -0.681364119052887 0.2621161937713623
-2.2083096504211426 0.24435344338417053 -0.6356077790260315
-0.5293084383010864 -0.5699368715286255 -0.6585081219673157
0.8399326205253601 -0.1406819373369217 0.7477387189865112
-1.2337719202041626 -0.0026815682649612427 -1.0253493785858154
0.4301414489746094 -0.27040964365005493 -0.6347390413284302
-0.13049592077732086 -0.11001591384410858 -0.10449066758155823
-1.6447118520736694 0.03246799111366272 0.11318424344062805
2.5788230895996094 0.3647020161151886 0.7743270397186279
-1.103308916091919 0.3323151767253876 -0.39803293347358704
-1.6068763732910156 0.1473153531551361 -0.19013427197933197
3.2339138984680176 -0.5600820183753967 0.957789421081543
-0.19093236327171326 0.4438369870185852 0.6293414831161499
0.09248446673154831 0.1322093904018402 -0.1587279736995697
-0.7349495887756348 1.020715355873108 0.5869194865226746
0.3948225975036621 0.28263020515441895 1.0905922651290894
-0.6949021220207214 -0.34405529499053955 -0.12729136645793915
1.8142528533935547 -0.3614546060562134 -1.5774214267730713
-1.8828809261322021 -0.4977406859397888 -0.8680080771446228
-2.117030382156372 0.8515695333480835 1.201446771621704
-0.9619756937026978 0.1871221512556076 -0.5598340034484863
-0.11950917541980743 -0.08555445075035095 0.8141251802444458
0.8614205121994019 -0.6430227756500244 -1.0629286766052246
0.4810051918029785 -0.5517507195472717 -1.0959988832473755
0.3040858805179596 -0.11649098992347717 0.39716628193855286
-0.6746120452880859 0.44035500288009644 0.22137229144573212
-1.6237274408340454 0.3146634101867676 0.40638628602027893
1.9983470439910889 0.07139667868614197 -0.09808633476495743
-0.24809208512306213 0.6782981157302856 -1.4587260484695435
2.2268331050872803 -0.4434935450553894 0.6742842197418213
1.1751679182052612 -0.7177343964576721 0.9915887713432312
-2.704582929611206 0.11020836234092712 -0.5611185431480408
-1.4574886560440063 -0.5195579528808594 -1.1150405406951904
1.0994080305099487 0.22084778547286987 0.6149411201477051
0.3249785602092743 0.9670782089233398 -1.7998578548431396
-0.08791954815387726 -0.2641659677028656 -0.28965988755226135
-0.6768573522567749 0.8132497072219849 0.24722258746623993
-0.1730964332818985 -0.14149752259254456 -1.3573548793792725
-0.17603054642677307 0.27846604585647583 0.8740530014038086
-1.9705055952072144 -0.23524639010429382 0.8361960053443909
0.7379613518714905 -0.20566298067569733 1.1236214637756348
0.5475930571556091 0.362366259098053 0.2776276767253876
-1.9525502920150757 0.23619163036346436 1.4995731115341187
0.9180576801300049 0.43825995922088623 -0.0019211452454328537
-1.4248237609863281 0.47371476888656616 -0.5689985752105713
-1.5222550630569458 0.2839672863483429 -0.9708149433135986
-1.8321257829666138 0.9820742607116699 -0.6631709933280945
2.036726474761963 -0.16569924354553223 -1.1133294105529785
-0.6933648586273193 0.9704149961471558 0.15387265384197235
-0.003846537321805954 0.5956149101257324 0.600226104259491
0.1296921670436859 -0.4345324635505676 -0.07833840698003769
-2.549687623977661 0.5890794992446899 0.4830433130264282
-0.842487096786499 0.1493625044822693 -0.5224901437759399
1.9868695735931396 0.2512590289115906 1.091259479522705
1.6260284185409546 -0.15951350331306458 -0.7884910702705383
-0.5549546480178833 0.3696496784687042 0.08859741687774658
1.194469690322876 0.5487838983535767 0.39453041553497314
1.2769290208816528 0.2627306580543518 -0.6939590573310852
-1.7561047077178955 -0.5552260875701904 -0.8456670045852661
-1.7185709476470947 0.523899257183075 0.7915366291999817
1.1845587491989136 -0.3714563250541687 1.7238147258758545
-1.9611700773239136 -0.19585178792476654 0.7609232664108276
0.7364405989646912 0.915580153465271 0.6800359487533569
-2.5649101734161377 1.101521611213684 -0.26714375615119934
2.089254379272461 -0.6952306032180786 0.7129480838775635
0.6646245121955872 0.6511913537979126 -0.265829473733902
-0.9277188777923584 -0.23369954526424408 -0.3421540856361389
1.25867760181427 0.8474985361099243 0.49002605676651
1.4045764207839966 0.41354385018348694 -0.653421938419342
0.4251827597618103 -0.12764152884483337 0.3041004240512848
-1.326174259185791 -0.3002663254737854 -0.8032233119010925
1.3565953969955444 -0.3178104758262634 -1.1335268020629883
1.5607895851135254 -0.5294972658157349 0.5888822078704834
1.0335793495178223 -0.2528555989265442 -0.4399837255477905
-1.3256113529205322 0.39690589904785156 0.15743190050125122
0.8187719583511353 0.30739569664001465 1.0300976037979126
-3.00862979888916 0.12568138539791107 -0.2645595371723175
1.4751293659210205 0.0817241370677948 1.1867282390594482
-0.4551892578601837 0.1369788497686386 1.356765627861023
0.10736043751239777 0.7568044066429138 0.3299165368080139
-0.334882527589798 0.7021312713623047 -0.6304974555969238
1.8228700160980225 0.062442049384117126 0.301014244556427
0.1031247079372406 0.27998340129852295 0.37972187995910645
-2.5008180141448975 -0.31661301851272583 0.5815915465354919
1.338907241821289 -0.563502311706543 1.708528995513916
0.3092731833457947 0.6554230451583862 0.11267092823982239
1.659245252609253 -0.4822741150856018 -0.41023457050323486
1.9424070119857788 0.6503797173500061 -0.019984077662229538
-0.3403227925300598 -0.25334659218788147 -0.6050112247467041
-2.0246388912200928 0.032175883650779724 -0.2861816883087158
-1.813542127609253 -0.5823812484741211 -0.26274773478507996
1.5794042348861694 -0.41823965311050415 0.36348798871040344
-0.8435802459716797 0.5417391061782837 -0.24603691697120667
1.8466917276382446 -0.5004726052284241 0.8387854099273682
-1.8674668073654175 0.8518515825271606 0.6048808097839355
1.402087688446045 0.5261034369468689 -0.3743685185909271
-1.6257221698760986 -0.35367369651794434 0.07350476831197739
0.5915583372116089 0.20805208384990692 -1.1422127485275269
0.16722506284713745 -0.5427877306938171 0.33851686120033264
-1.1872968673706055 0.5707937479019165 -1.010239839553833
0.8188445568084717 0.1007797122001648 0.5535678267478943
-1.221527099609375 -0.43662548065185547 0.18511748313903809
1.954601764678955 -0.2156747579574585 -0.8634549975395203
-1.6820781230926514 0.36400824785232544 0.5201061367988586
-0.20362508296966553 0.9646744132041931 0.08536915481090546
1.0120927095413208 -0.3303644061088562 0.21235524117946625
-1.2261338233947754 0.7767733931541443 0.5595453977584839
-2.6933841705322266 -0.2414228767156601 -0.07245053350925446
0.27897965908050537 0.17337702214717865 -0.32394927740097046
1.439820408821106 -0.061050042510032654 -0.8910349607467651
-0.6315526962280273 0.5671223998069763 -0.9263705015182495
-3.0194308757781982 0.3615526258945465 0.2201911062002182
1.8524343967437744 0.5332186222076416 0.457155704498291
0.6883603930473328 0.49870818853378296 -0.34342774748802185
0.568250298500061 0.17393651604652405 0.4842105507850647
-2.535076379776001 -0.1462053507566452 -0.5618309378623962
-0.2109314501285553 0.7596279978752136 -0.8688821792602539
-1.8473641872406006 0.08821974694728851 -0.21010920405387878
0.6656226515769958 -0.5376148223876953 -0.00032041233498603106
-2.1483678817749023 0.38745906949043274 -0.42764508724212646
0.8605862855911255 0.2723366618156433 -0.2531994581222534
-0.7765446901321411 0.6706728339195251 -0.46902456879615784
0.336488276720047 0.3996162712574005 -1.0301645994186401
-2.2033557891845703 -0.15083736181259155 0.4693695604801178
-0.3809955418109894 -0.758702278137207 0.8302450776100159
2.102205753326416 0.25845277309417725 -0.16433444619178772
-1.9716622829437256 0.6563356518745422 -0.4737291932106018
-1.3714172840118408 1.130378246307373 1.1526185274124146
1.410867691040039 -0.46537476778030396 1.01594078540802
2.574509620666504 -0.029349729418754578 -0.14033128321170807
-1.2625532150268555 -0.3852130174636841 -0.19762423634529114
-3.0603225231170654 -0.09800882637500763 -0.5590202808380127
1.289133071899414 -0.09661102294921875 -0.8302168846130371
1.256792664527893 -0.6414676904678345 -0.5548415184020996
2.200500249862671 -0.1991453468799591 -1.0027118921279907
-0.2724398374557495 -0.35693997144699097 -0.3879173994064331
0.6825823783874512 -0.7187716364860535 0.18892569839954376
-0.5386382341384888 0.10919764637947083 0.9819424748420715
-1.3695273399353027 0.23836475610733032 -0.3689229488372803
-0.9822937846183777 0.43710726499557495 -0.24761909246444702
2.591078281402588 0.1460413634777069 -0.21249832212924957
-0.7401090264320374 -0.2987865209579468 -0.05507098510861397
0.7944232821464539 -0.33650901913642883 -0.15407848358154297
1.6477267742156982 0.6042917966842651 0.32304975390434265
-0.9832179546356201 -0.05708014965057373 0.09035465121269226
1.1109923124313354 -0.3879662752151489 -0.06474070250988007
0.07438191771507263 0.3151724338531494 0.778918445110321
-0.9647485017776489 0.5471861362457275 1.5985071659088135
-1.3221490383148193 -0.19754856824874878 0.8494735360145569
-2.0585737228393555 0.7687996625900269 1.205319881439209
-0.057142067700624466 0.06720146536827087 -0.630214273929596
1.7412669658660889 0.2200249284505844 0.02588028647005558
-1.853863000869751 0.7851465940475464 -0.14871951937675476
-1.8415000438690186 0.8568648099899292 0.41066762804985046
-2.449039936065674 0.669173538684845 -0.08681459724903107
0.41842907667160034 0.06442609429359436 -0.2992175817489624
2.1683287620544434 -0.45651495456695557 -0.6292577385902405
-1.4746863842010498 1.145361065864563 0.6935994625091553
0.4498070478439331 -0.1653493493795395 1.2513670921325684
-1.2677069902420044 1.0499451160430908 -0.14531540870666504
-1.0817354917526245 -0.3174132704734802 0.16885249316692352
-0.11162465810775757 0.36197400093078613 -0.1017908900976181
-2.311462640762329 1.1486318111419678 0.5386784672737122
0.9544775485992432 0.02736198902130127 0.32375121116638184
0.9041975140571594 0.24621327221393585 0.012655548751354218
-0.5396138429641724 -0.5193051099777222 0.955164909362793
-2.3049190044403076 0.4505411386489868 0.2134203463792801
-2.213505983352661 -0.18319746851921082 -0.010797574184834957
-0.7199659943580627 -0.4577987790107727 0.03152794390916824
-0.2793008089065552 0.23778575658798218 -0.3092988431453705
2.155346393585205 0.666373610496521 -0.7003016471862793
-1.6921244859695435 0.9910989999771118 -1.0752254724502563
1.4611036777496338 0.08965745568275452 0.4327867329120636
-1.6121361255645752 0.21047328412532806 -0.7158986330032349
1.2413667440414429 -0.6171777248382568 0.3410120904445648
-0.1667770892381668 1.126286268234253 -1.2035479545593262
-1.1141995191574097 -0.4497303068637848 1.2200878858566284
-0.16516491770744324 -0.25065141916275024 -0.2046947479248047
0.07191333919763565 -0.08391855657100677 -0.6649647951126099
-0.7753286361694336 -0.10936889052391052 -0.10788679867982864
-0.3155478537082672 -0.015894055366516113 -0.0383429080247879
-1.2881388664245605 0.31440261006355286 -1.2394074201583862
-0.6234822273254395 0.2979845106601715 0.8851817846298218
0.37618085741996765 -0.4950339198112488 1.0441023111343384
1.5950901508331299 0.5962941646575928 0.8153935670852661
-2.4457015991210938 0.34460902214050293 0.7643774151802063
1.3441427946090698 0.124101921916008 -0.8824679851531982
-0.08423889428377151 -0.6563886404037476 -0.8403732180595398
-1.953076958656311 -0.03626298904418945 -0.22684957087039948
-0.4379618465900421 0.6697145700454712 -0.7904652953147888
1.7874152660369873 -0.5593067407608032 -1.2283759117126465
-2.018059730529785 -0.059771567583084106 -0.7587640285491943
-2.3293676376342773 0.5152314901351929 -0.9313740134239197
1.2622250318527222 -0.4421434998512268 0.20860712230205536
-0.06154920160770416 1.0713282823562622 -0.1537887305021286
2.837669849395752 -0.06641632318496704 -0.0034387758933007717
-1.8230587244033813 -0.2531306743621826 -0.06134157255291939
0.34899431467056274 -0.5052591562271118 -1.142258644104004
-1.0962226390838623 0.549251914024353 0.27448734641075134
-0.6890206933021545 0.5716680288314819 -0.1671014279127121
2.5870163440704346 -0.33777955174446106 0.4901479482650757
-1.8567253351211548 0.679402232170105 0.40304577350616455
-1.9704408645629883 0.031444236636161804 -0.452396035194397
1.741360068321228 0.40292155742645264 -1.093994140625
1.166678547859192 -0.574341893196106 -0.270740270614624
-0.5765397548675537 0.141867995262146 0.10727021098136902
-0.7975630760192871 -0.38180869817733765 0.09173297137022018
1.6510815620422363 -0.2699216306209564 -0.46578988432884216
-0.7172518968582153 0.1380767673254013 0.25490128993988037
-1.9609627723693848 -0.27953648567199707 -1.1322269439697266
0.12583324313163757 1.0439611673355103 0.16436350345611572
-1.6241717338562012 0.7009461522102356 1.4816161394119263
-0.35169893503189087 -0.426018089056015 -0.8067474961280823
0.3874097466468811 0.1875179558992386 -0.5560290217399597
0.5854913592338562 0.9197798371315002 -0.5886819958686829
3.131283760070801 -0.3486159145832062 -1.386073350906372
0.7869151830673218 0.4282274842262268 -0.25324222445487976
0.5305606722831726 0.2660464644432068 0.37898415327072144
0.3110259175300598 -0.36669817566871643 0.8321982026100159
1.684156060218811 -0.06469357013702393 -0.6770972013473511
2.9168736934661865 -0.40936174988746643 -0.08147040009498596
1.378025770187378 0.05217985808849335 0.17439085245132446
-0.8108099699020386 0.670167863368988 0.6044209003448486
0.44403186440467834 -0.1885790228843689 0.6332576870918274
0.013210058212280273 -0.581577718257904 -0.047521792352199554
-2.3353517055511475 -0.05607105791568756 0.7897328734397888
-1.5606739521026611 -0.020494431257247925 -0.8795453310012817
-0.5439801812171936 -0.3537701368331909 -0.8399315476417542
-0.7112624645233154 0.575768232345581 0.9273967146873474
-0.1685609370470047 0.7632192373275757 -1.6565132141113281
-1.2616665363311768 -0.19553151726722717 -0.20415586233139038
0.19420534372329712 -0.573989987373352 0.30517205595970154
0.8120256662368774 -0.11930103600025177 -1.1187113523483276
-1.196047067642212 -0.09487044811248779 0.7771126627922058
-0.7559864521026611 0.5102580189704895 1.4163357019424438
1.7878406047821045 -0.6375682950019836 -0.47487902641296387
-2.4562342166900635 0.13620007038116455 -0.5190146565437317
0.7941855192184448 0.3745790123939514 0.8958219289779663
-1.6409974098205566 0.11744144558906555 -0.13851241767406464
-1.1224099397659302 1.2447609901428223 0.865585207939148
-1.1334202289581299 1.18175208568573 0.573820948600769
-3.09433913230896 0.35051900148391724 0.11328927427530289
2.5702168941497803 -0.6895047426223755 -0.008125892840325832
0.5993149876594543 0.12258589267730713 1.1290982961654663
0.13577181100845337 0.04771263897418976 0.7736849784851074
0.08699245750904083 -0.5404516458511353 0.3847419023513794
-2.898538827896118 0.13584348559379578 0.536812961101532
1.5774521827697754 0.12728406488895416 0.7841687202453613
-1.123571753501892 -0.07057531177997589 0.2725444436073303
-0.6006491780281067 -0.5161144137382507 -0.023933211341500282
-0.5199287533760071 1.170051097869873 0.22434882819652557
3.044588327407837 -0.41263914108276367 0.3283734619617462
0.5029134154319763 0.8864580392837524 -0.07699449360370636
1.012400507926941 0.02551068365573883 -0.35924357175827026
-0.646976113319397 -0.365889310836792 -0.9881768226623535
-1.3248944282531738 -0.378958523273468 -0.32192182540893555
-0.6841431260108948 0.3618026375770569 -0.3561224937438965
-0.3893110752105713 0.15066683292388916 -0.6348845958709717
-0.9632247090339661 1.2220064401626587 -0.29557621479034424
-1.4342604875564575 0.12615177035331726 0.1678396314382553
1.9744762182235718 -0.604307234287262 -1.1661874055862427
-2.339655637741089 0.1540919840335846 1.1178799867630005
0.07413524389266968 -0.02276451885700226 -0.9108909964561462
0.6179826259613037 0.08285103738307953 -0.966956615447998
-0.5694561004638672 1.1079157590866089 1.0921063423156738
-1.8794426918029785 0.5159944891929626 -0.4461483061313629
-1.2484489679336548 -0.03499460220336914 0.7839664220809937
1.7945374250411987 0.09322045743465424 0.6959925293922424
-2.5794835090637207 -0.24347755312919617 -0.07696627825498581
-0.9802725911140442 -0.30930012464523315 -0.6759640574455261
1.333256483078003 -0.059149086475372314 0.44197317957878113
-1.2400970458984375 0.06120704114437103 0.35872581601142883
1.042318344116211 0.08815208077430725 -0.4991162419319153
1.3796485662460327 0.7227003574371338 -0.3145762085914612
0.14397335052490234 -0.23188070952892303 -0.21285592019557953
1.035154938697815 -0.2851533591747284 1.4369996786117554
-0.9160729050636292 0.05761083960533142 1.341728925704956
-2.293715715408325 0.2400222271680832 0.06195375323295593
-1.5538359880447388 0.06528426706790924 0.035005830228328705
2.462362766265869 -0.2057064175605774 0.5287860631942749
0.27623480558395386 0.4150735139846802 1.245087742805481
1.229123830795288 0.14689722657203674 0.0767950564622879
-0.7970813512802124 -0.5646644830703735 -0.06768415868282318
-1.6308990716934204 0.49946147203445435 0.9933724999427795
0.9944653511047363 -0.2213660478591919 0.49196919798851013
-0.9388421773910522 -0.10846647620201111 0.043364983052015305
1.230728030204773 -0.38548415899276733 -0.20086674392223358
-0.43582719564437866 0.33959639072418213 -1.4462491273880005
1.1828049421310425 -0.5088919401168823 0.37772735953330994
-0.6773214936256409 0.645032525062561 -1.1559213399887085
-1.3468329906463623 0.550836980342865 -0.33877038955688477
-0.40678536891937256 -0.307007372379303 1.2098726034164429
-1.4072973728179932 0.589740514755249 0.7827529311180115
-1.4494378566741943 0.00043833255767822266 0.427313894033432
1.8497803211212158 -0.39030832052230835 0.09644445031881332
0.02931789681315422 -0.18215030431747437 0.7460817098617554
2.286871910095215 -0.6697190999984741 -0.12362278997898102
-0.20917488634586334 0.29021066427230835 -0.5457859039306641
-1.588374376296997 -0.3581225275993347 0.9550408720970154
1.3658063411712646 -0.21654237806797028 -1.4803305864334106
-1.9562832117080688 0.9931612014770508 -0.06920477747917175
0.039639491587877274 1.0343455076217651 -1.3554011583328247
0.0922241136431694 -0.29746872186660767 -0.12190485000610352
-1.1939457654953003 0.8619869947433472 0.1473150998353958
-0.6133900284767151 -0.43082040548324585 0.9445706009864807
-3.1176929473876953 -0.2940964996814728 -0.3761778473854065
0.7792635560035706 0.23372620344161987 -1.0568350553512573
-1.2263867855072021 -0.10562887787818909 0.958469033241272
-1.24234139919281 -0.08818839490413666 0.9881918430328369
0.838746190071106 0.5335870981216431 0.21384751796722412
-2.084357261657715 0.6547404527664185 0.508645236492157
-0.994008481502533 1.0504059791564941 1.072005033493042
2.000061273574829 -0.42120471596717834 -0.8241905570030212
-1.7881852388381958 0.24092352390289307 0.5991793870925903
-0.45249974727630615 0.928047776222229 0.7218337059020996
1.0973516702651978 -0.18756753206253052 0.809346079826355
0.264661967754364 0.3738994002342224 0.9763999581336975
1.0490224361419678 -0.08028203248977661 0.5866140723228455
-1.5166749954223633 0.6766809225082397 0.9525718688964844
-1.4342374801635742 0.10359543561935425 -0.2705507278442383
0.8628799915313721 0.06636834144592285 0.9100597500801086
-1.7599657773971558 -0.3740695118904114 0.02682274952530861
0.5580810904502869 -0.3867197632789612 0.7806735038757324
-0.08660326898097992 -0.2206016331911087 -0.3664703667163849
-1.0919106006622314 -0.39177101850509644 -0.39921000599861145
1.7907058000564575 -0.4731055796146393 0.9283291101455688
-1.3415131568908691 -0.32657259702682495 -0.427741140127182
1.1140830516815186 0.48910969495773315 0.3162603974342346
-2.3318817615509033 -0.21725207567214966 1.2461473941802979
-1.2618111371994019 -0.04957623779773712 -1.7452731132507324
0.4052862524986267 -0.31859707832336426 -1.0884779691696167
-0.5743207335472107 0.1958349049091339 1.3767974376678467
1.330586314201355 0.4927542507648468 -0.3556555509567261
1.642876148223877 0.1163826435804367 0.15048415958881378
-1.8170785903930664 0.34074029326438904 -0.9935562014579773
1.4102624654769897 -0.5255688428878784 1.2381930351257324
-0.8342291116714478 0.6133047938346863 0.6946258544921875
1.4479596614837646 0.36882534623146057 0.20212921500205994
-0.7013064026832581 -0.5346585512161255 0.9242500066757202
-0.7575826644897461 -0.1956876814365387 0.8722418546676636
-0.3523291349411011 0.9201133847236633 -0.26350465416908264
-0.6351696252822876 -0.09651064872741699 -1.4369103908538818
-0.845777153968811 0.5114651918411255 1.0940985679626465
-0.43355506658554077 0.17340035736560822 -0.7417054176330566
2.1519386768341064 0.5614519119262695 -0.19754977524280548
-1.9168131351470947 1.1724282503128052 0.41718822717666626
-1.5521446466445923 -0.6056033968925476 0.19370652735233307
-1.7506216764450073 0.6990161538124084 0.8507592082023621
-1.1932718753814697 0.44458624720573425 -0.022588888183236122
1.975996732711792 0.1253824383020401 -0.9192071557044983
1.1015231609344482 0.7208775281906128 0.977380096912384
2.0422921180725098 -0.6689230799674988 -0.5896349549293518
-0.9667127728462219 0.11760786175727844 1.345374345779419
-0.40658244490623474 0.08987371623516083 -0.9355322122573853
0.4479972720146179 0.2789320945739746 0.09506013244390488
0.24326540529727936 0.9880567193031311 0.9416478276252747
2.3742001056671143 -0.5215728878974915 -0.09369537234306335
1.2273156642913818 -0.1401205211877823 0.023074312135577202
0.8792545795440674 -0.8084855675697327 -1.8289313316345215
-2.082108974456787 -0.2143906205892563 -0.898046612739563
-0.17631272971630096 -0.3348460793495178 -0.09222877025604248
-0.3275022506713867 1.1762759685516357 -1.0194823741912842
1.548035740852356 -0.564109206199646 -1.7330513000488281
-1.6678221225738525 0.049095407128334045 -0.5148637294769287
1.6585124731063843 -0.22286878526210785 0.18681299686431885
-1.0460325479507446 0.6439765691757202 -0.6911349296569824
1.9548115730285645 -0.28637242317199707 -1.1221188306808472
-1.4859501123428345 0.7900658845901489 -0.21550454199314117
0.4638298451900482 0.2874726355075836 1.2759171724319458
-1.3735039234161377 0.13054144382476807 1.1491258144378662
-0.6622390151023865 -0.007139325141906738 -0.448568195104599
-1.8609768152236938 -0.3019396662712097 -0.5650118589401245
1.3395394086837769 0.8011687994003296 -0.09214653074741364
1.410625696182251 -0.2088080644607544 0.9689803719520569
2.020897150039673 0.17033134400844574 -0.7726665139198303
2.189410448074341 -0.44154489040374756 0.4169112741947174
2.5006351470947266 0.2077527493238449 0.8502323031425476
-1.0126250982284546 1.2685669660568237 0.4853888750076294
2.336275577545166 -0.14623306691646576 0.04948839172720909
0.2964927852153778 0.4971269965171814 1.0972044467926025
0.46075594425201416 -0.14068958163261414 0.16779233515262604
0.21482250094413757 0.7057410478591919 -0.4631776809692383
-2.324690580368042 -0.3578892946243286 0.0038618375547230244
2.2243106365203857 -0.04201042652130127 -1.1187797784805298
1.7558684349060059 0.2865297198295593 -0.648643434047699
-2.6300175189971924 0.27952831983566284 0.17054949700832367
-1.5729197263717651 0.011560708284378052 -0.5776379704475403
-2.27042555809021 -0.4667338728904724 0.5697759389877319
0.25267279148101807 1.1256465911865234 0.13790732622146606
1.9390968084335327 0.3753785789012909 1.626716136932373
0.5100336074829102 -0.15469494462013245 1.212286353111267
1.466090202331543 0.08171014487743378 -0.4438280463218689
-1.6753125190734863 -0.29761943221092224 0.9919921159744263
2.00473690032959 0.11445330083370209 -0.10090737044811249
-0.7928099036216736 0.006375625729560852 1.0466511249542236
2.1372265815734863 -0.43038317561149597 -0.7026907205581665
0.9618811011314392 0.2483527660369873 -1.5483362674713135
0.3080161213874817 -0.2488291710615158 0.4414450228214264
-2.079369306564331 0.610967218875885 -0.6474647521972656
-1.122949481010437 0.26079994440078735 0.1005830317735672
-0.7198584079742432 0.34942907094955444 1.0621085166931152
0.15678822994232178 0.7499651312828064 -1.1257237195968628
1.6519936323165894 0.04431776702404022 -0.3680078089237213
1.1919364929199219 0.2698664665222168 0.17700515687465668
-1.8228892087936401 1.1104167699813843 0.31172794103622437
-0.7996357679367065 0.26339492201805115 -1.148600697517395
2.8046302795410156 -0.07162553071975708 -0.21787767112255096
-1.8322508335113525 0.11713922023773193 -0.15758556127548218
-2.5965523719787598 0.2966104745864868 -0.9146384000778198
0.9223267436027527 -0.2602230906486511 0.8507066369056702
-0.7698291540145874 1.0262352228164673 0.6380088329315186
0.5263882279396057 0.4030587673187256 -0.6429175734519958
1.1652956008911133 0.018724575638771057 0.2180994302034378
0.5525466203689575 0.5946478843688965 1.0910983085632324
0.9567106366157532 0.17720872163772583 0.7607426047325134
-0.7533912658691406 0.36395448446273804 0.5817269086837769
-0.9906842708587646 0.23583979904651642 0.17345337569713593
0.8131749629974365 0.36430540680885315 0.6846779584884644
1.2152080535888672 -0.3963373899459839 -0.07179643213748932
-2.0200815200805664 -0.16358987987041473 -0.7073086500167847
3.7287180423736572 -0.047022655606269836 0.24049022793769836
-1.4037915468215942 0.2337549775838852 0.3252417743206024
-2.2853636741638184 0.4142792820930481 -0.271465927362442
1.4717109203338623 -0.19657714664936066 0.7135447263717651
-2.2615368366241455 0.08671566843986511 -0.28689420223236084
0.10894762724637985 -0.22694194316864014 -1.3634827136993408
0.27787312865257263 0.220875084400177 -0.35629725456237793
-0.9655618071556091 -0.43835365772247314 0.4186672866344452
0.6634174585342407 -0.08991728723049164 -0.3216868042945862
2.051922082901001 -0.22023236751556396 -0.8119499087333679
-1.4139927625656128 0.021799132227897644 0.09310860931873322
-1.188000202178955 -0.006489112973213196 -0.8449429273605347
1.3943445682525635 0.5192584991455078 0.09677330404520035
-1.4087128639221191 -0.1510939598083496 -0.5350690484046936
-0.8357738256454468 0.20416487753391266 -0.22620916366577148
1.032645583152771 -0.4689350724220276 -0.028111575171351433
1.7036491632461548 -0.5746493935585022 0.5270350575447083
-1.201036810874939 0.22623953223228455 -0.477512925863266
-1.168094277381897 -0.10808305442333221 -0.01994742453098297
-0.9177236557006836 -0.2717280983924866 -0.2969987392425537
-0.654984176158905 0.2646344304084778 -0.1620592176914215
-0.14641326665878296 0.5147621631622314 -1.6114184856414795
1.4990640878677368 -0.7363340258598328 1.3315445184707642
2.177323579788208 -0.2654523551464081 0.3235258162021637
-0.696049690246582 0.8544907569885254 0.3915078938007355
0.39514869451522827 -0.2020668387413025 -0.8132558465003967
-0.2443896234035492 -0.37297993898391724 1.2134761810302734
-1.5615671873092651 -0.012092113494873047 -0.013202553614974022
2.0697851181030273 0.19103974103927612 -1.3432754278182983
0.8840457201004028 0.8665759563446045 -0.4615907371044159
-0.8348318338394165 0.8956772685050964 -1.2270638942718506
2.276045799255371 0.17286545038223267 -0.6588833332061768
-1.7669543027877808 0.7677571177482605 -0.46815943717956543
-1.2615700960159302 -0.48966342210769653 -0.004281411413103342
-0.18728084862232208 0.04808177053928375 0.062430042773485184
-0.9727195501327515 1.1254627704620361 0.14131800830364227
-2.9536962509155273 -0.177500382065773 0.4695659279823303
-1.5436080694198608 0.6461529731750488 -0.009656766429543495
-1.720320224761963 0.22084730863571167 -0.43309444189071655
-1.62479567527771 0.06494711339473724 0.41907021403312683
-1.613579511642456 0.19158023595809937 -0.5057809352874756
-0.4941191077232361 -0.09871754050254822 -0.15241827070713043
1.1747132539749146 -0.5328345894813538 0.5580925345420837
2.5981383323669434 0.20871305465698242 -0.21196052432060242
0.6939712166786194 0.8409196138381958 -0.7616755366325378
-2.0788402557373047 0.8300426006317139 0.18981793522834778
0.6851076483726501 0.30007585883140564 0.749955952167511
-1.9508305788040161 -0.15106724202632904 0.7831517457962036
-0.4127863645553589 0.3768422305583954 -0.6041530966758728
1.1408742666244507 -0.6161369681358337 1.3764643669128418
-1.0603835582733154 0.9503516554832458 -1.2804895639419556
-1.9383198022842407 0.3553679585456848 -0.48412206768989563
0.949042797088623 0.11937955021858215 -1.1820684671401978
-1.435834288597107 -0.16022561490535736 0.45621535181999207
1.455797553062439 0.23379294574260712 -0.3295432925224304
2.2323012351989746 -0.20680107176303864 0.343411386013031
-1.9926542043685913 0.11445167660713196 0.12969709932804108
-1.826460599899292 0.24079951643943787 1.4027222394943237
0.8633972406387329 0.35887497663497925 -0.21142993867397308
0.7023967504501343 -0.603283166885376 1.1334002017974854
-2.292933702468872 -0.603463888168335 0.6168357133865356
-0.5068526268005371 0.8513414263725281 1.2483911514282227
-1.3523942232131958 0.6621676683425903 0.15246854722499847
-0.08123376965522766 -0.5672913789749146 0.3981299102306366
-1.4709519147872925 -0.32716310024261475 -1.625427484512329
0.42272117733955383 -0.104127436876297 -0.6092991232872009
-1.8414807319641113 -0.10872088372707367 1.413252830505371
-1.2118418216705322 -0.14868168532848358 -0.39520367980003357
1.9670904874801636 -0.3130250573158264 -1.4747532606124878
-0.8807669878005981 0.9595574140548706 0.7587730884552002
1.7949196100234985 -0.6217365264892578 0.32538041472435
-1.9793554544448853 0.2195301353931427 0.13275077939033508
-1.6848260164260864 0.0013227462768554688 1.5655548572540283
-0.7272742986679077 0.08012683689594269 -0.5368416905403137
-1.7249119281768799 0.5549152493476868 -0.582372784614563
-1.9429584741592407 0.04387539625167847 0.5303993225097656
1.1863672733306885 0.6165900826454163 -0.8203092813491821
-2.042473316192627 0.492389976978302 0.2700200378894806
-0.7470057010650635 0.1533459722995758 -0.4465259611606598
0.9720897674560547 -0.0007574111223220825 1.3336193561553955
-0.7542572617530823 0.051137953996658325 -0.9242757558822632
-2.380098342895508 -0.46221432089805603 0.507137656211853
-1.5971730947494507 0.08643676340579987 0.43506354093551636
-0.05361270532011986 1.0703041553497314 -0.10580868273973465
-0.6359320282936096 -0.5125673413276672 -1.1043521165847778
-0.6236622929573059 1.0228996276855469 -0.75755774974823
-1.1525764465332031 -0.25507062673568726 -0.7727875113487244
0.38851141929626465 -0.13935968279838562 -0.5130961537361145
-2.193152666091919 -0.20869068801403046 0.389708936214447
1.7572804689407349 0.22591303288936615 -0.7374258041381836
-0.4083458185195923 0.4707716107368469 -0.37442952394485474
2.2427892684936523 0.04652400314807892 0.9048209190368652
1.0343258380889893 0.8557736277580261 -0.20875370502471924
1.376346230506897 0.10834383964538574 -1.4289077520370483
-1.2284901142120361 0.5850086212158203 0.3508684039115906
2.1014633178710938 0.42006033658981323 0.36458417773246765
2.626235246658325 -0.3749377131462097 0.4716338813304901
-0.06189394369721413 0.7054306268692017 1.1147664785385132
1.8351633548736572 -0.017135143280029297 -0.20174448192119598
-0.7698733806610107 0.4986787438392639 0.06749995052814484
-0.5055282115936279 -0.06652764976024628 0.4152831435203552
0.11575833708047867 1.0304125547409058 -1.006852388381958
0.05009022355079651 -0.5761393308639526 -0.34982651472091675
0.6669474840164185 0.20905911922454834 -1.3519575595855713
-2.038719892501831 0.43892407417297363 0.25413739681243896
-2.0280263423919678 0.6705504059791565 0.14113664627075195
-1.4099812507629395 -0.1789626181125641 -0.491288423538208
-0.9053276181221008 -0.2785476744174957 0.10986722260713577
-0.41215428709983826 -0.39319947361946106 -1.148305058479309
-0.898570716381073 0.5111409425735474 -0.6971495747566223
