ply
format ascii 1.0
element vertex 814
property float x
property float y
property float z
end_header
-2.6267871856689453 0.07860510051250458 0.6978878378868103
1.6437644958496094 0.3185468912124634 0.8601727485656738
0.037766288965940475 -0.008900582790374756 -0.5863850116729736
0.02921805903315544 -0.020579367876052856 -0.3797042965888977
2.0104358196258545 -0.689354658126831 0.8215279579162598
-0.04046904295682907 -0.24510812759399414 0.7999312281608582
-0.15956228971481323 -0.021965980529785156 1.0547287464141846
0.7826794385910034 0.9813894629478455 -0.46215516328811646
-0.7890649437904358 -0.44684481620788574 0.7381642460823059
1.9165868759155273 -0.6061481833457947 0.8891106843948364
2.1518983840942383 -0.6751499772071838 1.0162171125411987
-2.1006686687469482 0.19813771545886993 -0.8476001620292664
0.14316165447235107 0.41607820987701416 0.9476842284202576
0.36631348729133606 -0.29808682203292847 -0.4335065186023712
-0.4642939567565918 -0.23272818326950073 -0.9529269337654114
-1.2470765113830566 -0.06300696730613708 -0.7155643701553345
2.920182704925537 0.17942121624946594 0.19671624898910522
2.6026880741119385 -0.12177348136901855 -0.7456009984016418
-1.296425461769104 0.03960786759853363 -1.01038658618927
0.70465087890625 0.883999228477478 -0.9139865636825562
2.3800487518310547 0.37279367446899414 0.832359254360199
2.4990170001983643 0.45507651567459106 -0.3075467348098755
0.8910483717918396 -0.1350892037153244 -0.9205553531646729
1.0790880918502808 0.2505306899547577 -1.1543960571289062
-2.4761929512023926 -0.0766378790140152 -0.9401232004165649
2.656343460083008 0.2676856219768524 0.015734577551484108
-2.508760452270508 -0.1258029043674469 0.10748634487390518
-1.9115924835205078 0.08118882775306702 0.8467655777931213
-1.9552098512649536 -0.1445114016532898 -0.3167620301246643
3.126804828643799 0.4807532727718353 -0.3417243957519531
0.7567590475082397 0.7771857976913452 0.29795241355895996
0.3185133934020996 0.308104932308197 -0.9833244681358337
1.6066656112670898 -0.2700149416923523 -0.23532935976982117
-2.6226093769073486 -0.22899129986763 0.4671264588832855
-1.2435588836669922 -0.3880833387374878 -0.622908890247345
1.9709312915802002 -0.3410879969596863 -0.57720547914505
2.799551248550415 0.47286707162857056 0.01094625610858202
1.0021538734436035 1.3443776369094849 -0.6614540219306946
2.353302240371704 -0.36649325489997864 -0.7767195701599121
1.295758843421936 0.036957889795303345 -1.1528141498565674
-2.3655648231506348 0.3204425573348999 1.100720763206482
1.4259871244430542 0.9221850633621216 -0.5539100170135498
0.43179425597190857 0.30763596296310425 -0.8539238572120667
0.9312593340873718 0.4313347041606903 -1.1334326267242432
0.823077380657196 1.1217646598815918 -0.16552625596523285
2.365429639816284 0.11791530251502991 -0.12511315941810608
0.8459151983261108 -0.2222410887479782 -1.123701572418213
2.0810635089874268 0.6930751204490662 0.02963259443640709
3.036885976791382 0.14250308275222778 -0.03404882550239563
2.360384702682495 -0.23476892709732056 -1.1601040363311768
2.4229178428649902 -0.008364111185073853 -0.243707537651062
-1.4271116256713867 -0.3390622138977051 -0.17920729517936707
1.0321327447891235 -0.29258257150650024 -1.0674225091934204
-1.5934139490127563 0.6225458383560181 0.9589200615882874
2.4303653240203857 0.42979931831359863 0.21927866339683533
-0.4758164882659912 -0.09218105673789978 -0.7099480032920837
0.8038087487220764 -0.32723990082740784 -0.41461095213890076
1.0479865074157715 1.1883045434951782 -0.4003826677799225
-1.7486305236816406 -0.38223448395729065 0.777606189250946
0.7588059902191162 0.8675998449325562 -0.9237972497940063
2.5882978439331055 0.34451404213905334 -1.0125130414962769
0.38589656352996826 0.18818165361881256 1.0994210243225098
0.5504363775253296 0.6402125358581543 1.053090214729309
1.5488077402114868 0.026999294757843018 -0.47897598147392273
1.4133998155593872 -0.08618807792663574 -1.14671790599823
-0.08416851609945297 -0.1819261610507965 -0.60905921459198
1.9645205736160278 0.5567314028739929 1.034004807472229
3.1181483268737793 0.49483364820480347 -0.6141289472579956
0.5739721655845642 0.9372014999389648 -0.856025218963623
1.9023149013519287 0.4284002184867859 0.5244397521018982
2.1915345191955566 0.32255101203918457 -0.7741298675537109
-2.565415143966675 0.4385800361633301 -0.8395302891731262
-0.7253096103668213 -0.34806403517723083 -0.5879660844802856
-1.6071507930755615 -0.04716376215219498 -0.2724822759628296
-2.712087631225586 -0.2716323435306549 -0.13652509450912476
0.7765486240386963 0.8885347247123718 0.3297308087348938
1.8823267221450806 -0.13836590945720673 -0.39749422669410706
1.5257467031478882 0.2394283413887024 -0.16378873586654663
0.0321623869240284 -0.047773197293281555 0.012909523211419582
-1.3338690996170044 -0.23824535310268402 -0.771643340587616
0.045440007001161575 0.6706426739692688 1.016327142715454
-0.8354096412658691 -0.33701273798942566 1.0493314266204834
-1.8732564449310303 -0.11396142840385437 -0.2494444102048874
1.4683306217193604 -0.16937386989593506 0.604239821434021
-0.20733729004859924 0.01204577088356018 -0.783585786819458
0.5031306147575378 0.2334040105342865 0.35823604464530945
2.53006649017334 -0.21114996075630188 1.0213804244995117
1.8608076572418213 -0.5003366470336914 -1.0456310510635376
-1.3621329069137573 0.10890735685825348 0.8516361713409424
2.2667319774627686 0.5934051871299744 0.9853209257125854
-0.6121753454208374 0.09528101980686188 -0.869277834892273
0.8747358322143555 1.2226587533950806 -0.8272498250007629
0.4684612452983856 0.6329231858253479 -0.5096518993377686
2.0730040073394775 0.09502540528774261 0.9506940841674805
-2.4145240783691406 0.3215576410293579 -1.0781255960464478
2.963528871536255 -0.13331428170204163 -0.3886091709136963
-1.4291902780532837 -0.14646431803703308 0.09680146723985672
-2.701007604598999 -0.18491505086421967 -0.2090662717819214
-1.9294037818908691 0.41088664531707764 1.1463431119918823
2.988009214401245 0.056680358946323395 0.4298800230026245
2.2753801345825195 -0.26867353916168213 0.39691105484962463
-0.9011477828025818 -0.05172678828239441 0.5231750011444092
1.5123579502105713 -0.08334696292877197 1.0375643968582153
-0.8063184022903442 0.1535329520702362 -0.5636330842971802
0.40711259841918945 -0.29197070002555847 -0.39266806840896606
-0.3069033622741699 0.07954523712396622 -1.0523741245269775
0.8551196455955505 0.6851669549942017 0.9892399311065674
2.452381134033203 -0.2872694730758667 0.3468084931373596
-2.2041661739349365 -0.13212557137012482 1.0437544584274292
-0.9273189306259155 -0.408907026052475 -0.665647029876709
-2.6301915645599365 -0.18465657532215118 0.8529915809631348
-0.8655370473861694 0.4909815490245819 -1.1127703189849854
0.24816571176052094 0.13179895281791687 -0.6503092646598816
-0.6291643381118774 -0.18304254114627838 0.8384131789207458
3.059597969055176 0.580397367477417 0.616307258605957
2.1959238052368164 0.682180643081665 -0.9172481298446655
-1.090450644493103 0.14605380594730377 0.9688849449157715
1.9247839450836182 -0.08856111764907837 -1.1168968677520752
0.25053876638412476 0.15661750733852386 -0.519372820854187
-1.1508491039276123 -0.09269607067108154 -0.5535067319869995
3.0843818187713623 0.1727752685546875 -1.022024393081665
2.9864702224731445 0.1747397929430008 -0.637806236743927
-2.3967204093933105 0.3560640215873718 0.44455450773239136
-2.357018232345581 0.17236322164535522 0.40434935688972473
-0.576851487159729 0.0026343315839767456 -0.13173849880695343
-2.4080018997192383 -0.13252578675746918 -0.5729896426200867
-1.3576804399490356 0.12085889279842377 0.05581273138523102
-0.8285258412361145 0.6726809144020081 1.0384849309921265
-0.26621013879776 0.6680878400802612 -1.070114016532898
-2.498344898223877 0.41634121537208557 -0.7261763215065002
2.523498296737671 -0.11605232954025269 -1.1288549900054932
1.3094781637191772 0.5778495073318481 1.005788803100586
0.6348118185997009 0.18425583839416504 -0.8417365550994873
0.23950320482254028 -0.13910922408103943 -0.8580710887908936
1.7585651874542236 -0.07873500883579254 -1.1544631719589233
-2.5554323196411133 0.36197853088378906 -0.679823637008667
1.253753423690796 0.7104196548461914 1.2651280164718628
1.7723535299301147 -0.19951875507831573 -1.0970699787139893
2.053640604019165 0.6967975497245789 0.6345624327659607
0.2575500011444092 -0.18139393627643585 0.07742301374673843
1.6381425857543945 0.7531253099441528 0.8874074220657349
-1.0409377813339233 -0.14246955513954163 -0.8854742050170898
-1.2839796543121338 0.2991113066673279 0.7140200138092041
0.9125611782073975 1.3208436965942383 -0.7605261206626892
2.119110584259033 0.19783325493335724 -0.3925754129886627
2.6218621730804443 -0.41894981265068054 1.0575449466705322
2.1852636337280273 -0.19794867932796478 1.0089846849441528
2.4399490356445312 -0.7516627311706543 -0.9288747906684875
1.5236198902130127 1.025338053703308 0.6780682802200317
-0.830040454864502 0.34197568893432617 -1.127896785736084
0.9097803235054016 1.3485817909240723 0.4302327334880829
3.0701568126678467 0.03723473846912384 0.7779948115348816
-1.8756150007247925 0.1150565892457962 -0.03729996457695961
-1.9008381366729736 0.1162276566028595 0.3698413670063019
-1.5618985891342163 0.12433785945177078 -0.7316359281539917
1.2247899770736694 0.14132197201251984 0.3973495364189148
-0.9293271899223328 -0.6898283958435059 0.7948395013809204
-0.870129406452179 0.31684696674346924 -0.7568405270576477
-1.7298955917358398 -0.3927130103111267 0.8432186245918274
2.085202693939209 0.6084731817245483 0.9934623837471008
-1.7027955055236816 0.1540841907262802 -0.5326716899871826
3.088613986968994 0.06265588849782944 -1.0692733526229858
0.5293508172035217 -0.19575771689414978 -0.9747648239135742
-0.5419506430625916 0.12348666042089462 -0.08641767501831055
2.52543306350708 -0.09415595233440399 -1.0139859914779663
0.8863576054573059 0.6374603509902954 -0.8136813640594482
0.8903222680091858 -0.10606516897678375 1.0897935628890991
2.488638162612915 0.6906920075416565 0.39077484607696533
-1.7768281698226929 0.40246880054473877 1.1303294897079468
2.6621410846710205 -0.07663072645664215 0.6000983715057373
1.9553269147872925 -0.012884408235549927 -0.6290304064750671
2.482013463973999 0.10841047763824463 0.20854555070400238
-2.7051491737365723 -0.23585182428359985 -0.08106496185064316
-1.713174819946289 -0.41991284489631653 0.753521203994751
2.109732151031494 -0.31612253189086914 -0.7213382720947266
2.2404301166534424 0.41558659076690674 0.14297501742839813
2.1376519203186035 -0.6504261493682861 -0.816291868686676
-0.8735141754150391 -0.04495285451412201 0.40887725353240967
2.6252031326293945 0.2880648374557495 0.4349064826965332
0.8099461793899536 1.2920260429382324 -0.8343071341514587
1.7364195585250854 -0.20879590511322021 0.76003098487854
2.5912556648254395 0.41374650597572327 -1.0518736839294434
1.4030201435089111 -0.2040533870458603 -0.3245998024940491
-1.433174967765808 0.6725261211395264 1.0111109018325806
-0.719264805316925 -0.04474887251853943 0.41156241297721863
2.96960186958313 -0.17131823301315308 0.868072509765625
2.2101402282714844 -0.3123701810836792 0.1602918803691864
0.47165054082870483 0.30986735224723816 0.08759374916553497
0.45494332909584045 0.44260290265083313 0.440625935792923
2.8254494667053223 -0.26640748977661133 0.9179986119270325
-1.697918176651001 -0.060910388827323914 -0.5082566142082214
1.5497947931289673 0.32482874393463135 0.8478081822395325
2.323956251144409 0.5302701592445374 -0.32436689734458923
-2.713071346282959 -0.10854712128639221 0.8543049097061157
-1.4148485660552979 -0.04815201461315155 -0.20468859374523163
2.9764628410339355 0.22256805002689362 0.45864489674568176
2.4597861766815186 0.701178789138794 -0.5477212071418762
2.0409960746765137 -0.38191765546798706 -0.5795930624008179
-0.17330996692180634 -0.15071730315685272 0.641767144203186
0.7107900977134705 0.3108167052268982 -0.7861749529838562
-1.3777098655700684 -0.7365113496780396 1.0502065420150757
-1.5150619745254517 0.12245669960975647 0.3485560417175293
-1.1892681121826172 0.5202208757400513 -0.8808521628379822
0.7961559295654297 -0.0416346937417984 -1.083282232284546
-0.2741753160953522 0.13928242027759552 1.0922950506210327
-0.8343401551246643 0.6345849633216858 1.1190600395202637
-1.721146821975708 0.6208642721176147 -0.9610840082168579
-0.9393234252929688 -0.7828870415687561 -0.8986924886703491
0.6934606432914734 0.2739276885986328 0.015614707954227924
1.824648380279541 0.7417072057723999 -0.7820408940315247
-0.3332001864910126 0.02362915128469467 -0.2836054265499115
3.112708568572998 0.14410097897052765 0.435001015663147
2.5761942863464355 -0.0018643289804458618 0.6481060981750488
-1.3551976680755615 0.3822859227657318 0.8248177766799927
0.9235225319862366 -0.2290981113910675 -0.9916743040084839
3.035172700881958 0.48816537857055664 -0.8789503574371338
0.3783876597881317 0.4807969033718109 -0.5606350898742676
-1.9021953344345093 -0.030004248023033142 0.4838220179080963
2.463642120361328 -0.4460628032684326 -1.1625921726226807
-0.30465275049209595 -0.13776737451553345 -0.827276349067688
-0.4484475255012512 0.45136743783950806 1.1064276695251465
1.3865095376968384 1.308679223060608 0.022896820679306984
1.4508048295974731 0.0045744627714157104 -0.5454612374305725
-1.0649813413619995 0.35913705825805664 -0.8879764080047607
2.700483798980713 0.17501191794872284 1.0131185054779053
0.4572836458683014 0.5178030133247375 -0.8282271027565002
0.8020461201667786 -0.2406357079744339 -0.3253321945667267
-0.7282561659812927 -0.1115034818649292 -0.46739283204078674
0.7263386845588684 0.668764591217041 0.1035630851984024
2.179224967956543 0.710205614566803 0.18283069133758545
1.227864384651184 0.0353902131319046 -0.5101359486579895
-2.5391979217529297 0.03855680674314499 -0.33127355575561523
-1.0249505043029785 0.014285832643508911 -1.1134802103042603
-1.0692980289459229 -0.4391458332538605 -1.0085835456848145
-1.5086934566497803 -0.3926747441291809 -0.36716988682746887
-0.6492916345596313 0.3567381501197815 0.869664192199707
-1.931140422821045 -0.08418726921081543 -0.7747402787208557
1.388229489326477 0.33130478858947754 -1.160254716873169
-1.25571870803833 -0.31803083419799805 0.2325512170791626
2.329078197479248 0.4398745894432068 -0.09705077856779099
1.634757161140442 0.8754429221153259 -0.31190553307533264
2.0470125675201416 0.4190921187400818 -0.5140019059181213
-0.6928451061248779 -0.012658074498176575 0.18625430762767792
-0.7112845182418823 -0.4223138093948364 -0.8124439120292664
-2.1909546852111816 -0.13369061052799225 -0.5135562419891357
-0.7367221117019653 -0.4597455859184265 0.7347317934036255
1.302384853363037 0.048121415078639984 -0.28959429264068604
2.2994513511657715 0.7111726999282837 -0.4136700928211212
1.168383002281189 1.1827971935272217 0.05187210440635681
1.00705087184906 0.2639184594154358 -0.8364944458007812
-2.534924268722534 -0.37465351819992065 0.04874902591109276
0.26350733637809753 0.34475523233413696 -1.157366156578064
1.0095431804656982 -0.30058005452156067 -1.057896614074707
0.5147958993911743 -0.25922900438308716 -0.09383537620306015
1.119910478591919 -0.041530877351760864 -0.9050604701042175
1.4108893871307373 0.30948102474212646 -1.154048204421997
-0.5675960779190063 -0.10828590393066406 -1.0718921422958374
1.1819665431976318 -0.10090179741382599 0.9046632051467896
3.105302333831787 0.18675276637077332 0.4094427824020386
-1.25063955783844 -0.07978799939155579 0.7734336853027344
0.9033219814300537 0.0949268639087677 -0.9097521901130676
1.4302642345428467 0.4374501705169678 -1.1613718271255493
2.9880950450897217 0.5991538763046265 0.9572173357009888
-1.0954725742340088 -0.502981960773468 -0.6386175751686096
-1.189241647720337 0.5477195978164673 -0.8816917538642883
2.65358829498291 0.3060157895088196 -0.2929714322090149
2.797210931777954 0.23684106767177582 -0.10204716771841049
-0.34076130390167236 0.1315375566482544 -0.43624261021614075
-2.6747612953186035 -0.19682951271533966 0.5963614583015442
2.329617977142334 0.4265357553958893 0.09832017123699188
2.2518157958984375 -0.55317622423172 -0.822723388671875
0.09012643247842789 0.014938518404960632 -0.6960228681564331
2.5201284885406494 0.04827335476875305 0.4773394763469696
0.15918028354644775 -0.03533686697483063 0.7140225768089294
0.8144482970237732 -0.07728621363639832 0.7971950769424438
-1.7237143516540527 0.12298779934644699 -0.48843565583229065
-2.436760187149048 -0.13809771835803986 -0.39654868841171265
1.3857710361480713 -0.02178347110748291 -0.15023203194141388
0.33199429512023926 0.38503962755203247 0.9167318940162659
2.2541425228118896 -0.15124043822288513 0.7718873620033264
0.7778286933898926 -0.21818235516548157 -0.06934002786874771
1.5083554983139038 0.18322493135929108 -0.18653319776058197
-0.8996149897575378 0.21812158823013306 -0.777305006980896
-0.4196760058403015 -0.02385580539703369 0.49007290601730347
-1.160384178161621 -0.026690900325775146 0.9555288553237915
-0.3353344798088074 -0.26644256711006165 -0.5403110980987549
2.9017982482910156 0.04935571551322937 -0.09925636649131775
1.4939346313476562 0.588337779045105 0.6713566184043884
-1.4581669569015503 0.12440358102321625 0.4614531695842743
2.4591124057769775 -0.14292588829994202 -0.8026012778282166
0.5316818952560425 0.8812562227249146 -0.007407165132462978
-1.9250142574310303 -0.15023377537727356 0.9120475649833679
0.4820267856121063 0.7497000098228455 -0.824435293674469
-2.2677695751190186 0.060752712190151215 -0.7766033411026001
-1.6588555574417114 -0.16410624980926514 -0.20185765624046326
-1.0081514120101929 0.03167372941970825 -0.6190063953399658
2.6333301067352295 0.6066209077835083 0.9555166959762573
1.4189149141311646 0.2576381266117096 0.0396563820540905
2.2107133865356445 -0.10681203007698059 -0.8010321259498596
-1.6344126462936401 -0.23708069324493408 0.44253090023994446
-1.161500334739685 -0.3493286967277527 -0.5056338906288147
-1.466964840888977 0.1357000768184662 -0.42673325538635254
-2.0112950801849365 -0.017719104886054993 0.2645271420478821
-1.716274380683899 0.14356032013893127 0.5611811280250549
0.6994369029998779 -0.031809717416763306 0.8588108420372009
-2.593979835510254 0.03221829980611801 0.2433060109615326
0.8785406947135925 1.1143646240234375 0.4205644726753235
-2.266948938369751 -0.17125147581100464 0.9116178154945374
-0.035150378942489624 0.4367879629135132 -1.007120966911316
-1.9344416856765747 -0.050123170018196106 -0.8410556316375732
1.496620535850525 1.1874547004699707 0.05428646504878998
-1.4775646924972534 0.20146246254444122 1.1229169368743896
-1.2592171430587769 -0.42705827951431274 0.8048743009567261
2.4301657676696777 0.7179366946220398 0.1269165724515915
0.5985926985740662 0.31250935792922974 -0.7588375210762024
1.2374039888381958 0.5635220408439636 0.04723471403121948
-2.04146146774292 -0.23944173753261566 -0.3215287923812866
2.340768575668335 -0.05666942894458771 0.4493589997291565
1.4535022974014282 -0.30288469791412354 -0.4573023021221161
-0.1197403222322464 -0.23331521451473236 -0.5025264024734497
-0.6045823097229004 0.318198025226593 0.8829300999641418
0.5943175554275513 1.1094553470611572 0.2689705789089203
0.406065434217453 0.3358089029788971 -0.3212369680404663
-0.6718400120735168 0.3410172164440155 0.8249963521957397
1.1928590536117554 1.0503779649734497 0.5524489283561707
-1.6101481914520264 0.12160512804985046 -0.07198548316955566
0.18399015069007874 -0.08275997638702393 1.0590252876281738
0.8513041734695435 -0.16422176361083984 -0.9806416630744934
0.7852544188499451 0.986160159111023 -0.05581410974264145
2.336001396179199 0.35856252908706665 0.19514556229114532
1.6161106824874878 -0.1760978400707245 0.553820013999939
0.3939250111579895 0.4017941951751709 -0.6432719230651855
2.3837828636169434 0.07938887178897858 0.2978003919124603
2.622130870819092 0.38122090697288513 0.6713333129882812
0.4176645874977112 0.36249953508377075 0.5398979187011719
2.0932388305664062 0.7102577686309814 -0.4113781750202179
-1.6425729990005493 -0.0553785115480423 0.17312972247600555
-0.7738476991653442 0.2036852240562439 0.9178009033203125
2.7521684169769287 0.4629983901977539 -0.13020949065685272
0.22926369309425354 0.3038477301597595 -1.1419901847839355
2.1423943042755127 0.4480952024459839 0.29422545433044434
-1.3274599313735962 -0.2416231632232666 0.0660656988620758
1.2265818119049072 -0.13197731971740723 0.9061536192893982
1.3722302913665771 0.976718544960022 0.4559306800365448
1.5712147951126099 -0.1302746832370758 0.8113172054290771
1.7879297733306885 0.1312587708234787 -0.09873395413160324
0.7017425894737244 -0.30367621779441833 -1.0638742446899414
1.1591567993164062 0.37942469120025635 0.45327451825141907
-0.7377231121063232 -0.2223741114139557 1.000646948814392
-0.9963728785514832 0.49336016178131104 0.9174754619598389
1.556217074394226 0.57138991355896 -0.8451376557350159
2.2591981887817383 0.6893059611320496 0.7570076584815979
-1.0666066408157349 -0.2554002106189728 -0.4499861001968384
-0.7886272668838501 -0.5407953262329102 0.7710224390029907
0.6383570432662964 -0.33049890398979187 -0.5851159691810608
0.5447487831115723 0.47483348846435547 0.7263425588607788
1.6376564502716064 0.4556828737258911 -0.8033705353736877
-2.5864548683166504 0.026276588439941406 0.22232411801815033
1.314346432685852 1.3425661325454712 -0.3030187487602234
-1.3594319820404053 -0.41473454236984253 -0.27471569180488586
-1.1787703037261963 0.28621751070022583 -1.1168256998062134
0.6249533295631409 0.21751275658607483 -0.2866086959838867
2.071708917617798 -0.2711505591869354 -1.1747156381607056
-2.513387680053711 0.28656136989593506 0.7960801124572754
-0.11237001419067383 0.40419867634773254 -1.0027002096176147
0.4393059313297272 0.27060219645500183 -1.1488127708435059
0.5661341547966003 0.9849776029586792 0.08781833946704865
-1.4082329273223877 0.2671999931335449 1.1143074035644531
-2.168806552886963 0.357532262802124 -1.074009656906128
2.3085544109344482 0.10434991121292114 0.6458784937858582
1.7588894367218018 -0.3939668536186218 -1.0081216096878052
-1.6606618165969849 -0.4202753007411957 -1.066659688949585
-0.5229489803314209 0.39511483907699585 1.110055685043335
0.94367516040802 -0.3596774637699127 0.5644452571868896
-2.230847120285034 -0.09615398943424225 1.07308828830719
3.1814353466033936 0.09364577382802963 -0.38728299736976624
-2.1561532020568848 -0.14099007844924927 1.059622883796692
-1.5372686386108398 -0.2585501968860626 0.7713292837142944
1.8104559183120728 0.7882912158966064 0.06504333019256592
0.4473474621772766 0.7498471736907959 0.42368409037590027
1.675950050354004 0.029590487480163574 -0.8737788200378418
-1.6642094850540161 -0.051655009388923645 0.1318676769733429
1.2090158462524414 0.007034093141555786 -0.3895316421985626
-1.0444738864898682 -0.3833366632461548 0.7244511246681213
1.1219205856323242 -0.04047466814517975 1.1082148551940918
1.5478187799453735 0.05761295557022095 -0.505612850189209
-2.4450550079345703 0.09804579615592957 -0.2565394937992096
1.825308084487915 -0.35979411005973816 -0.47474050521850586
0.35905951261520386 0.03678213059902191 0.6846808791160583
-1.4770618677139282 0.11445602774620056 0.22635987401008606
2.786647319793701 0.49699878692626953 -0.5393237471580505
2.6993520259857178 0.46914374828338623 -1.030168890953064
2.4348011016845703 0.5022445917129517 -0.42194369435310364
0.5297548174858093 0.7892143726348877 -0.47462552785873413
-1.446235179901123 -0.4534282982349396 0.2866814136505127
3.0120675563812256 0.645917534828186 -0.3997810482978821
0.950178325176239 0.331214964389801 0.911643922328949
-0.9472689032554626 0.2720438539981842 -0.8574867844581604
2.72318696975708 0.6722354292869568 0.4707728326320648
-1.8893780708312988 0.5793662071228027 1.0140032768249512
1.736457347869873 0.09972132742404938 1.0483026504516602
2.7005066871643066 0.6672263145446777 0.6521831154823303
-1.199833869934082 -0.2902999222278595 0.7512972950935364
1.6618880033493042 0.622536838054657 -0.457096666097641
-1.1249374151229858 0.32995855808258057 -0.857292115688324
2.479799747467041 -0.248786062002182 0.28132662177085876
-1.3853614330291748 -0.5889371633529663 -0.5934967398643494
2.299602508544922 -0.7324463725090027 0.8661829233169556
1.2772303819656372 0.7922322154045105 1.229791283607483
1.0283840894699097 1.3280166387557983 0.7162688970565796
-2.034787654876709 0.1363605558872223 -0.5613152384757996
2.7364695072174072 -0.5136075019836426 1.046432375907898
-1.6370245218276978 -0.22505269944667816 0.6681937575340271
0.7380826473236084 0.8254223465919495 -0.25809159874916077
-0.5988534688949585 0.22473284602165222 -0.9696925282478333
-0.8093763589859009 0.12806659936904907 -0.8727695345878601
1.3376325368881226 0.8700792789459229 -1.154085636138916
1.7746167182922363 -0.32169294357299805 0.8967328667640686
-0.6421436667442322 -0.14204618334770203 1.057428002357483
-2.3422935009002686 0.531265914440155 0.9794921875
-1.2102611064910889 0.1325722187757492 -0.41158393025398254
0.8940563797950745 0.07181727141141891 -1.136459231376648
2.3611366748809814 -0.6793382167816162 -1.1765294075012207
-1.7137887477874756 0.17005552351474762 -0.7397715449333191
1.7534780502319336 0.343383252620697 0.16175979375839233
0.7378007173538208 1.363948106765747 0.1500263661146164
-1.5332818031311035 -0.12565134465694427 0.9972096681594849
-0.9610313177108765 -0.6555287837982178 -1.0517150163650513
-1.8539079427719116 -0.025922372937202454 0.4010642170906067
2.497209310531616 -0.5980061888694763 0.7718666791915894
1.1801273822784424 1.3310320377349854 -0.8130572438240051
0.5355280637741089 0.5590832233428955 -0.12580642104148865
2.4131016731262207 0.011787116527557373 0.07274876534938812
-0.2958593964576721 -0.02600903809070587 0.4058617055416107
0.8556681275367737 0.8015544414520264 -0.8583558797836304
1.1083059310913086 -0.02627423405647278 1.1071505546569824
-1.595494270324707 -0.42753005027770996 -0.4040190875530243
0.18412579596042633 0.09211747348308563 -0.7772865295410156
1.435866355895996 -0.0019971132278442383 -1.147364616394043
2.5794577598571777 0.5290670394897461 -1.057260513305664
-1.6618602275848389 -0.2920492887496948 0.34528490900993347
0.0989050343632698 -0.20649518072605133 0.8055574297904968
0.8539140224456787 0.2831328511238098 -1.1504676342010498
2.2613396644592285 0.4799754023551941 0.4183771014213562
3.0942578315734863 -0.10478267073631287 0.828890860080719
2.7712132930755615 0.27138563990592957 -0.11608404666185379
2.008617401123047 0.17211300134658813 -1.151885747909546
2.859666585922241 0.2364826500415802 -0.3418412208557129
1.4127871990203857 0.05434044450521469 0.05602482706308365
1.8123582601547241 0.723231315612793 0.8416895866394043
-2.076902151107788 0.10559515655040741 0.12227369844913483
-0.5972610116004944 -0.2882169485092163 -0.6770914793014526
2.436811923980713 -0.21012979745864868 -0.7278686165809631
-2.661100149154663 -0.1597190797328949 0.06330284476280212
-1.4886088371276855 0.6765668988227844 1.0332409143447876
0.9727790951728821 0.13209214806556702 -0.12180472910404205
0.6100161075592041 1.1670453548431396 -0.028037160634994507
0.0007882341742515564 0.11615215241909027 -0.01208836305886507
2.740025520324707 -0.1044115424156189 1.0383845567703247
1.2541080713272095 -0.10719612240791321 -0.2553207576274872
0.7581809759140015 0.46185874938964844 0.2951239347457886
1.2949073314666748 0.8670915365219116 -1.1757971048355103
2.3120176792144775 -0.09290711581707001 -1.1884779930114746
1.530918836593628 -0.08018837869167328 -0.9526900053024292
1.3273072242736816 -0.3542410731315613 0.5938082337379456
1.8992195129394531 0.7318024635314941 -0.1513199508190155
-0.25688910484313965 0.6018437147140503 1.0810364484786987
3.061171531677246 0.2887676954269409 0.7905020713806152
2.6875298023223877 0.4851280748844147 -0.3279402256011963
1.1204197406768799 -0.24463239312171936 -0.31378495693206787
0.3653726577758789 -0.0886230319738388 -1.117505669593811
-2.5743424892425537 0.1698574721813202 -0.1545322686433792
1.093712568283081 0.29361504316329956 -1.1485223770141602
0.39464423060417175 0.5239742994308472 0.6501647233963013
-1.3774456977844238 -0.5194025039672852 -0.17266777157783508
2.101541042327881 -0.7616569995880127 -0.950922966003418
2.30440354347229 -0.6243898868560791 1.0634164810180664
2.443903923034668 -0.2124003916978836 -0.7143589854240417
2.277358293533325 0.1894502192735672 -0.07628399133682251
-0.7717208862304688 -0.10666093230247498 1.0437644720077515
1.639186143875122 -0.24622930586338043 -0.5800204873085022
2.7567498683929443 0.675728976726532 0.26482680439949036
-0.29193636775016785 -0.19979290664196014 -0.9763628244400024
-1.5872883796691895 0.5689883232116699 -1.0565648078918457
0.6630241870880127 1.3094655275344849 -0.7480509877204895
1.3084615468978882 1.2534527778625488 0.6300210952758789
2.1716268062591553 -0.36996978521347046 0.015225469134747982
-2.574218273162842 0.11240154504776001 -0.028331493958830833
1.2643686532974243 0.4506653845310211 0.19496695697307587
-1.6299057006835938 -0.6526410579681396 -0.7911913394927979
0.19984492659568787 -0.18794633448123932 -1.0242578983306885
-1.8466997146606445 0.12650611996650696 -0.2948337197303772
0.7544610500335693 -0.04975564777851105 0.9331764578819275
0.3275220990180969 -0.04216252267360687 -0.7841778993606567
3.025984764099121 0.2487967610359192 -1.0751709938049316
0.2688245177268982 -0.12262232601642609 0.44858890771865845
1.9224869012832642 0.5189692974090576 -0.5194915533065796
2.8683018684387207 0.44344884157180786 -1.0532503128051758
2.3587679862976074 -0.3131153881549835 0.08034820109605789
1.1056084632873535 -0.2684805393218994 0.23078544437885284
2.936116933822632 0.17354509234428406 0.22631898522377014
2.1830105781555176 0.43575572967529297 -0.6421937942504883
-0.11843251436948776 -0.018084868788719177 -0.4908774793148041
2.3312876224517822 -0.037465229630470276 -0.5948690176010132
-1.237401008605957 0.5946523547172546 1.1300145387649536
1.4270809888839722 -0.046322450041770935 -0.9204397797584534
-1.0585098266601562 0.6123110055923462 0.9360122084617615
-0.2903014123439789 -0.17363524436950684 -0.7564507722854614
-0.7420825362205505 -0.46285465359687805 0.7287864685058594
1.1733628511428833 1.3527766466140747 -0.08666250109672546
2.449786424636841 0.6211125254631042 -1.0101938247680664
3.091280460357666 0.4577328860759735 0.5319522023200989
3.1335299015045166 -0.1034218966960907 -0.2808786630630493
2.4300196170806885 0.354248583316803 -0.46681439876556396
0.8071994781494141 1.1038610935211182 -0.5477817058563232
-1.8109828233718872 -0.07748046517372131 -0.8778599500656128
1.9139541387557983 -0.5175247192382812 0.8113932609558105
-1.7401483058929443 -0.17578525841236115 -0.24795174598693848
1.0334391593933105 -0.2731096148490906 -1.1260812282562256
1.4296413660049438 0.9232050180435181 -0.6116418838500977
-0.036964740604162216 0.11299160122871399 -0.041566986590623856
1.3104113340377808 0.9772077202796936 -0.9790069460868835
3.144953727722168 0.4723008871078491 0.13676975667476654
1.2461283206939697 -0.31624308228492737 -0.5736396312713623
2.6029396057128906 0.09535037726163864 0.5602582097053528
1.4636540412902832 1.173061728477478 -0.17129574716091156
2.6907272338867188 -0.25368553400039673 -1.0095727443695068
-1.3315534591674805 0.2898414134979248 -1.0693506002426147
-2.5027759075164795 -0.2271575629711151 0.24344269931316376
1.5575425624847412 -0.14611183106899261 1.0323359966278076
1.2887847423553467 1.0283745527267456 -1.417897343635559
-1.238355278968811 -0.45979374647140503 -0.5179055333137512
1.5985499620437622 0.1491430550813675 0.0031035756692290306
2.4708099365234375 0.28500935435295105 0.4400811195373535
0.5326305031776428 -0.13082468509674072 -0.9168943166732788
-1.473823070526123 -0.0408472865819931 -0.8445703387260437
-0.8523242473602295 -0.07636785507202148 -1.073172926902771
-2.030250072479248 0.10910767316818237 -0.11116953939199448
3.142836809158325 0.15854880213737488 0.3674843907356262
-1.1942944526672363 0.6792515516281128 1.0669718980789185
0.35493218898773193 0.28104573488235474 -0.4241950809955597
-2.309720277786255 0.3059179186820984 1.0718086957931519
0.5003891587257385 0.5537753105163574 0.6443504691123962
-2.2792437076568604 -0.035265833139419556 0.4687335789203644
2.5209622383117676 0.3290623426437378 -0.357554167509079
0.1443120241165161 -0.039449527859687805 -0.16482050716876984
1.457501769065857 -0.16069750487804413 0.7544088363647461
1.2862266302108765 -0.3280048668384552 -0.47447100281715393
2.825225353240967 -0.04800328612327576 -1.085735559463501
0.36215832829475403 0.27759966254234314 -0.36737626791000366
1.6006669998168945 0.6993342041969299 -0.2129267454147339
-0.6235149502754211 0.12637366354465485 -0.14606031775474548
-1.8317792415618896 -0.050794512033462524 0.8417924642562866
-0.615726888179779 0.1637558937072754 1.0676628351211548
0.2862015962600708 0.33901989459991455 -0.2744449973106384
2.8563175201416016 0.0051878392696380615 -0.8807521462440491
0.5915261507034302 1.133288860321045 0.19720719754695892
1.9719144105911255 -0.7164835929870605 0.8432431221008301
0.8935402631759644 -0.09571951627731323 -0.9494542479515076
0.21368184685707092 -0.04082164168357849 -0.653433620929718
1.2122242450714111 1.3614574670791626 -0.03287304565310478
-1.3164238929748535 -0.7920142412185669 -0.7532205581665039
2.7797248363494873 0.11145880073308945 -0.38608694076538086
2.262958526611328 0.3517553210258484 0.43338844180107117
-2.400158643722534 -0.07236087322235107 -0.8333858251571655
3.0332653522491455 0.6310296654701233 -0.8968428373336792
-2.595993757247925 -0.06486089527606964 -0.4401910901069641
2.32478928565979 0.698381781578064 -0.2511470913887024
0.46346813440322876 0.28973037004470825 -0.927976131439209
2.055687665939331 -0.2938903868198395 -1.0242093801498413
1.6450021266937256 -0.2925909161567688 0.7930183410644531
-1.4022605419158936 0.4888031780719757 -0.8669549226760864
0.10117079317569733 -0.056104302406311035 -0.8747021555900574
2.2388525009155273 0.2888632118701935 0.8515424132347107
-2.2128841876983643 0.10489287972450256 0.09738726168870926
0.5312145948410034 -0.127402663230896 0.6849285960197449
-1.4569779634475708 -0.45743727684020996 -0.5028373599052429
1.9179937839508057 -0.0692952424287796 -1.1380046606063843
1.6214404106140137 0.9139732718467712 -0.2803173363208771
-0.7292417883872986 0.6761267781257629 1.030343770980835
2.620748996734619 0.2155340611934662 -1.0556825399398804
-1.0712940692901611 0.1575600951910019 -0.5602401494979858
0.21487294137477875 -0.05019059777259827 0.04819657281041145
2.6568198204040527 -0.4702026844024658 -0.8584546446800232
-0.5253263115882874 -0.2200588881969452 -0.8184718489646912
-1.4223432540893555 -0.11320187151432037 0.6319885849952698
-2.2004313468933105 0.3478669226169586 -0.923426628112793
0.4816846251487732 0.42264679074287415 0.30468815565109253
3.01910400390625 0.02762247622013092 -0.4973214268684387
-0.290895015001297 -0.19685636460781097 0.7175474166870117
1.4383879899978638 0.8373284339904785 0.6225534081459045
2.6635923385620117 0.6913337111473083 0.21409812569618225
-1.6318284273147583 -0.24655118584632874 0.45115500688552856
-1.0997061729431152 -0.3781053423881531 1.046812891960144
-1.3245114088058472 0.24008148908615112 -1.1146597862243652
-1.7830586433410645 0.5249671936035156 -0.8765162229537964
-2.358733654022217 0.21902649104595184 0.8823537826538086
-1.5098930597305298 -0.3276943862438202 -0.004157083574682474
0.6117652654647827 0.300382137298584 0.6855469942092896
2.329010009765625 -0.36597511172294617 0.8496700525283813
-2.4118824005126953 -0.10709960758686066 0.7507365942001343
-0.49589112401008606 0.42058899998664856 -1.1422874927520752
0.9779406189918518 0.6367529630661011 -1.0635230541229248
-1.1704379320144653 -0.34337830543518066 -0.6121627688407898
-1.038070559501648 -0.07957297563552856 0.4534321129322052
-2.5870347023010254 0.13392700254917145 -0.7455298900604248
1.2598793506622314 0.08974503725767136 -1.158113718032837
0.3189089298248291 -0.13555796444416046 0.9061078429222107
2.4403188228607178 -0.4149533212184906 0.7988265752792358
1.574524998664856 1.010486125946045 0.3135756552219391
-0.6763339638710022 0.11797770857810974 -0.05654534697532654
1.2101998329162598 0.9046418070793152 0.8849441409111023
1.5031731128692627 0.8512237071990967 -0.19775870442390442
-2.568767786026001 0.22334866225719452 0.7165111899375916
1.9242284297943115 -0.15612882375717163 -0.48147958517074585
-0.0877297967672348 0.40455684065818787 1.1081923246383667
1.3565266132354736 0.8910474181175232 0.6381440758705139
-0.8059114217758179 0.1106540709733963 -0.33990514278411865
0.850419282913208 1.1571727991104126 -0.456917941570282
2.4330220222473145 -0.37303677201271057 0.7825483083724976
-0.8616814613342285 0.00532926619052887 -1.0886530876159668
-1.5916218757629395 -0.3907237946987152 0.22866803407669067
-1.1789394617080688 0.16943523287773132 -0.5989217758178711
2.8277878761291504 0.23500686883926392 0.37980955839157104
0.6338096261024475 -0.15124917030334473 -0.9770001173019409
2.1445934772491455 -0.6416765451431274 0.7963278889656067
1.8841023445129395 0.526237964630127 -0.32371991872787476
-0.4676290452480316 -0.2874284088611603 0.7630306482315063
0.8679065108299255 0.4703044891357422 0.7379745841026306
2.0953831672668457 0.3730076551437378 0.8574488162994385
2.0289604663848877 0.31893038749694824 -0.8254499435424805
-1.4106769561767578 -0.3655204176902771 0.7324060797691345
0.29885533452033997 -0.23535963892936707 0.5446184873580933
2.3901827335357666 -0.35789960622787476 0.7486861944198608
1.654772400856018 0.3600406050682068 -1.174798607826233
0.6912814378738403 -0.17382940649986267 -1.1234562397003174
2.1928017139434814 0.048340074717998505 -0.34384992718696594
-2.606398105621338 0.11630017310380936 -1.0139703750610352
1.8382041454315186 0.7393405437469482 -0.9088907837867737
1.7513079643249512 0.052458688616752625 -0.8936631679534912
-1.4752802848815918 -0.6173543930053711 0.7554519176483154
-1.4179226160049438 -0.03563110530376434 0.4781376123428345
2.565582513809204 -0.34465909004211426 0.809323251247406
1.3318673372268677 1.0014972686767578 -1.3396297693252563
0.4411506652832031 0.4773126244544983 0.39856526255607605
-0.888244092464447 0.13778208196163177 0.3794572055339813
1.069705843925476 0.22906284034252167 0.8784958124160767
2.301640272140503 0.7170426249504089 0.4104938805103302
2.3991780281066895 -0.09099121391773224 -0.6877130270004272
3.0138728618621826 0.5153361558914185 -0.6426829695701599
-1.6077677011489868 0.05595332384109497 -1.0330803394317627
0.3256010413169861 0.11551801860332489 0.3047780394554138
0.63861083984375 -0.19602933526039124 1.078997254371643
0.37331753969192505 0.5463162660598755 0.5282121300697327
2.4793503284454346 -0.3209160566329956 -0.6639560461044312
0.5187981128692627 0.2672823667526245 -0.9252543449401855
2.1502485275268555 -0.08018435537815094 1.0207958221435547
-1.001727819442749 -0.180084690451622 -0.5471150279045105
2.4111225605010986 -0.7527152299880981 -0.97923743724823
0.11763014644384384 -0.05190753936767578 -0.8252729773521423
-1.9468194246292114 0.06773935258388519 1.0983333587646484
-0.7938400506973267 -0.6299766302108765 0.8562330603599548
1.4710948467254639 0.40134209394454956 0.2816524803638458
-1.4566847085952759 -0.2824307680130005 -1.0828758478164673
1.6831670999526978 -0.30402839183807373 -0.46519753336906433
1.5162010192871094 -0.30049070715904236 0.8069539070129395
-1.9773045778274536 -0.22661840915679932 -0.9043450951576233
0.4661804139614105 -0.3639843761920929 -0.6206719279289246
1.8120723962783813 0.58797687292099 1.0346713066101074
0.5824849605560303 0.16620956361293793 0.9082481861114502
2.290231704711914 0.1487279087305069 0.6206286549568176
-2.49007248878479 -0.2966456711292267 0.8103731274604797
1.9177441596984863 0.3292267918586731 -0.15652501583099365
1.8278602361679077 -0.23958107829093933 0.9282395243644714
2.6206939220428467 -0.5365098714828491 -0.895452618598938
1.4820551872253418 -0.09695230424404144 -1.1343520879745483
0.08511905372142792 0.055613212287425995 -0.9404150247573853
-0.9189270734786987 0.11121095716953278 -0.8740313053131104
2.1004765033721924 0.3300342857837677 -1.1474543809890747
1.6174622774124146 -0.16726496815681458 -0.9248105883598328
0.8132242560386658 1.0629408359527588 -0.19956175982952118
0.2932703495025635 -0.15331114828586578 0.11306855827569962
-0.8642504811286926 -0.008329510688781738 0.06578158587217331
-2.2219276428222656 0.31496232748031616 1.0272080898284912
2.586158037185669 0.6560043096542358 0.7989993691444397
1.996116280555725 -0.6401560306549072 1.0378172397613525
1.7470611333847046 -0.36102384328842163 -0.9118889570236206
0.543769359588623 0.5089274644851685 -0.038171641528606415
2.1444790363311768 -0.03754667937755585 0.594704806804657
2.2120988368988037 -0.31944209337234497 -0.730847954750061
2.618701457977295 -0.2764859199523926 -0.761669397354126
0.5039845108985901 0.5949715375900269 0.0957050770521164
-1.8137695789337158 0.1445520967245102 -0.9212000370025635
-1.456952691078186 -0.5590925216674805 -0.6974202394485474
-1.6975581645965576 -0.03194001317024231 0.17227530479431152
1.6663817167282104 0.741016149520874 0.8853491544723511
2.878065347671509 0.35352757573127747 -0.14937637746334076
0.49335095286369324 0.14408180117607117 0.8535156846046448
0.45548710227012634 -0.18606290221214294 -0.21661415696144104
1.2642936706542969 -0.12929223477840424 0.893231213092804
-1.3033803701400757 -0.49533769488334656 -0.15604673326015472
2.796140432357788 0.677280604839325 0.008382866159081459
2.299574375152588 0.7056964635848999 0.48033758997917175
-1.5032343864440918 0.48516368865966797 -1.1136890649795532
2.5180606842041016 -0.6736866235733032 -0.9729781150817871
-2.3243868350982666 0.12985628843307495 -0.09469585865736008
1.1434175968170166 -0.34337732195854187 -0.5010142922401428
0.17894695699214935 0.1306900531053543 1.1027135848999023
-1.536088466644287 -0.22792081534862518 0.234393909573555
0.7819174528121948 -0.357636958360672 0.42282968759536743
0.036377012729644775 0.3058040142059326 -1.146580457687378
3.084946870803833 0.31591686606407166 0.2882234752178192
-2.548043966293335 -0.27753496170043945 -0.10903748124837875
-0.6164120435714722 0.4031745493412018 1.113276720046997
1.1086939573287964 1.3020038604736328 0.6233365535736084
2.2429559230804443 0.4788815379142761 0.5418254733085632
2.208858013153076 0.30014723539352417 -0.3704134523868561
0.5824826955795288 1.1526952981948853 -0.3629031479358673
3.138298988342285 -0.08596500754356384 -0.07092926651239395
1.2340197563171387 1.029498815536499 0.6785648465156555
-1.2285845279693604 0.06535481661558151 0.7814698219299316
1.4761711359024048 0.747686505317688 -0.01760263182222843
1.6020011901855469 -0.2048025131225586 0.381890207529068
1.6704943180084229 0.8838647603988647 0.5780687928199768
-1.149707555770874 -0.1487829089164734 -0.689466118812561
1.0786283016204834 -0.004501760005950928 -1.1399683952331543
-0.1571733057498932 0.11582741141319275 0.2587297260761261
-2.1034798622131348 0.2853085398674011 1.1210057735443115
3.1289751529693604 0.43552958965301514 0.19290530681610107
1.2886438369750977 -0.06900385022163391 -1.1435960531234741
-2.5622990131378174 -0.07721534371376038 -0.9000275135040283
1.6163538694381714 0.35485759377479553 -0.17289981245994568
2.2973015308380127 0.3048926293849945 -0.9440411329269409
2.8749945163726807 0.4037107527256012 -0.45560532808303833
0.4113578796386719 0.27776625752449036 -0.3889206051826477
2.158047914505005 0.6850950717926025 -0.9381587505340576
2.9712605476379395 0.05475272238254547 0.11385872215032578
-1.3938426971435547 -0.366618275642395 -0.16363191604614258
-1.971213459968567 -0.20730094611644745 -0.8588923215866089
1.237083911895752 -0.29939743876457214 -0.6006324887275696
-0.10378419607877731 -0.1066385954618454 -0.837395191192627
1.9183614253997803 0.4067630171775818 -0.6500644087791443
1.4013402462005615 -0.2533542215824127 -1.0991506576538086
1.1124204397201538 -0.13067419826984406 -0.7109076976776123
0.7248026728630066 0.40986934304237366 0.8498153686523438
1.6922441720962524 0.6038641333580017 -0.3214123845100403
-1.4637387990951538 0.5318331122398376 -0.8944768309593201
1.5476510524749756 0.7648961544036865 -0.10426240414381027
0.5904040336608887 1.0108281373977661 0.6969810128211975
-2.0911569595336914 0.10582283139228821 -1.086953043937683
-2.3222768306732178 0.37761837244033813 1.0619302988052368
1.7470118999481201 0.24491140246391296 -0.619623601436615
-1.1158422231674194 0.5607502460479736 -0.9129592776298523
0.7587473392486572 0.6857402324676514 -0.6660122871398926
1.1815155744552612 0.037104055285453796 -0.10646230727434158
2.8319478034973145 -0.0050884634256362915 -0.46788349747657776
2.627300977706909 0.09978802502155304 -0.7590900659561157
-1.4122461080551147 -0.29526397585868835 0.24448932707309723
2.303800344467163 -0.2812896966934204 0.7329453229904175
1.355211853981018 -0.05819310247898102 -0.704643964767456
-1.155226230621338 0.1303860992193222 -0.3829754590988159
1.4518945217132568 0.4095609188079834 0.03215806186199188
0.039596762508153915 0.09084957838058472 0.8626064658164978
1.5446895360946655 1.0720276832580566 0.3765968382358551
1.8914908170700073 0.06455026566982269 -0.9862526655197144
0.3623451888561249 -0.0431986004114151 0.8328954577445984
-2.4095981121063232 -0.47850143909454346 0.08317914605140686
0.3558754026889801 -0.2351454198360443 0.7316529750823975
1.3861002922058105 -0.14389106631278992 0.25419026613235474
0.2164311408996582 0.21889427304267883 1.1080899238586426
0.17817118763923645 0.3648112416267395 -0.33989888429641724
-0.3813391327857971 0.13523179292678833 1.0891250371932983
-1.0792666673660278 0.5698376297950745 0.9123347997665405
-1.6422454118728638 0.14879125356674194 -1.0721670389175415
0.4904152750968933 0.422640323638916 0.06473267078399658
1.4746354818344116 0.8961119651794434 -0.15261833369731903
-1.0263060331344604 -0.00024244189262390137 -0.39761674404144287
1.5888049602508545 -0.023813456296920776 -0.9737489819526672
-0.41532033681869507 -0.2176046222448349 -0.9896582365036011
2.702418088912964 0.47850218415260315 -0.04678358882665634
1.4133588075637817 -0.22277162969112396 -1.13718581199646
1.1870582103729248 0.055654942989349365 -0.3988627791404724
1.2545500993728638 1.08401358127594 -0.5178095698356628
-2.6198296546936035 -0.045331358909606934 -0.9432917237281799
-2.1371634006500244 -0.0875815898180008 0.4989141523838043
-2.5813229084014893 0.17625924944877625 -0.7745869755744934
1.9882248640060425 -0.4400421380996704 1.0502054691314697
-2.71142315864563 -0.22221951186656952 -0.3065679967403412
0.550842821598053 0.9160731434822083 -0.19724340736865997
1.500455617904663 1.1357017755508423 0.3723485469818115
-1.4065804481506348 -0.15523956716060638 -0.36990734934806824
-1.334333896636963 -0.11756937205791473 1.06589937210083
2.4547204971313477 -0.43604540824890137 0.8329192399978638
0.35772615671157837 0.166439950466156 -0.15743418037891388
-1.5818994045257568 0.11509127169847488 0.18573930859565735
3.079315185546875 -0.11133265495300293 -0.3502222001552582
-1.5664546489715576 0.2270541787147522 -0.7735353112220764
2.320375442504883 0.4541160464286804 0.7013024687767029
1.865856647491455 0.21289974451065063 -0.4802275002002716
1.7321805953979492 -0.11092796921730042 -1.168630599975586
2.745063066482544 0.026419296860694885 0.6150246858596802
1.407132625579834 1.2487751245498657 0.4558076858520508
0.6984423398971558 0.5366517901420593 -0.2622942626476288
2.2859792709350586 -0.18385420739650726 0.14849382638931274
-1.5794161558151245 -0.4604167342185974 -0.05108997970819473
0.7468200325965881 0.06655595451593399 0.37183478474617004
-0.12286170572042465 0.5411736369132996 -1.1630151271820068
-0.9928545951843262 0.41532623767852783 -0.8760648965835571
1.6948041915893555 -0.2392096221446991 -0.343851238489151
-0.5993608236312866 0.6473486423492432 -0.9738773107528687
0.8052679300308228 1.1076390743255615 -0.8447514176368713
-1.1635347604751587 0.12897691130638123 -0.11403526365756989
2.8778927326202393 0.005267709493637085 0.21437369287014008
2.563081741333008 -0.38807356357574463 -0.767665445804596
