ply
format ascii 1.0
element vertex 812
property float x
property float y
property float z
end_header
-1.5248258113861084 0.17597894370555878 0.43838196992874146
-0.9105427861213684 -0.1826925128698349 0.8635948896408081
-2.2751951217651367 0.27100229263305664 1.8306535482406616
1.8218122720718384 -0.5506422519683838 0.1450338065624237
-2.0151917934417725 -0.4372842609882355 0.6786952018737793
0.26625463366508484 -0.015941932797431946 -0.05758734419941902
-0.04600391536951065 0.7298753261566162 0.2071080505847931
-1.2599703073501587 0.040387094020843506 0.9251371026039124
1.9611314535140991 -0.5397188663482666 0.29888081550598145
-0.33269748091697693 0.26367974281311035 0.5665791630744934
0.8538133502006531 0.3002781569957733 0.5282681584358215
0.6562871932983398 0.39833515882492065 0.7183609008789062
1.1033390760421753 -0.3133310377597809 0.8032156825065613
1.5635989904403687 -0.042442336678504944 0.39623403549194336
-1.3566441535949707 -0.22858941555023193 0.15728053450584412
-2.0679373741149902 0.02830365300178528 0.5040174126625061
-1.0787925720214844 -0.2643834352493286 0.7532162666320801
0.4558119475841522 -0.05837051570415497 -0.8283567428588867
0.9632571935653687 0.5655755996704102 -0.41484731435775757
-1.5928916931152344 -0.14540545642375946 0.13625571131706238
3.137855291366577 0.07119147479534149 -1.0218214988708496
0.8032916188240051 -0.04528869688510895 1.1313793659210205
-1.2812689542770386 -0.48186618089675903 -1.0687823295593262
-0.8569018840789795 0.658267080783844 -0.2744891345500946
1.5081868171691895 0.29451659321784973 -0.714780867099762
0.39975130558013916 -0.20099763572216034 -0.6732879877090454
1.7140114307403564 -0.34928643703460693 -1.402092695236206
0.6094204187393188 0.2983866333961487 0.048087798058986664
-1.1897311210632324 -0.5149450898170471 -0.04930620267987251
-1.1377265453338623 0.07982014864683151 -1.6781831979751587
0.8626930713653564 0.39918434619903564 0.21971361339092255
-2.5625152587890625 -0.06917856633663177 0.3743935525417328
-0.2663213610649109 -0.3578091561794281 1.3354864120483398
-0.48094606399536133 0.6718771457672119 1.2001612186431885
-0.7968890070915222 -0.5673063397407532 0.5946664214134216
2.339686632156372 -0.579353928565979 0.14337807893753052
2.7426812648773193 -0.5541859865188599 -0.29338160157203674
2.952406167984009 -0.07218112051486969 0.32874277234077454
-1.2549843788146973 -0.45581239461898804 0.5505152344703674
1.5983214378356934 -0.10969437658786774 -1.0825226306915283
-1.9321985244750977 0.6739943027496338 0.15944895148277283
-1.8744515180587769 0.8007538318634033 -0.670272946357727
0.3475618362426758 0.039702028036117554 -0.6779157519340515
0.10333631187677383 0.1042724996805191 -0.5721069574356079
-0.4211800694465637 0.5744112133979797 -0.9386778473854065
-1.6127939224243164 -0.13577520847320557 -1.5561206340789795
-1.2550077438354492 -0.609174907207489 -0.4437278211116791
0.04382869601249695 0.957895815372467 -0.06688208132982254
-0.21736527979373932 -0.32080674171447754 0.7482268810272217
-0.34480738639831543 0.9718247056007385 0.5756782293319702
1.3993545770645142 -0.360662579536438 -0.49371105432510376
-0.581288754940033 -0.029301628470420837 0.35658156871795654
1.693191647529602 -0.6540685892105103 -0.6519365906715393
-1.3003382682800293 -0.5304694771766663 -0.45812880992889404
-0.9100571870803833 0.6921461820602417 -0.15572942793369293
1.8052616119384766 -0.5538472533226013 -0.8102460503578186
-0.8651208281517029 -0.4591846764087677 0.2395649552345276
-0.5218542814254761 0.11840364336967468 -0.9291794300079346
1.5118253231048584 0.22947117686271667 1.3103350400924683
-1.9881564378738403 -0.36186105012893677 -0.8305278420448303
1.3907551765441895 -0.5457858443260193 -1.5501643419265747
-1.253981351852417 0.07100732624530792 -0.4213672876358032
-0.5431427955627441 0.38092881441116333 -1.43804132938385
0.9242437481880188 -0.23097357153892517 -0.2825504243373871
2.618257522583008 -0.369455486536026 1.2605527639389038
-0.0861600786447525 -0.5737757682800293 -0.21276359260082245
0.011179551482200623 0.9534029960632324 0.17526450753211975
-0.6887562870979309 -0.4385122060775757 -0.09375519305467606
-1.1979717016220093 -0.3919357657432556 -0.3396545946598053
0.7779480814933777 0.06990097463130951 1.2109689712524414
-2.5764546394348145 0.6626735925674438 0.5950219035148621
-1.0355511903762817 0.010976865887641907 -0.6120800971984863
-1.7712560892105103 -0.0470639169216156 0.5424339175224304
0.555599570274353 -0.41413116455078125 1.1959501504898071
1.4873905181884766 0.5435717105865479 0.9631112813949585
-1.2669302225112915 0.6743795275688171 0.5107988715171814
-0.5127553939819336 -0.4920620918273926 -0.3652782142162323
-0.7828046083450317 0.22113294899463654 -1.5408445596694946
1.505952000617981 -0.5427019000053406 0.5044645667076111
-1.2528903484344482 0.5560477375984192 1.1607341766357422
1.596514344215393 -0.32365882396698 -1.3760284185409546
2.093266010284424 0.3418879508972168 -1.180212378501892
3.001884698867798 -0.5592204928398132 -0.10206259042024612
-2.5598769187927246 0.27665507793426514 -0.4322972595691681
0.928672194480896 0.19833169877529144 0.3326420485973358
-1.2743161916732788 0.46926969289779663 1.1073329448699951
-1.1202003955841064 0.27203741669654846 -0.8438714742660522
-1.263519048690796 0.235981747508049 -0.582827627658844
-0.25018319487571716 0.7803554534912109 -0.593917191028595
0.9615857005119324 0.6043374538421631 0.19449421763420105
2.902287244796753 -0.11142697930335999 -0.7601599097251892
0.9797637462615967 -0.035751789808273315 0.8475739359855652
0.8771741986274719 -0.5372658967971802 0.6771539449691772
1.2676680088043213 0.5534532070159912 -0.3804711401462555
2.2987515926361084 -0.5300201773643494 -1.0892038345336914
0.12457096576690674 0.5901234149932861 -0.7467155456542969
-1.3949350118637085 0.5055384039878845 1.0571740865707397
-2.3381130695343018 0.06853537261486053 -0.2494962215423584
-1.3400051593780518 0.20784854888916016 1.273518443107605
2.4665846824645996 0.27777379751205444 0.4925980865955353
0.4625241756439209 -0.29660099744796753 0.9317031502723694
-0.9414786696434021 0.46523380279541016 -1.5021116733551025
-0.8205580711364746 0.24319049715995789 -0.8300612568855286
-0.08333168923854828 0.5485492944717407 -0.4725847542285919
1.7255364656448364 -0.3236287236213684 1.2279835939407349
-2.6305980682373047 -0.11255042254924774 0.687830924987793
0.3980177640914917 -0.23318621516227722 0.4399140179157257
-1.1353806257247925 -0.3388981521129608 -0.03632212057709694
0.2795652151107788 -0.5252300500869751 1.0600708723068237
1.0195798873901367 0.6951621174812317 0.32358452677726746
-1.371629238128662 -0.38903069496154785 -0.7863364219665527
-0.46955984830856323 0.3909304738044739 1.216792106628418
-0.8510748147964478 0.8152597546577454 0.8196605443954468
-1.5162949562072754 -0.4204655587673187 0.562595784664154
-1.3258873224258423 0.5362112522125244 -0.10112791508436203
-1.857404351234436 0.059698835015296936 0.8985464572906494
-0.701662540435791 -0.5059917569160461 1.0735725164413452
-1.2854071855545044 -0.4543876349925995 0.3918571472167969
-1.0115735530853271 -0.40740877389907837 -0.9077236652374268
-0.045402273535728455 -0.48545002937316895 0.11776071041822433
-0.8657894730567932 -0.002595365047454834 0.5280506014823914
1.614837408065796 0.21359263360500336 -0.639241099357605
2.329040765762329 0.320271760225296 0.1727452278137207
3.057088613510132 0.22060486674308777 -0.49648404121398926
-1.201009750366211 0.06290930509567261 0.04858332872390747
-0.4767943024635315 1.0133943557739258 -0.08208533376455307
1.6909074783325195 -0.3675992488861084 -0.4211163818836212
2.1462337970733643 -0.4952061176300049 -0.8608547449111938
-0.8879339694976807 0.793702244758606 -0.44993698596954346
-1.9700015783309937 0.10820214450359344 0.5208516120910645
0.3695968687534332 0.575691282749176 0.382028192281723
0.16797125339508057 0.5168086290359497 0.8255131840705872
1.6710315942764282 -0.5319879055023193 0.7877136468887329
2.311229705810547 -0.30587655305862427 -0.3117871880531311
0.009840529412031174 -0.5748316645622253 -0.6874832510948181
1.6624524593353271 -0.0795166939496994 0.4920431673526764
0.772086501121521 -0.2843915522098541 0.8294132947921753
1.0540984869003296 -0.11690661311149597 0.8156240582466125
-0.8222197890281677 0.6196264028549194 -0.4839792847633362
-0.16703912615776062 -0.13284693658351898 0.4347778856754303
-0.16913527250289917 -0.44119471311569214 0.32128453254699707
-1.692090392112732 0.6252322196960449 -1.3250617980957031
1.5191609859466553 0.16723236441612244 -0.6226879358291626
2.1601788997650146 0.42258065938949585 0.48985549807548523
1.486073613166809 0.405364453792572 -0.18513697385787964
1.4737097024917603 -0.3440006971359253 -0.8404704928398132
0.8416321873664856 0.13690996170043945 -0.120638906955719
0.8659716248512268 0.8830611705780029 -0.5889418125152588
0.41607195138931274 -0.30724889039993286 -0.31183338165283203
-0.49269893765449524 -0.2488461136817932 -0.04418474808335304
-1.4242832660675049 -0.4790542721748352 0.351858913898468
0.2216103971004486 0.03467847406864166 1.2787984609603882
1.2132809162139893 0.28692322969436646 -0.4746420383453369
2.3256824016571045 -0.2850433588027954 -0.5619127154350281
0.7444877624511719 0.17248424887657166 -0.8620336055755615
1.7653224468231201 -0.1323196142911911 -0.8060320615768433
-1.51468026638031 -0.520484983921051 1.3177876472473145
-0.19210338592529297 0.5952714681625366 -1.3434325456619263
1.7461198568344116 0.31551671028137207 -0.9557458758354187
0.3719763159751892 0.6251555681228638 -1.3999361991882324
1.3244459629058838 -0.5499906539916992 0.5640116930007935
1.0056918859481812 -0.7012971043586731 0.9573496580123901
-1.9672706127166748 -0.5015439391136169 -1.4227808713912964
0.4944126307964325 0.9281706809997559 -0.3820444643497467
-0.4808870553970337 -0.6167150139808655 -0.7985929846763611
1.4007370471954346 0.05307529866695404 -0.35216405987739563
-1.1713606119155884 -0.4318027198314667 -1.1689709424972534
-2.9881198406219482 -0.10745811462402344 -0.09658892452716827
-1.2885273694992065 -0.051765114068984985 -0.7020523548126221
-0.389741450548172 0.30135947465896606 -0.6525101661682129
-0.07687250524759293 -0.5428863763809204 -0.3669145107269287
-2.343771457672119 -0.4522300958633423 -0.09830630570650101
-1.964534878730774 -0.24090130627155304 0.4505014717578888
-0.9184935092926025 -0.5081882476806641 -0.02979191392660141
-0.48845985531806946 1.0322251319885254 -0.08275102078914642
0.561337947845459 0.012659832835197449 -1.3698252439498901
3.1926023960113525 -0.1698375940322876 -0.9900603890419006
-0.4671461880207062 -0.3951355218887329 0.7768187522888184
-2.209596633911133 0.5638149976730347 1.3548953533172607
1.688538908958435 -0.1001114547252655 -1.3909432888031006
-0.09505002200603485 0.911975085735321 -1.1766427755355835
-2.4681074619293213 -0.28592267632484436 0.130995973944664
-0.17555737495422363 -0.24741271138191223 -0.9092256426811218
0.06520417332649231 0.22664476931095123 1.2700726985931396
2.649857997894287 -0.45023635029792786 0.3263407349586487
-0.017515264451503754 0.21829742193222046 0.864753782749176
-0.22022756934165955 0.11220847815275192 -1.8810553550720215
2.063114881515503 -0.5071039199829102 0.9232918620109558
0.19570781290531158 0.8215715289115906 0.8538954854011536
1.0578186511993408 0.041168078780174255 0.5516336560249329
2.400902509689331 -0.09851042926311493 0.8734550476074219
-1.615055799484253 -0.41713738441467285 -0.21854335069656372
0.5951536893844604 0.8746064305305481 0.45372310280799866
-1.6279963254928589 0.27254605293273926 0.04271829128265381
-1.6652371883392334 0.1962144374847412 0.07871951907873154
-0.6756694316864014 0.2608720064163208 0.9667770266532898
-0.8225996494293213 0.8883759379386902 0.3047551214694977
-1.052234411239624 0.8808296918869019 -0.7900422811508179
2.0757124423980713 -0.6014760732650757 0.07060598582029343
1.6455456018447876 0.06033386290073395 1.3502814769744873
1.4962167739868164 -0.20138095319271088 1.2213414907455444
-0.9879182577133179 -0.41208773851394653 -0.986229658126831
2.327798366546631 -0.05950582027435303 -0.9102813005447388
-0.7524491548538208 0.7180997729301453 -1.4524775743484497
-0.6434620022773743 0.18612278997898102 1.4264813661575317
0.46613746881484985 0.32196205854415894 -0.5493686199188232
0.7067262530326843 -0.37632036209106445 1.2290012836456299
0.37777918577194214 0.9768631458282471 0.4314594864845276
0.04211892560124397 0.6911903619766235 -0.46293455362319946
1.9144923686981201 0.031231224536895752 1.254102110862732
-1.5988991260528564 0.46383577585220337 -0.6351087689399719
-2.314366102218628 0.5905467867851257 0.8139286041259766
1.4867984056472778 0.18054664134979248 -0.8566689491271973
-0.8291265368461609 0.4751666784286499 1.2680222988128662
2.9254062175750732 -0.18180663883686066 -0.6731254458427429
-1.0406137704849243 -0.4890938401222229 -0.8769002556800842
2.3651175498962402 -0.16108745336532593 0.545232355594635
-0.2743276357650757 -0.2328086495399475 0.013223200105130672
-0.9305740594863892 -0.1418878734111786 -0.6325633525848389
0.03580070286989212 -0.5127665400505066 0.2443322390317917
-1.1111570596694946 0.0002567768096923828 0.5365857481956482
-0.34799453616142273 -0.4237569570541382 1.3124682903289795
1.8008034229278564 0.11807623505592346 -0.3872230350971222
0.4157290756702423 -0.00155581533908844 0.1373237818479538
2.574476718902588 0.35797905921936035 -0.12619592249393463
-1.2852479219436646 0.2982659339904785 0.7454006671905518
-0.7552279233932495 0.3101426362991333 1.394452691078186
0.19573859870433807 0.37421685457229614 -1.3294758796691895
1.600719690322876 -0.5191308259963989 0.3335542678833008
-1.2143983840942383 0.45470255613327026 0.5878145098686218
-0.9810559153556824 -0.3400406837463379 1.3435430526733398
-1.0333640575408936 0.5274386405944824 0.4751863181591034
-0.40742626786231995 -0.5109559297561646 0.549648642539978
3.0844221115112305 -0.255407452583313 -0.6743128299713135
-1.11150062084198 0.3046528697013855 -0.9204174280166626
0.6743929386138916 0.22324882447719574 0.35792863368988037
-0.7769744396209717 -0.33706334233283997 -1.574057936668396
-1.1400115489959717 0.6392512917518616 0.44582369923591614
-0.9567229747772217 0.5113378167152405 0.46269842982292175
1.8625915050506592 0.19463901221752167 1.000449538230896
1.4370790719985962 0.6215354800224304 0.946788489818573
1.1791834831237793 0.42045122385025024 0.059477951377630234
-1.60236394405365 0.1323154866695404 0.5853002667427063
1.8753571510314941 -0.5603224635124207 -0.6284834146499634
-0.2152281105518341 0.1586689054965973 0.07404408603906631
1.4185709953308105 -0.24178501963615417 -0.23318272829055786
-1.9099706411361694 0.007283046841621399 -0.37922075390815735
1.318291425704956 0.35442009568214417 -0.35566645860671997
-1.7352654933929443 0.65220046043396 -0.639942467212677
-1.1528457403182983 -0.4470069408416748 0.87066650390625
-1.163330316543579 0.29493024945259094 0.5829064249992371
2.070051431655884 -0.5384671092033386 -0.6126866936683655
1.9449681043624878 -0.5377821922302246 0.983391523361206
-0.2761734127998352 0.09050995111465454 0.14135079085826874
0.660909116268158 -0.5518097877502441 0.853174090385437
0.8761864900588989 0.8792643547058105 -0.9370517134666443
-1.2194428443908691 0.2700439691543579 0.45531606674194336
2.6620121002197266 -0.5513300895690918 0.9920064210891724
2.12874698638916 -0.5270769000053406 -0.8411381244659424
0.03997773677110672 0.19724930822849274 -0.7031105160713196
1.522111177444458 0.4185129404067993 0.28149551153182983
1.2982057332992554 -0.5645689964294434 -0.05118628218770027
0.6565907001495361 -0.5726125240325928 -1.0527526140213013
-2.4210667610168457 -0.257133424282074 0.13048841059207916
3.0427370071411133 0.15509188175201416 0.3246220350265503
-1.716208577156067 0.7555385828018188 -0.6069270372390747
-0.8239955306053162 0.04492196440696716 1.0203931331634521
-1.7631323337554932 -0.14031918346881866 -1.287261962890625
-0.23767656087875366 -0.05500589311122894 1.2682830095291138
-0.8493019938468933 -0.23625390231609344 -0.11191007494926453
1.339915156364441 -0.25604328513145447 -1.3601174354553223
1.454883098602295 -0.2120392620563507 0.15653502941131592
1.2944365739822388 -0.42732107639312744 0.8274810314178467
-1.989915370941162 -0.06156840920448303 0.11194031685590744
-0.5744383931159973 -0.0034529417753219604 0.8141951560974121
-0.3638814687728882 0.1440178006887436 1.1402268409729004
0.24108678102493286 0.8721408247947693 0.3848426043987274
2.69321346282959 0.27140507102012634 0.20865146815776825
0.4410455524921417 0.9899612665176392 0.5112264156341553
0.9531727433204651 -0.17198853194713593 0.6387574076652527
-0.04596146568655968 0.47254782915115356 0.02622309885919094
-0.6335650682449341 -0.45084261894226074 -0.6273596286773682
-0.9455055594444275 -0.31351789832115173 -0.2502917945384979
2.319216012954712 -0.431760311126709 -1.0577646493911743
1.498368740081787 -0.21753717958927155 0.010066626593470573
-1.279626488685608 -0.547660231590271 0.8110682368278503
2.311612367630005 -0.5134767889976501 -0.8599726557731628
-2.14548921585083 0.4484200179576874 -1.1455992460250854
-1.0435423851013184 -0.05877774953842163 -0.6981618404388428
2.0643768310546875 -0.54150390625 -0.5986383557319641
0.7464929819107056 0.7534998655319214 0.9680842757225037
-1.4396778345108032 -0.20696473121643066 0.06488321721553802
1.3924304246902466 -0.5686708092689514 -0.8960877060890198
1.1554068326950073 -0.5125858187675476 0.4638819396495819
3.4951400756835938 -0.38912415504455566 0.7178547382354736
-1.8993154764175415 -0.021618396043777466 -0.43675291538238525
1.9527531862258911 -0.46540170907974243 0.9293336272239685
1.9784419536590576 -0.2033986896276474 -0.6422502994537354
-0.3173031806945801 -0.3810778558254242 1.3095457553863525
2.8082680702209473 -0.5270878076553345 -0.045754216611385345
-1.884793758392334 -0.08965656161308289 -1.0173639059066772
-0.057028815150260925 -0.5199437737464905 -1.0725871324539185
2.967247247695923 -0.5889313817024231 0.9352995157241821
-1.572344422340393 0.7659216523170471 -0.31695809960365295
-1.8931010961532593 -0.1084730327129364 -0.20072467625141144
0.8712838888168335 0.34992796182632446 -0.8437680602073669
2.4535632133483887 -0.5709957480430603 -0.6481817364692688
-1.0124019384384155 -0.3134312033653259 -0.591611921787262
2.501889228820801 -0.25016969442367554 -1.3015536069869995
0.1842007040977478 -0.10097509622573853 1.0128060579299927
1.7431501150131226 -0.33206698298454285 -0.4350024163722992
0.2088644802570343 0.09620651602745056 0.5016413927078247
0.3857329189777374 -0.5199346542358398 1.0175158977508545
1.3099863529205322 -0.26861682534217834 0.5465787053108215
1.189941167831421 -0.5708644986152649 -0.2266627550125122
2.1804678440093994 0.3587380051612854 0.4310728907585144
-1.251844048500061 0.2969944477081299 0.905341625213623
2.5703341960906982 0.18564781546592712 0.01678665541112423
0.42375147342681885 -0.15653342008590698 -0.8981494307518005
-1.3428128957748413 0.6137508153915405 0.6055656671524048
0.6874691843986511 0.16178132593631744 -0.3646605610847473
1.9630484580993652 -0.5617954730987549 -0.21446262300014496
2.370114803314209 0.3780442476272583 -0.8592092990875244
2.8649137020111084 -0.5260515213012695 0.3396490812301636
2.332185745239258 -0.5442793369293213 0.710154116153717
0.9154565334320068 -0.5077783465385437 0.46329906582832336
0.1159234344959259 0.39323705434799194 -0.7251744866371155
0.5371218919754028 -0.3674975335597992 -0.20263263583183289
0.6631236672401428 -0.19814765453338623 -0.004141268320381641
0.1533595770597458 0.8998732566833496 -0.3650878667831421
1.53162682056427 -0.28081169724464417 -0.9735435843467712
0.6640283465385437 0.04651413857936859 -1.304885745048523
-0.9434067606925964 -0.41159793734550476 -0.1869896799325943
-1.1469449996948242 -0.21379928290843964 -0.46284303069114685
-1.6953840255737305 0.5806512832641602 0.3307301104068756
1.5556565523147583 0.07559685409069061 -0.5058345198631287
-1.1667677164077759 -0.25151219964027405 -0.3666589856147766
-2.5809547901153564 0.6105499863624573 0.11540810018777847
1.0437639951705933 0.012307867407798767 0.36332619190216064
-2.462031841278076 0.7638688683509827 -0.47250306606292725
1.2213714122772217 -0.5205529928207397 0.3066682517528534
-0.4263693690299988 -0.2401544600725174 0.26774707436561584
-0.14911699295043945 0.5930667519569397 -0.21873418986797333
2.4644904136657715 -0.03723503649234772 -1.057867407798767
2.2303428649902344 0.01241391897201538 1.0503792762756348
-1.7519168853759766 -0.3141261339187622 -0.6354050636291504
-0.2723788022994995 0.01071956753730774 1.2816932201385498
-0.5504077672958374 -0.24945686757564545 -0.9430727958679199
-0.3755356967449188 0.7316530346870422 0.32029488682746887
-1.8299921751022339 0.010966449975967407 -0.878135085105896
-0.43509140610694885 0.34681397676467896 -0.21143805980682373
1.6097767353057861 -0.5679032206535339 0.8895103931427002
-0.15727636218070984 0.5156083106994629 0.3568587005138397
2.132392406463623 -0.6121450066566467 0.6057079434394836
2.756122350692749 -0.47427448630332947 0.6177448034286499
0.6767017245292664 0.32113340497016907 -0.3049747347831726
1.3359466791152954 0.11154615879058838 -1.1802401542663574
1.22395658493042 -0.1858358085155487 0.12544241547584534
1.4278444051742554 0.2013348788022995 0.6565375924110413
-1.5019114017486572 0.10068820416927338 -0.20871300995349884
-0.8253402709960938 -0.44585877656936646 -0.60048508644104
0.7937626838684082 -0.56044602394104 -0.5931473970413208
-1.2615565061569214 0.028206557035446167 0.6140604019165039
-0.10722042620182037 -0.24696753919124603 0.8676230311393738
0.5859045386314392 -0.36653879284858704 1.137839913368225
1.1140973567962646 -0.5693165063858032 -0.6704416275024414
0.21671754121780396 0.812599778175354 0.54854416847229
-0.7391659617424011 0.7273359894752502 0.600746214389801
0.6992606520652771 -0.30693256855010986 -1.2698026895523071
2.98779296875 0.26390668749809265 -0.16457600891590118
0.22184491157531738 -0.30372506380081177 -0.5429973602294922
1.7953742742538452 -0.5445486307144165 0.46047243475914
1.958552598953247 -0.5510615110397339 0.6700796484947205
2.699342966079712 0.26588350534439087 0.1208401694893837
-0.09460671991109848 0.8247161507606506 -0.9370514750480652
-0.5927126407623291 0.0180509090423584 -0.17743255198001862
2.0553855895996094 0.3005308508872986 1.151183009147644
-0.14737540483474731 0.8449007868766785 0.18024466931819916
1.0066163539886475 -0.030329301953315735 -1.3956029415130615
0.34153690934181213 0.5058788061141968 0.6869074106216431
0.2994878590106964 0.8963720798492432 0.7729810476303101
0.768872857093811 -0.281741201877594 -0.4305044114589691
-1.4945461750030518 -0.45436686277389526 -0.5584868788719177
-1.2502182722091675 0.25547805428504944 -0.18829481303691864
0.3506668210029602 0.3095742166042328 -0.23910827934741974
1.319055199623108 -0.5198187828063965 0.09000442922115326
1.1839935779571533 -0.39939746260643005 1.196414589881897
-1.8165655136108398 -0.006158992648124695 -0.14301855862140656
0.6994718313217163 0.10866117477416992 0.22619198262691498
2.2954816818237305 0.3273276686668396 1.0114355087280273
2.1308138370513916 -0.1643436998128891 -0.22097131609916687
-0.90525883436203 -0.44631582498550415 -0.06185082346200943
-1.2915806770324707 0.2254408597946167 -0.3720056414604187
1.202570915222168 -0.2239612489938736 0.4413401782512665
-1.6505906581878662 -0.2805401086807251 0.0684705376625061
-1.8757262229919434 -0.10881555080413818 0.5364348888397217
-1.985211730003357 0.04435822367668152 0.8503076434135437
0.8154592514038086 -0.5782654285430908 -0.4541589617729187
0.3120254874229431 0.9401605725288391 -0.21741917729377747
-1.0701637268066406 0.19428499042987823 -0.9588452577590942
-1.1535266637802124 0.6988719701766968 -1.1413367986679077
0.5933129787445068 0.22994597256183624 0.06237703934311867
-2.268641471862793 -0.2157869189977646 -0.39354512095451355
-0.7147703766822815 0.760243833065033 -0.6445176005363464
-1.2683210372924805 0.6586293578147888 0.14977872371673584
0.9237350225448608 -0.25480878353118896 0.27996203303337097
1.5155943632125854 -0.24429139494895935 -0.6028885841369629
1.1010586023330688 -0.5391216278076172 0.4730733036994934
-0.24740946292877197 0.20082129538059235 0.7302564978599548
0.794087290763855 0.5991916656494141 -0.26226770877838135
1.9954111576080322 0.07083563506603241 -0.45277658104896545
0.9033504128456116 -0.5755996108055115 -0.2795296907424927
2.3182950019836426 -0.5465453267097473 0.5250850915908813
2.701564311981201 -0.09595303237438202 -0.8261725306510925
0.3934190273284912 0.7353455424308777 -0.7789261341094971
1.5813298225402832 0.029902830719947815 -0.5890320539474487
2.0553205013275146 0.07898108661174774 -0.5676004886627197
-0.5295671820640564 0.5405442118644714 0.48709091544151306
0.761176586151123 -0.09013903141021729 0.5321746468544006
1.7843424081802368 0.5418335795402527 0.5346609354019165
2.4331748485565186 -0.24098826944828033 -0.4281091094017029
1.819927453994751 0.5366169214248657 0.8729555606842041
-1.7859021425247192 0.18452081084251404 0.6139995455741882
-0.6988765597343445 0.645341694355011 0.5502667427062988
0.34376630187034607 0.09006266295909882 -1.1919379234313965
-0.7458890080451965 0.9152361154556274 -0.15878158807754517
-1.281320333480835 -0.06994946300983429 1.3772445917129517
3.0953173637390137 0.08913007378578186 0.8133701682090759
1.579647421836853 0.5300188660621643 -1.553224802017212
1.2338448762893677 -0.11364385485649109 -0.019278481602668762
1.8007749319076538 -0.551234781742096 -0.024567101150751114
-2.669477701187134 -0.03729262948036194 0.4044395089149475
-0.3918674886226654 -0.23696458339691162 0.052974481135606766
0.3002702593803406 0.9543253183364868 -0.2505050301551819
0.6188621520996094 -0.34227168560028076 0.03500426560640335
-0.9755070209503174 0.6937767267227173 -0.5202452540397644
-0.591765820980072 0.08434228599071503 0.7518516182899475
-2.201953887939453 -0.4130139946937561 0.3815394639968872
-1.538179636001587 -0.2289266586303711 -0.3317754566669464
-1.4083256721496582 -0.43750160932540894 0.2794108986854553
1.6517003774642944 0.5717616081237793 -0.2317923754453659
0.6371279358863831 -0.170440211892128 0.8278155326843262
1.2932770252227783 -0.5434931516647339 1.111847162246704
2.434105396270752 -0.13918209075927734 0.8642271161079407
-2.4081993103027344 0.3218477964401245 -1.0215513706207275
-0.13707572221755981 -0.3272252678871155 1.0127993822097778
-0.6211095452308655 0.13155332207679749 -0.6010293364524841
-2.008279323577881 0.15169470012187958 -0.7159063816070557
-0.32324978709220886 -0.2789165675640106 -0.7747147083282471
0.44190043210983276 -0.5313414335250854 -0.5840421319007874
1.4130420684814453 -0.5212818384170532 0.4524964690208435
-0.6220819354057312 -0.5521633625030518 -0.3058810234069824
0.9934746623039246 -0.32394731044769287 -0.7933140993118286
-1.3095566034317017 0.2990178167819977 0.6144529581069946
-0.5086430311203003 0.10492020845413208 -0.6044620871543884
-0.1505308747291565 -0.49505966901779175 -0.33604001998901367
-1.5936006307601929 0.1838413029909134 -1.0509368181228638
-0.9678861498832703 -0.21635611355304718 -0.3455829620361328
-1.7026267051696777 0.16571985185146332 0.2245287448167801
-1.669764757156372 0.5586941242218018 1.0360673666000366
-0.7787983417510986 -0.32278749346733093 -0.31908276677131653
2.0966410636901855 -0.5746551752090454 0.1412361115217209
2.02998423576355 -0.04921586811542511 -0.37827590107917786
-0.9545081257820129 0.7961164712905884 -0.7442882061004639
-0.942979097366333 -0.34362781047821045 1.0639837980270386
1.2285724878311157 -0.37669017910957336 1.2678483724594116
0.44002437591552734 -0.2699025273323059 1.306459903717041
1.348312258720398 0.3714168667793274 -1.043288230895996
-0.7717139720916748 0.1539660096168518 -0.5916222929954529
1.5113917589187622 0.026460900902748108 -0.5693148970603943
-0.2592811584472656 -0.12768885493278503 -0.9489268064498901
1.2991782426834106 0.14278197288513184 -0.8061279058456421
-1.643833041191101 -0.025538980960845947 0.15249577164649963
-2.1270751953125 0.23482361435890198 -0.15558955073356628
1.6709599494934082 0.5432850122451782 1.273810625076294
-0.2318611741065979 0.06998206675052643 0.9120550155639648
0.3869379162788391 -0.055252984166145325 1.058657169342041
1.0485631227493286 -0.20418554544448853 1.2528132200241089
2.5311567783355713 -0.2763376832008362 -0.6590451598167419
-1.1575686931610107 0.39291879534721375 0.6129806041717529
0.8970227837562561 -0.5502533912658691 0.261320024728775
0.8602780699729919 -0.5620607733726501 -0.6272984147071838
-0.5281943082809448 0.18662649393081665 -0.3213573694229126
0.7440820932388306 -0.5717297196388245 1.2352004051208496
1.0998706817626953 -0.5710610151290894 0.7372191548347473
-1.0013600587844849 0.24010859429836273 0.3468586802482605
-0.45831236243247986 0.7878040075302124 0.8578697443008423
2.122459650039673 0.2725224494934082 0.38638871908187866
-1.7960854768753052 -0.06617213785648346 1.0088526010513306
0.9978983998298645 -0.25387492775917053 0.5747309327125549
-0.6794228553771973 -0.10982947051525116 -1.535192608833313
-0.36924704909324646 -0.5269173979759216 0.006481607910245657
-0.18781249225139618 -0.5265944004058838 -0.02852451428771019
1.4177284240722656 -0.5420909523963928 0.6463265419006348
-0.26420748233795166 0.0397409051656723 -1.4897468090057373
1.0306395292282104 -0.548256516456604 -1.03517746925354
1.7479538917541504 -0.21461424231529236 -0.19539137184619904
0.6725273132324219 -0.06035999953746796 -0.18963812291622162
-0.5029761791229248 -0.14571793377399445 0.653827428817749
2.598125696182251 -0.5471631288528442 0.2845418155193329
-1.1428831815719604 -0.16563518345355988 -0.08980470150709152
2.504581928253174 -0.4854116439819336 0.8175662755966187
1.33590829372406 0.20040923357009888 -0.37247100472450256
1.6313806772232056 -0.538914680480957 0.23266984522342682
-1.2427942752838135 0.39241278171539307 0.7217010259628296
2.24637508392334 0.4202132225036621 -0.8366063237190247
-0.7188146114349365 -0.09099186956882477 0.3170386552810669
-1.9094629287719727 0.24987544119358063 -0.763001561164856
0.8850560784339905 -0.26094478368759155 -0.2535540759563446
0.21475091576576233 -0.3266357183456421 -0.5804350972175598
-1.6407616138458252 -0.09143175184726715 -0.3817790746688843
1.7727916240692139 -0.11371611058712006 1.2723580598831177
0.43303173780441284 0.2992780804634094 -0.638344943523407
0.5627362132072449 -0.4455645680427551 1.2162425518035889
2.5640711784362793 -0.330707848072052 1.5629756450653076
-0.24873605370521545 1.0240764617919922 0.5556776523590088
-1.7903023958206177 -0.19780473411083221 -0.3151688575744629
-1.9028501510620117 0.2947204113006592 1.321446418762207
1.1669325828552246 -0.32484227418899536 -0.6057544946670532
-1.490229845046997 0.7455348968505859 -0.8417620658874512
0.10519605875015259 0.9704218506813049 -0.4740627110004425
1.9373061656951904 -0.4608480930328369 0.8323262333869934
1.0281872749328613 0.06476844847202301 -0.8936927914619446
1.1869535446166992 -0.299912691116333 -0.11467236280441284
0.9974055886268616 -0.009627431631088257 -0.7558137774467468
-0.35822808742523193 0.6414050459861755 0.6555540561676025
0.8038164377212524 -0.13078422844409943 -0.821138322353363
-2.2365822792053223 -0.0773736834526062 1.3047908544540405
-0.10464876890182495 -0.5152079463005066 0.6004816889762878
0.31510236859321594 -0.1075214147567749 1.2533031702041626
1.8527398109436035 0.511399507522583 -1.0814313888549805
0.41975390911102295 0.08115489780902863 -0.5872723460197449
-0.6071206331253052 -0.3802872896194458 1.1523373126983643
-0.7737507820129395 0.38474294543266296 -0.5442826747894287
-0.684008777141571 -0.20162634551525116 0.23122364282608032
-1.199871301651001 0.24740135669708252 0.40454500913619995
-0.6523934602737427 -0.40363192558288574 1.1525925397872925
-0.0007728599011898041 0.4541274905204773 -1.051558017730713
-1.2609672546386719 -0.504470944404602 -0.13957050442695618
-0.22623507678508759 0.3164723515510559 0.6253893375396729
0.6640341281890869 -0.22368673980236053 0.5102188587188721
-1.451698899269104 0.4031413793563843 -1.4587388038635254
0.4056834876537323 0.1911105215549469 -1.4312689304351807
0.33232584595680237 -0.44956377148628235 0.1196286603808403
-1.0043240785598755 -0.49786266684532166 -0.01002743374556303
-1.918271541595459 -0.24694934487342834 -0.34353452920913696
-1.6446195840835571 -0.16044121980667114 -0.8723310828208923
-1.9107146263122559 -0.5257752537727356 0.4944497048854828
-0.6483650207519531 0.2949422001838684 0.6254192590713501
-1.4870091676712036 0.1613812893629074 -0.7565993666648865
-0.8260970115661621 -0.19913360476493835 1.3465644121170044
1.5851839780807495 -0.5538498163223267 0.6956127882003784
-1.0698671340942383 -0.5382211208343506 0.3831583261489868
2.041363000869751 -0.4365391731262207 1.1263163089752197
-0.2752887010574341 -0.431388258934021 -1.4896777868270874
0.5799330472946167 1.001880168914795 -1.000322699546814
2.135953664779663 -0.08449447154998779 -0.7964826226234436
1.230185627937317 -0.5222731828689575 0.1562531292438507
1.6199439764022827 0.5876204371452332 -0.6315937042236328
1.8410418033599854 0.10692885518074036 -0.12708836793899536
2.322017192840576 -0.052789896726608276 0.8066241145133972
-0.9390304088592529 -0.5081614851951599 0.3937224745750427
-2.563770294189453 0.15170694887638092 0.17346374690532684
1.5450938940048218 -0.5906184315681458 -0.4772881269454956
1.0337822437286377 -0.35313230752944946 -0.4476276636123657
2.894770860671997 -0.4915468096733093 -0.4589921534061432
-0.007227946072816849 0.7226094603538513 -0.13303333520889282
0.3652704656124115 0.33322370052337646 -0.2546941637992859
0.4753725528717041 0.5595458745956421 0.3297019302845001
-0.46206390857696533 0.5252383947372437 -1.2436401844024658
2.1166203022003174 -0.6145092844963074 0.8525612950325012
2.1822729110717773 0.38793641328811646 -0.41633880138397217
-0.20015235245227814 0.168691024184227 0.6165741086006165
-1.6571688652038574 0.42873066663742065 0.4357321262359619
-0.21992656588554382 0.5829737186431885 0.9041715860366821
1.5663784742355347 -0.4041237235069275 -0.36816269159317017
2.1904296875 -0.09961682558059692 0.7941120266914368
0.3955438733100891 0.5703832507133484 0.2373412549495697
1.155250072479248 0.7331452369689941 -0.1953260898590088
2.729201555252075 -0.5324105024337769 1.3884061574935913
-1.167021632194519 0.8004611730575562 0.6895620226860046
0.4565391540527344 0.47971659898757935 0.3644741475582123
1.4445070028305054 -0.5799478888511658 -0.026445435360074043
0.3600069582462311 -0.5388839244842529 -0.07933273166418076
-2.0306177139282227 0.4784545302391052 -1.2902125120162964
0.8593713045120239 0.8810081481933594 -0.7581058740615845
1.9591742753982544 -0.09110021591186523 0.6341175436973572
0.9807740449905396 -0.6124135851860046 -1.0449353456497192
1.697473168373108 -0.5411723256111145 -1.00678288936615
-2.4475228786468506 0.3726353645324707 0.16471268236637115
0.3034544885158539 0.01073792576789856 0.5083374381065369
-0.16102217137813568 0.5663337707519531 0.7935019731521606
1.0535228252410889 0.3477284908294678 1.0247517824172974
0.4970094859600067 0.8272427916526794 0.18229329586029053
-1.933401107788086 -0.31374692916870117 -0.34056007862091064
0.1245739758014679 -0.22768117487430573 -0.41438207030296326
2.6489949226379395 0.30914533138275146 -0.653209388256073
0.10731422156095505 -0.5245401263237 -1.321324348449707
0.5753970146179199 -0.19122017920017242 1.3177313804626465
-1.7473033666610718 -0.15511669218540192 0.8879296183586121
0.7085118889808655 0.32265692949295044 0.9068639278411865
-0.21699707210063934 0.20487594604492188 0.5097821950912476
-0.9024593830108643 -0.38189268112182617 0.32806217670440674
-0.2749021649360657 0.34781020879745483 0.4412018954753876
-2.3518667221069336 -0.037740737199783325 -0.031040294095873833
-0.08165743947029114 0.8341740965843201 -0.5410716533660889
1.288221001625061 -0.3602132797241211 -0.3018944263458252
0.45074284076690674 0.5216779708862305 -0.4067613184452057
-1.9858567714691162 0.22792552411556244 0.9267005920410156
-1.096563696861267 -0.15823592245578766 0.521283745765686
1.6863197088241577 -0.5590677261352539 0.1180313304066658
2.311676502227783 -0.34872302412986755 -0.308896005153656
-2.1998307704925537 0.20482294261455536 -1.1053297519683838
2.8279683589935303 -0.11175186932086945 -0.10136765986680984
0.6179491281509399 -0.5505247712135315 0.01434989646077156
-0.2238757163286209 0.9573946595191956 -0.11110245436429977
0.3408946394920349 0.600654661655426 0.9172024130821228
0.03423050791025162 -0.232280433177948 -0.2624629735946655
-1.7128527164459229 0.1942385733127594 0.09013830125331879
-0.6499159932136536 0.5311996936798096 -0.9028927087783813
1.9182372093200684 -0.3551931083202362 1.0786700248718262
1.928725242614746 0.5096863508224487 0.2949207127094269
-1.5271550416946411 -0.41141578555107117 0.4721345007419586
-1.55814528465271 -0.15272298455238342 1.2671661376953125
0.9091920852661133 -0.5826704502105713 -0.08678963035345078
-1.116990566253662 0.375724732875824 -0.425007700920105
-0.9585272669792175 -0.1887032389640808 0.599540650844574
-1.9467401504516602 -0.46260857582092285 -0.6063653230667114
1.1795148849487305 0.818211555480957 -0.6583545804023743
-1.110063076019287 0.3940558135509491 -0.2714879512786865
-2.2237792015075684 -0.35465890169143677 0.6968255043029785
2.215034008026123 0.25465893745422363 0.6106066703796387
0.6096967458724976 0.9819512963294983 -0.22427703440189362
2.3614587783813477 0.37009966373443604 0.16991513967514038
0.8842109441757202 -0.4036013185977936 0.7939438819885254
0.37655138969421387 0.602769136428833 -0.709373414516449
-1.1605859994888306 0.5122337341308594 0.40852949023246765
-2.2374837398529053 0.6690568327903748 0.5692223906517029
2.1395018100738525 0.4013224244117737 -0.17337705194950104
0.48794645071029663 0.9122335314750671 -0.3591330945491791
2.135021686553955 -0.4198165535926819 -0.9418699145317078
1.6428000926971436 0.16942602396011353 0.9181000590324402
-0.257000207901001 0.347348690032959 1.0781141519546509
-1.141713261604309 -0.371066153049469 0.470763236284256
1.3236186504364014 0.5479085445404053 0.4772728979587555
0.3640926480293274 0.2579365074634552 -1.2748219966888428
0.8896322250366211 -0.14855879545211792 0.8294507265090942
0.5951150059700012 0.4554785490036011 -0.12846128642559052
1.1127015352249146 0.6913895606994629 0.24408327043056488
0.6611781120300293 0.01717059314250946 -0.34546223282814026
0.4871636927127838 -0.5763778686523438 0.7891082763671875
-1.0523669719696045 -0.24353034794330597 -0.5150341987609863
0.40075141191482544 0.7973242998123169 0.20055881142616272
-1.6630512475967407 -0.4510597288608551 1.36944580078125
1.7252471446990967 -0.5515420436859131 0.5416895747184753
1.9034454822540283 -0.0779171735048294 -0.126089945435524
0.495139479637146 -0.3682172894477844 0.7675694227218628
-0.1440476030111313 0.33095306158065796 0.2467803955078125
1.2195035219192505 -0.6172589063644409 1.0300976037979126
1.6284843683242798 -0.2112450897693634 -0.9611088037490845
-1.4784526824951172 0.7468807697296143 -0.9211620688438416
-0.38085055351257324 0.5500442385673523 -0.0022100990172475576
2.0528833866119385 0.25162577629089355 0.9544327855110168
1.497821569442749 -0.12798532843589783 -0.42764174938201904
-1.1309001445770264 -0.4631771445274353 -0.7526320219039917
0.9802124500274658 0.6628168821334839 -1.254145622253418
-1.670841097831726 -0.2373892217874527 0.9511370658874512
0.6819729208946228 0.92971271276474 -0.34619733691215515
3.166717529296875 -0.5298076272010803 0.020459387451410294
0.9770894646644592 -0.587946355342865 -0.08965170383453369
-0.8845928311347961 -0.5993639230728149 -1.4145618677139282
-0.27297163009643555 0.9908636808395386 -0.22757099568843842
-1.6662205457687378 0.727789044380188 0.7444632649421692
-0.6238949298858643 -0.3177074193954468 0.7383996248245239
-2.244328498840332 0.29244452714920044 1.097232699394226
-0.050962723791599274 -0.10925869643688202 0.936173677444458
-2.185213804244995 0.5647003054618835 -0.1828770488500595
0.09191760420799255 0.26958054304122925 0.37636247277259827
0.9949690699577332 0.5353764891624451 -1.3322060108184814
3.1765189170837402 -0.4940745532512665 -0.033484525978565216
0.158512681722641 -0.22170259058475494 -1.149643898010254
-1.4783141613006592 0.5666322708129883 0.8578081727027893
-1.321202278137207 -0.05570134520530701 0.5667014122009277
1.3177415132522583 -0.5522972345352173 -0.8889959454536438
-1.528018593788147 -0.03711433708667755 0.8835639953613281
1.1955809593200684 0.5121162533760071 -0.5260078310966492
1.8465678691864014 0.5504021644592285 -0.6420077681541443
-1.7371692657470703 0.7902101278305054 -0.11949708312749863
1.4723317623138428 0.2990913987159729 -0.5986869931221008
-1.6563782691955566 -0.4676765501499176 0.6413002610206604
1.6007981300354004 -0.042928680777549744 -1.0701439380645752
1.8895211219787598 -0.02626323699951172 1.2434228658676147
-2.0889759063720703 0.2922515869140625 0.22542579472064972
-0.0243874229490757 -0.25555339455604553 0.7173942923545837
-1.705156922340393 -0.27594542503356934 0.5007535219192505
1.1227495670318604 -0.3104666769504547 1.0394889116287231
-0.1974417120218277 0.7286120653152466 0.4418933391571045
0.5856310725212097 0.8679102659225464 0.931797206401825
-0.1477169394493103 0.16788965463638306 -0.644893229007721
0.04510028287768364 0.6024098992347717 -0.5389382243156433
2.3460569381713867 0.02920284867286682 1.5205633640289307
1.5948007106781006 -0.5402873754501343 0.6582936644554138
-1.8689029216766357 -0.28020375967025757 -0.9061989188194275
1.9457379579544067 -0.529384434223175 0.5447419285774231
-0.32088151574134827 0.86510169506073 0.11438164114952087
0.5633913278579712 0.007415995001792908 1.1358160972595215
1.491906762123108 -0.3476046919822693 -0.0008923853747546673
1.585038185119629 -0.5526974201202393 -0.7686624526977539
1.2321381568908691 0.6062831878662109 -0.2556327283382416
1.4726537466049194 0.40440037846565247 -0.22248542308807373
1.3942606449127197 0.4510154724121094 -0.9156643152236938
-2.1850647926330566 -0.4825044870376587 -0.8165591955184937
-1.4823695421218872 -0.4612818956375122 -0.4205569326877594
0.7389501929283142 0.739780068397522 -0.8314566612243652
1.1488031148910522 0.31435251235961914 -0.8533406257629395
-1.3266340494155884 -0.32660526037216187 -0.45551013946533203
-1.491953730583191 -0.017191588878631592 -0.948988139629364
1.9843463897705078 0.4573814272880554 0.008448384702205658
-0.27199989557266235 0.696625828742981 0.7650400400161743
-1.4950214624404907 0.3870851993560791 -0.43017634749412537
-0.18470285832881927 0.722412109375 0.2181575447320938
1.966599702835083 0.14193075895309448 0.6667423844337463
-1.3549363613128662 -0.46739035844802856 -0.2899813950061798
0.1413564682006836 0.2689410448074341 0.24597077071666718
-0.9804542660713196 0.2984105348587036 0.4796179533004761
-0.29585331678390503 0.2719714939594269 0.4329501688480377
0.31439417600631714 0.9321009516716003 -0.40292397141456604
-0.29576218128204346 0.8362724781036377 0.08876831829547882
2.095480442047119 -0.318084180355072 0.34727704524993896
0.21534942090511322 0.7269073724746704 -1.018868327140808
-0.9630138874053955 -0.5187180638313293 -0.36208727955818176
-0.787092387676239 0.8842124938964844 -1.174838662147522
1.0608611106872559 0.4573681354522705 -0.2746947109699249
-1.4272434711456299 -0.026470571756362915 -0.45636263489723206
-2.343621015548706 0.4892662763595581 0.6294723749160767
-0.9986165165901184 0.09702625870704651 -0.24898876249790192
0.3476697504520416 -0.48825588822364807 1.2088855504989624
0.7215059399604797 0.11245420575141907 -1.0776194334030151
-0.16248002648353577 -0.03001195192337036 0.09380218386650085
-2.0211052894592285 0.26127517223358154 1.578573226928711
2.0576956272125244 -0.5478174686431885 0.8453909158706665
0.9719970226287842 -0.5348913669586182 0.6912252306938171
-0.4296386241912842 -0.5614123344421387 -0.3692174553871155
0.3115870952606201 0.2687479853630066 -1.3110737800598145
2.369257926940918 0.06340278685092926 -0.7822704911231995
-0.6276257038116455 0.8973344564437866 -0.7458065152168274
2.117408514022827 -0.4986632168292999 1.0650091171264648
2.571946859359741 -0.5274667143821716 0.06854203343391418
-0.4308442771434784 0.9174370169639587 0.6802540421485901
-1.2727760076522827 0.7964318990707397 1.055790901184082
1.127934455871582 -0.4343096613883972 -1.3034182786941528
0.7190008163452148 -0.4199177622795105 0.7846469879150391
0.07103347778320312 -0.5323328375816345 -0.7385894060134888
-0.9837667942047119 -0.05029028654098511 -0.6877024173736572
1.4940221309661865 -0.506466269493103 1.0147825479507446
3.2378904819488525 0.026598595082759857 0.7915723323822021
-1.254084587097168 0.7729649543762207 0.05784064903855324
-1.3651524782180786 0.7295640707015991 0.36301594972610474
-1.6140307188034058 0.26434922218322754 -1.136793851852417
0.5849605798721313 0.9191610813140869 1.0997577905654907
-2.1234993934631348 0.7027859687805176 0.35718318819999695
1.0257853269577026 0.11341120302677155 0.7359148859977722
2.404135227203369 -0.5156002044677734 -0.09113432466983795
-0.6660752296447754 -0.01882144808769226 -1.4604474306106567
0.35740983486175537 0.9478680491447449 0.39185890555381775
1.4626498222351074 -0.5124338865280151 0.9060670733451843
0.22181451320648193 0.3441092073917389 -0.405056893825531
3.4347686767578125 0.2648768723011017 0.5510205626487732
2.3957087993621826 0.38702669739723206 0.16506509482860565
-1.3110536336898804 -0.24324087798595428 1.098503589630127
-0.21239739656448364 0.7725508213043213 -0.3263658285140991
2.3767526149749756 -0.5606114864349365 -0.031786829233169556
-0.6653599739074707 -0.4933568239212036 -0.32179170846939087
1.066155195236206 -0.17300574481487274 0.7450754642486572
3.0989928245544434 -0.2641482353210449 0.16873891651630402
-0.1096571683883667 -0.220221146941185 0.3748031556606293
-0.7932099103927612 0.9396061897277832 -0.2899044156074524
1.0849158763885498 -0.3046819865703583 -0.32374000549316406
0.14819154143333435 0.10017929971218109 -0.5837147831916809
0.2505154311656952 -0.05440165102481842 0.07009736448526382
0.5563526749610901 -0.006223008036613464 -1.3195828199386597
-0.2837744355201721 0.06586304306983948 0.877260148525238
-0.5395331978797913 0.25569164752960205 0.43206164240837097
0.301327645778656 0.6332792043685913 -0.647328794002533
-0.5418670177459717 -0.011359825730323792 0.3501412570476532
2.0613701343536377 -0.2480873167514801 -0.9254668354988098
0.32586607336997986 0.8804064989089966 -0.783625602722168
1.8455384969711304 -0.5308182835578918 -0.8089442253112793
1.49160897731781 0.25302645564079285 -0.22635164856910706
0.32974928617477417 -0.5230021476745605 0.5905138254165649
-1.618213176727295 -0.14253519475460052 -1.516141653060913
1.2472271919250488 0.39034557342529297 -0.26247528195381165
-0.7015193104743958 -0.13208621740341187 0.22199416160583496
-1.8002389669418335 -0.38440486788749695 -0.7927773594856262
-0.09110614657402039 -0.570898175239563 -0.7470635771751404
1.4600096940994263 0.2835083305835724 0.2789555788040161
1.2828950881958008 0.4778739809989929 0.10756199806928635
0.16329874098300934 0.4656858742237091 1.2209755182266235
1.0881797075271606 0.7151375412940979 -0.24541209638118744
0.6889573931694031 0.22992753982543945 0.7277725338935852
1.9466840028762817 -0.5272302627563477 0.6066334843635559
0.44955748319625854 -0.5026886463165283 -0.9650680422782898
1.5784494876861572 -0.57396399974823 -0.4737873077392578
-1.2070496082305908 -0.47185564041137695 -0.8712022304534912
-0.22055085003376007 0.08585476875305176 -0.3475591242313385
1.1315323114395142 -0.23090478777885437 0.6745670437812805
1.305649757385254 -0.5769672393798828 -0.5387301445007324
2.216123104095459 -0.5940364599227905 -0.329723984003067
0.37777915596961975 -0.3883352279663086 -1.1346756219863892
1.9755862951278687 0.49896758794784546 0.8907042741775513
2.974797248840332 -0.02730707824230194 -0.8186593651771545
2.3509817123413086 -0.5405350923538208 -0.7226194143295288
