ply
format ascii 1.0
element vertex 808
property float x
property float y
property float z
end_header
-0.10692655295133591 0.4226802885532379 0.061286408454179764
-0.21738427877426147 0.11130216717720032 -0.2893255650997162
1.03348970413208 0.5555248260498047 -0.01229635439813137
0.5376467108726501 0.07588016986846924 0.25970524549484253
1.0273919105529785 0.6008550524711609 -0.38674575090408325
0.5821977257728577 0.697822093963623 0.2755047678947449
-1.7862989902496338 0.3812883198261261 0.15046334266662598
-0.06208810582756996 0.28996169567108154 0.5144906044006348
-1.5096275806427002 0.5432793498039246 0.17476150393486023
0.2633213996887207 0.4783906936645508 0.04826587066054344
-1.2354133129119873 0.4497233033180237 0.2035149186849594
-1.2242398262023926 0.3775442838668823 0.2930586636066437
0.5638579726219177 0.5893179178237915 -0.2333180010318756
0.8851203918457031 0.30886998772621155 -0.33025500178337097
-0.1415940523147583 0.17694824934005737 0.07721664756536484
-1.0199646949768066 0.2996734380722046 -0.30316027998924255
-1.2586853504180908 0.30632367730140686 0.34823787212371826
1.2160900831222534 0.27454373240470886 -0.0893884152173996
-0.40057188272476196 0.7181234955787659 0.36202272772789
0.8632179498672485 0.1926155686378479 -0.012029783800244331
0.3954361379146576 0.8172223567962646 -0.3578304648399353
-0.34872546792030334 0.5037020444869995 0.012746763415634632
-1.6992883682250977 0.655945360660553 0.24092727899551392
-1.915880560874939 0.23550918698310852 -0.28320565819740295
0.41734737157821655 0.08772552013397217 0.061083000153303146
-0.9912776350975037 0.43111899495124817 -0.4488411545753479
-1.0005310773849487 0.17095020413398743 0.10572358220815659
-1.0363918542861938 0.361775666475296 0.16922995448112488
0.4117811918258667 0.531708836555481 0.3389192223548889
-1.087084174156189 0.1250927448272705 0.15630879998207092
-0.6495524048805237 0.6897082328796387 -0.5125974416732788
0.1470741480588913 -0.002762913703918457 0.19656498730182648
-1.1574091911315918 0.5707342624664307 -0.11090774089097977
-1.0467904806137085 0.7599794864654541 0.24879905581474304
1.1649025678634644 0.4018191397190094 0.30838221311569214
-2.0975704193115234 0.17703337967395782 0.00999501347541809
-0.6321403384208679 0.17217609286308289 -0.45127230882644653
1.0421487092971802 0.27578988671302795 0.17834270000457764
-1.6406466960906982 0.24565570056438446 0.04929827153682709
0.4631776809692383 0.7376294136047363 -0.39403313398361206
-1.1341334581375122 0.4237055480480194 -0.46210071444511414
-0.3332037329673767 0.057109057903289795 -0.05602085590362549
-0.12124024331569672 0.27218443155288696 -0.08093539625406265
-0.6806703805923462 0.6220985651016235 -0.09001018106937408
-0.6397791504859924 0.7101960182189941 0.3572399914264679
-0.3257850706577301 0.08545921742916107 -0.1725747287273407
0.023911528289318085 0.7386686205863953 -0.5185847282409668
-0.5529499053955078 0.3494870960712433 0.3874817490577698
-0.8567452430725098 0.6661648154258728 0.41084885597229004
-0.48379817605018616 0.027771711349487305 -0.482646107673645
0.64676433801651 0.1563459038734436 -0.3882412612438202
-0.256019651889801 0.41970294713974 0.45049744844436646
0.4478582739830017 0.30364707112312317 0.41191378235816956
0.24413487315177917 0.5818796753883362 -0.42578160762786865
-0.8112768530845642 0.495825856924057 -0.11828601360321045
0.44684988260269165 0.803908109664917 0.4218936562538147
0.15131333470344543 0.032659828662872314 0.30549418926239014
-0.7431499361991882 0.08376416563987732 0.36212313175201416
-0.8809404969215393 0.8124328255653381 -0.2555510103702545
-0.17209745943546295 0.6147068738937378 -0.5332427024841309
-1.4448163509368896 0.16641885042190552 0.08167131245136261
-0.3275602161884308 0.7365490794181824 0.4446021318435669
0.2787521779537201 0.7878597974777222 -0.44555938243865967
0.9519704580307007 0.5195134878158569 -0.31464818120002747
-1.4382603168487549 0.16327880322933197 0.34748271107673645
-0.20641525089740753 0.1987394541501999 -0.5389197468757629
0.20591889321804047 0.0113334059715271 0.14271008968353271
-0.2488436996936798 0.14931081235408783 -0.3542492091655731
-0.25758108496665955 0.49233198165893555 -0.15479756891727448
-0.4348822236061096 0.7659868001937866 0.06613358110189438
1.530982255935669 0.6248511672019958 0.056144312024116516
-0.742860734462738 0.3136449456214905 0.02753830887377262
0.8885349631309509 0.3685908913612366 0.00730768172070384
-1.6069726943969727 0.29962003231048584 0.16731169819831848
0.2136637270450592 0.6069951057434082 -0.33938008546829224
1.2995033264160156 0.49880099296569824 0.10792673379182816
0.8248470425605774 0.1790531873703003 0.07205969840288162
-1.8500577211380005 0.39609402418136597 0.06106783077120781
-1.486242651939392 0.6075212955474854 0.04377824440598488
1.4797191619873047 0.350753515958786 0.3991292119026184
0.23415404558181763 -0.0063044726848602295 0.08272623270750046
-0.5521193742752075 0.291245698928833 0.4120808243751526
-0.3644621968269348 0.46762147545814514 -0.24175097048282623
0.409199059009552 0.7039961814880371 -0.4375784695148468
-0.01002185046672821 0.14983318746089935 -0.10865506529808044
-0.1252552568912506 0.29266417026519775 -0.5589178800582886
0.3194494843482971 0.4718979597091675 0.4829349219799042
1.1307169198989868 0.45471060276031494 -0.3310607671737671
1.1475344896316528 0.16811281442642212 -0.028535950928926468
-0.004193097352981567 0.39164435863494873 0.22539150714874268
-0.6520663499832153 0.34402161836624146 -0.1096353679895401
-1.9244499206542969 0.6414191722869873 -0.08576125651597977
-1.1909518241882324 0.11550961434841156 -0.2586284279823303
-1.0061076879501343 0.1947084665298462 -0.4876531958580017
-0.4092628061771393 0.5509179830551147 -0.47520869970321655
0.08770310878753662 0.41116559505462646 -0.37928637862205505
-0.4207676947116852 0.4503885507583618 -0.25480949878692627
-0.8829336762428284 0.709692656993866 -0.5246193408966064
-1.207859754562378 0.7458227872848511 0.17437633872032166
-1.4697595834732056 0.7182158827781677 0.3077966272830963
-0.3506964445114136 0.34538331627845764 -0.5442228317260742
0.4155535399913788 0.6921617984771729 -0.40947097539901733
-1.2722342014312744 0.2315429002046585 -0.1197768896818161
-1.9580308198928833 0.16287386417388916 -0.1531274914741516
-0.17097331583499908 0.6216112375259399 0.0858624055981636
-1.8689918518066406 0.2881653606891632 0.07885192334651947
-0.23501209914684296 0.18759223818778992 -0.12247854471206665
0.6622836589813232 0.45268577337265015 -0.21964727342128754
-1.2530511617660522 0.12678708136081696 0.31372666358947754
-0.6446933746337891 0.766837477684021 0.08577580749988556
0.10600506514310837 0.18049918115139008 -0.4123431444168091
-0.6053952574729919 0.5318340063095093 -0.12486941367387772
-1.6265549659729004 0.41851603984832764 0.4109755754470825
0.23420868813991547 0.06857532262802124 -0.5254424214363098
0.8145016431808472 0.33137303590774536 0.22786259651184082
-1.0245046615600586 0.2547954022884369 0.20480842888355255
-1.3661696910858154 0.2728293538093567 -0.807036280632019
-0.6202185153961182 0.08675253391265869 0.41636577248573303
-0.8238531947135925 0.3158645033836365 0.04153115674853325
0.8228718638420105 0.670117974281311 -0.7887377738952637
-1.7486134767532349 0.683158278465271 0.14221537113189697
0.6543667912483215 0.6371200084686279 0.3435688018798828
0.9025838971138 0.36147934198379517 -0.052829694002866745
-0.41270774602890015 0.7582889795303345 0.4341769218444824
-0.5104734301567078 0.20261459052562714 0.12954466044902802
-0.0004766806960105896 0.20134831964969635 -0.4536988139152527
0.38440608978271484 0.32041847705841064 -0.06073516234755516
-0.8419173955917358 0.4515387713909149 0.2814823091030121
-0.5939452052116394 0.5767015218734741 -0.15747275948524475
-0.43290871381759644 0.8388743996620178 -0.16789664328098297
1.1199595928192139 0.6058951616287231 -0.03417681157588959
-0.9189052581787109 0.2431611716747284 0.23851829767227173
-0.6098938584327698 0.6189684271812439 -0.11658181995153427
-0.05289521813392639 0.3072996735572815 0.1416795700788498
-1.6060161590576172 0.6776254177093506 0.3077583312988281
-0.7438982725143433 0.6757758855819702 0.09703832864761353
-1.6347708702087402 0.7532083988189697 -0.2806168496608734
0.4089448153972626 0.8146908283233643 0.1018444076180458
-1.6580132246017456 0.6842987537384033 -0.16796089708805084
0.5222694277763367 0.21612001955509186 0.22295917570590973
-0.1987079232931137 0.5285084247589111 -0.34165051579475403
-0.1612723469734192 0.5794992446899414 0.09670498222112656
-0.22077959775924683 0.7284619212150574 -0.6176638603210449
-0.8847582936286926 0.5809792280197144 0.2867046296596527
0.5734776258468628 0.2019190639257431 -0.2762170732021332
-0.33298107981681824 0.5803191661834717 0.19761772453784943
-0.9751628637313843 0.7090274095535278 0.2908141613006592
-0.44917330145835876 0.17309744656085968 0.25302010774612427
-2.1849567890167236 0.5969060659408569 0.19100421667099
-1.0185763835906982 0.4643697738647461 -0.03745867311954498
-1.2424439191818237 0.5201665163040161 0.3945886492729187
0.3438281714916229 0.17026638984680176 -0.3856131434440613
-0.45097610354423523 0.44022828340530396 0.030936088413000107
-0.33849549293518066 0.21291635930538177 0.29784321784973145
-0.21250878274440765 0.28182241320610046 -0.015127211809158325
-0.08486680686473846 0.681688666343689 -0.3498760163784027
0.5955908298492432 0.14065676927566528 -0.38268592953681946
-0.4549105763435364 0.19499990344047546 -0.46562686562538147
0.618136465549469 0.1236615777015686 -0.36307433247566223
-0.06191859766840935 0.2581191658973694 0.15434889495372772
-0.6756355166435242 0.44849103689193726 0.42875781655311584
0.5750068426132202 0.17876560986042023 -0.3634534180164337
0.6946361660957336 0.40052086114883423 -0.3527034521102905
-0.43417802453041077 0.442233681678772 -0.1891179233789444
-0.35642749071121216 0.40446367859840393 -0.5295698046684265
-0.9191946983337402 0.5621557235717773 0.5061640739440918
0.10339337587356567 0.10008543729782104 0.1242164894938469
-0.4635796844959259 0.41329145431518555 -0.2533082664012909
-0.18184226751327515 0.10280996561050415 -0.11964648962020874
0.3021695017814636 0.07258105278015137 0.21113236248493195
-0.7403647899627686 0.22404202818870544 0.44108763337135315
1.5349078178405762 0.6321728229522705 -0.25069066882133484
-1.0207164287567139 0.17018677294254303 -0.36587095260620117
-0.18082976341247559 0.7505500316619873 -0.1898912638425827
-1.1154519319534302 0.7822129130363464 -0.19708989560604095
-1.0409108400344849 0.18773680925369263 -0.1349247395992279
0.4974004030227661 0.2813246250152588 -0.4064410328865051
-0.23460356891155243 0.2569810748100281 0.4524012506008148
-1.0901374816894531 0.24942009150981903 0.3760683834552765
0.4707280695438385 0.7618199586868286 -0.22487196326255798
-0.06438660621643066 0.5951706767082214 0.149497389793396
-0.9859326481819153 0.4104653596878052 -0.2722993791103363
-0.58443284034729 0.4227342903614044 -0.01983645185828209
-1.5287363529205322 0.2117142230272293 0.1767318844795227
-0.004799563437700272 0.2986457347869873 0.5383145809173584
-0.9704738259315491 0.3461560010910034 0.13359761238098145
-0.47850024700164795 0.8680123090744019 -0.39772453904151917
-0.37461766600608826 0.6375678777694702 0.12586639821529388
-0.030350491404533386 0.7395865321159363 0.1504506766796112
0.8624930381774902 0.30868715047836304 0.3382580280303955
0.10643139481544495 0.7087699770927429 0.2265399694442749
-1.0867878198623657 0.8047437071800232 -0.030980482697486877
0.5925953984260559 0.27348941564559937 0.32838335633277893
-0.5335944890975952 0.40822261571884155 0.276500940322876
0.1907867193222046 0.5053092241287231 0.2770270109176636
0.3699814975261688 0.32411789894104004 0.48023703694343567
0.9404573440551758 0.7564302086830139 0.10107026994228363
-1.353619933128357 0.3779974579811096 0.10331986099481583
1.274133324623108 0.32265299558639526 0.12304152548313141
0.3574993908405304 0.641001284122467 0.4530387818813324
-0.23387733101844788 0.051223039627075195 0.17898185551166534
-0.6037694811820984 0.8408325910568237 -0.4835212230682373
-0.311517596244812 0.60772705078125 -0.5174538493156433
-1.909810185432434 0.2131924033164978 -0.21244873106479645
-0.9401016235351562 0.02032572031021118 0.40000519156455994
-0.8484233021736145 0.2689421772956848 -0.41612720489501953
-0.32473036646842957 0.40846312046051025 -0.2500024735927582
-1.4088134765625 0.21889425814151764 -0.008248379454016685
-1.2992942333221436 0.7278836369514465 0.2066202312707901
-1.6172747611999512 0.6870971918106079 -0.07213222980499268
0.5040032863616943 0.788329541683197 0.3060795068740845
-1.368560791015625 0.23858249187469482 -0.1494089961051941
1.148616075515747 0.556005597114563 -0.2922254204750061
0.3636418282985687 0.5862003564834595 0.4383821487426758
-0.051649801433086395 0.42489108443260193 -0.5229607820510864
-1.128943681716919 0.8335434794425964 -0.07233425974845886
0.03908818960189819 0.5655183792114258 0.08294117450714111
-0.6638100147247314 0.05977332592010498 0.21154376864433289
-0.33934128284454346 0.2476288378238678 -0.5989575386047363
-1.0236849784851074 0.6361845135688782 -0.14632220566272736
-1.466154932975769 0.3525348901748657 -0.08115122467279434
0.07875951379537582 0.7865891456604004 -0.5062541961669922
0.445795476436615 0.5532325506210327 -0.3956155776977539
-0.36284762620925903 0.5977213978767395 -0.06091005727648735
-2.1348118782043457 0.19598925113677979 -0.05341894179582596
0.712210476398468 0.7091391682624817 -0.36321842670440674
-0.1016315370798111 0.1662476360797882 0.17335857450962067
-0.734216034412384 0.5575674176216125 -0.04352611303329468
-0.4644736647605896 0.8239136934280396 0.23883463442325592
-0.441516250371933 0.04143005609512329 -0.37160682678222656
0.43825793266296387 0.4150815010070801 0.28542208671569824
-0.9150972366333008 0.17759212851524353 0.18383349478244781
0.038921136409044266 0.058806538581848145 0.3650849461555481
-0.04224782809615135 0.040430277585983276 0.3879967927932739
0.07617531716823578 0.258775532245636 0.2998184859752655
-0.7889547944068909 0.8242453336715698 -0.07841961085796356
0.8034690022468567 0.5161741971969604 -0.08614625036716461
-0.7715175151824951 0.07509440183639526 -0.24975082278251648
-0.43448513746261597 0.5022392868995667 0.20531825721263885
-1.6170169115066528 0.5734170079231262 0.13237766921520233
-1.262429118156433 0.27149927616119385 0.23940998315811157
-0.9471321105957031 0.16807617247104645 -0.3105599582195282
-0.548841118812561 0.2791711688041687 -0.3965042531490326
0.35887590050697327 0.7606334686279297 -0.25795087218284607
1.028078317642212 0.3266064524650574 -0.29443350434303284
-1.0546739101409912 0.6382337808609009 0.042429931461811066
-0.044694628566503525 0.2810448110103607 -0.24207162857055664
-1.1734471321105957 0.5013526678085327 0.380260169506073
-0.49619540572166443 3.8951635360717773e-05 -0.31513074040412903
-0.32421931624412537 0.8244944214820862 -0.43161264061927795
-1.108952522277832 0.605491578578949 0.042895954102277756
-0.8895607590675354 0.21869473159313202 -0.30932679772377014
-0.9621357321739197 0.36509138345718384 0.16706286370754242
0.1879095733165741 0.20570337772369385 -0.5364995002746582
-0.8809837698936462 0.6658968925476074 0.34134578704833984
0.4553123712539673 0.4351748526096344 0.35265904664993286
-0.9652712345123291 0.7064194679260254 -0.463908314704895
-1.423561453819275 0.17612417042255402 -0.01763124018907547
0.0027331113815307617 0.016017913818359375 -0.1578405648469925
-0.545104444026947 0.11655868589878082 -0.5071749687194824
-1.6529428958892822 0.6051435470581055 0.19207535684108734
0.7611144185066223 0.18700960278511047 0.1405056267976761
-1.036910891532898 0.07861357927322388 -0.3726586699485779
-0.02646077424287796 0.8299700021743774 -0.5191590785980225
-0.01843550056219101 0.17097079753875732 0.1118958592414856
-0.4736390709877014 0.7911286354064941 0.18142782151699066
-1.1358141899108887 0.16923058032989502 0.02090185321867466
-0.6321565508842468 0.004502296447753906 0.2544722259044647
-0.09543758630752563 0.2455771565437317 -0.5320090651512146
-0.7689689993858337 0.30141621828079224 0.4296567738056183
0.6357071995735168 0.7756140232086182 -0.3822844624519348
0.553371787071228 0.3357158303260803 -0.05203572288155556
0.1885528862476349 0.4613713026046753 -0.3752240836620331
0.06160034239292145 0.8222616314888 -0.30348634719848633
-1.303073763847351 0.18036770820617676 -0.35090112686157227
-0.35532787442207336 0.521622359752655 0.2060321867465973
-0.8132819533348083 0.26812323927879333 0.21875102818012238
-0.5404351949691772 0.7172176241874695 0.14464877545833588
0.7564164996147156 0.8019518256187439 -0.19725462794303894
-1.3609074354171753 0.25215858221054077 -0.16947215795516968
-0.503736674785614 0.5075852870941162 -0.3273038864135742
-1.444290041923523 0.7892938256263733 -0.24706529080867767
-0.4185928702354431 0.47714319825172424 -0.5056571960449219
-0.029549628496170044 0.41491514444351196 0.033952727913856506
-0.605318546295166 0.4451044797897339 0.3178356885910034
-0.07704935222864151 0.7913361191749573 -0.3958956003189087
-2.378481388092041 0.29724621772766113 -0.9693090915679932
0.9246771335601807 0.564525842666626 -0.38092339038848877
-1.7159934043884277 0.4384665787220001 0.07028035819530487
-0.29487669467926025 0.6162109971046448 0.4085626006126404
-1.4374208450317383 0.48978933691978455 0.2102428823709488
-1.5872303247451782 0.1090773344039917 -0.08392325043678284
-1.5597940683364868 0.24316143989562988 -0.20864707231521606
-0.1367485523223877 0.6217750310897827 0.20561003684997559
-0.5578696131706238 0.4278056025505066 -0.1366092413663864
-0.2099006175994873 0.24323301017284393 -0.10451965779066086
0.7117140889167786 0.39630287885665894 0.4163186252117157
0.3060401380062103 0.4599801301956177 0.16689465939998627
-0.268672913312912 0.69183349609375 -0.038445740938186646
0.06400735676288605 0.001126706600189209 0.0025312229990959167
-0.008638348430395126 0.3871673345565796 -0.5598604679107666
-0.2224600911140442 0.8540420532226562 -0.45387405157089233
-0.04157141596078873 0.21410515904426575 -0.5581645369529724
-1.2314846515655518 0.6208586692810059 -0.2122751921415329
-0.9498065710067749 0.6664648652076721 -0.1698431819677353
-1.2190160751342773 0.36384958028793335 -0.3356143832206726
-0.9082664847373962 0.657484769821167 -0.24856160581111908
-0.6420286297798157 0.20088410377502441 -0.03665212541818619
-1.1534411907196045 0.23711416125297546 -0.2801773250102997
-0.263761430978775 0.39022359251976013 0.33279621601104736
-1.8783174753189087 0.5965874195098877 -0.1382988542318344
-0.5703246593475342 0.6394020318984985 0.41752147674560547
0.3628902733325958 0.0723157525062561 -0.2842898666858673
0.7710619568824768 0.19166460633277893 -0.20304323732852936
-0.3750671148300171 0.7698941826820374 0.15474286675453186
-0.5230224132537842 0.7055274248123169 -0.21254462003707886
-1.1700987815856934 0.5779885053634644 -0.39724287390708923
0.5380018949508667 0.20784786343574524 0.23980818688869476
-0.43922051787376404 0.14357639849185944 0.31809645891189575
-1.7250183820724487 0.2824845314025879 0.23210051655769348
-0.27680742740631104 0.8213925361633301 -0.4969937205314636
-0.011033140122890472 0.6223805546760559 -0.5130016803741455
0.5177274942398071 0.7244457602500916 -0.16967587172985077
-0.8404802083969116 0.4362262785434723 -0.5209906101226807
0.25697192549705505 0.8412800431251526 0.09321887791156769
-0.07390213012695312 0.25026971101760864 -0.42688697576522827
-0.4955044984817505 0.03211021423339844 -0.5961441993713379
-0.08751052618026733 0.5203917622566223 -0.21746313571929932
-0.6181870102882385 0.458624929189682 0.4534245729446411
0.15508796274662018 0.45962128043174744 -0.3501286804676056
0.7240484356880188 0.21576803922653198 -0.03500803932547569
-1.2536576986312866 0.4215855598449707 0.1903390884399414
0.3317192792892456 0.2284564971923828 0.2512388229370117
-0.13128022849559784 0.39228320121765137 -0.043145786970853806
-0.1400221884250641 0.20862801373004913 0.3734404146671295
-0.8612335324287415 0.37002497911453247 0.11939302831888199
-0.9767845869064331 0.25870609283447266 0.3170538544654846
0.08826466649770737 0.23816122114658356 -0.10807793587446213
0.21803879737854004 0.3072711229324341 0.21931198239326477
-0.9714603424072266 0.33186590671539307 0.0722004622220993
0.37130802869796753 0.3364301323890686 0.4101666808128357
-1.3733530044555664 0.6420023441314697 0.19828370213508606
0.10797782987356186 0.7838396430015564 0.5791008472442627
-1.4678120613098145 0.3880278766155243 -0.5238240957260132
-0.7237275838851929 0.18458853662014008 -0.05093055218458176
-0.20643259584903717 0.09348005056381226 -0.029554521664977074
-0.7776358127593994 0.6019296646118164 0.32767120003700256
0.5585603713989258 0.6037399768829346 -0.06393326073884964
-0.34296536445617676 0.4253472685813904 0.15087075531482697
1.1121618747711182 0.7557626962661743 0.10206672549247742
-1.0118540525436401 0.5946999788284302 -0.25460419058799744
-1.5534662008285522 0.719538688659668 -0.35624071955680847
0.4953530430793762 0.6233631372451782 -0.37352877855300903
-0.1724332869052887 0.011195659637451172 -0.12936720252037048
0.040156420320272446 0.18942205607891083 -0.5072816014289856
-0.8849239945411682 0.3722969591617584 0.4897208511829376
-0.26872798800468445 0.764546275138855 0.4076465368270874
-0.5766963958740234 0.5225102305412292 -0.09810633957386017
-0.06931138783693314 0.2830814719200134 -0.236976757645607
-0.02804437279701233 0.5801801681518555 0.4325544238090515
-1.0565247535705566 0.15830539166927338 0.2742273211479187
-0.8465153574943542 0.34802570939064026 0.3345552086830139
-0.4241887032985687 0.8076732754707336 -0.4975707530975342
0.0016535073518753052 0.717025876045227 0.05657139793038368
0.26039236783981323 0.5739644765853882 -0.04482555761933327
-1.0758991241455078 0.490003377199173 -0.27890515327453613
-0.8914328813552856 0.8170422911643982 0.14087267220020294
-1.3926235437393188 0.36224687099456787 -0.4712003469467163
-0.20496012270450592 0.6027292609214783 -0.19124940037727356
0.10691767185926437 0.24781791865825653 0.22374574840068817
-0.4514985680580139 0.6234275102615356 0.13480553030967712
-1.4222370386123657 0.5203821659088135 0.03978685662150383
-1.1578136682510376 0.7235949635505676 -0.1356200873851776
-0.9185993671417236 0.7371337413787842 0.19402220845222473
-0.7897684574127197 0.4718192517757416 -0.24046547710895538
0.03965595364570618 0.18250051140785217 -0.00017638318240642548
0.7336339354515076 0.47475701570510864 -0.3300465941429138
0.3668365478515625 0.14800506830215454 0.012131729163229465
0.7679071426391602 0.7398759126663208 0.13441990315914154
0.2849265933036804 0.8817803859710693 0.0047952160239219666
-0.9433748126029968 0.3712678551673889 -0.3675505518913269
-0.7135747671127319 0.3695260286331177 0.32481345534324646
-0.33880624175071716 0.7788963913917542 -1.213544487953186
-0.4214521646499634 0.12803533673286438 -0.25552552938461304
-1.1809067726135254 0.7618481516838074 -0.44614294171333313
-0.11761949211359024 0.1048857718706131 0.2992737889289856
-0.08912017941474915 0.799709141254425 0.20492476224899292
-0.48858094215393066 0.5564221143722534 0.3093383312225342
0.9575782418251038 0.7978808283805847 0.12597574293613434
-0.7292530536651611 0.17028099298477173 -0.48180675506591797
-0.05397236347198486 0.5758790969848633 -0.5409759283065796
-0.2708517611026764 0.5753955841064453 -0.27522745728492737
0.9076641798019409 0.6275984048843384 0.1699143946170807
0.05632699653506279 0.6991447806358337 -0.021642427891492844
-1.2624138593673706 0.26496103405952454 -0.5111662745475769
-0.05170424282550812 0.853278636932373 0.1273747831583023
0.8770784735679626 0.748991847038269 -0.0008484832942485809
0.054779499769210815 0.8040838837623596 -0.4600374698638916
-1.713900089263916 0.7138612270355225 0.10052987188100815
-0.9581171870231628 0.7580342292785645 0.2922772169113159
0.10084277391433716 0.5957373380661011 -0.37543097138404846
1.4451820850372314 0.6302600502967834 0.0338246151804924
-0.5690560340881348 -0.025538086891174316 0.22327297925949097
-1.4172725677490234 0.5624637603759766 -0.07460413128137589
-0.07903441786766052 0.33506035804748535 -0.23253364861011505
-0.0306374691426754 0.8294641971588135 0.10538234561681747
-0.321623831987381 0.7120667695999146 0.34906911849975586
-0.3450721204280853 0.7129500508308411 0.1589462012052536
-1.2653303146362305 0.2788216471672058 0.28448522090911865
-0.7501024007797241 0.1499916911125183 0.1299026906490326
-1.2150371074676514 0.3927538990974426 -0.054702118039131165
-0.5144416093826294 0.8030191659927368 -0.40137001872062683
0.05226512998342514 0.05025184154510498 0.38743603229522705
0.08242060244083405 0.4243956208229065 0.18002180755138397
0.5101250410079956 0.38886773586273193 0.05716448277235031
-2.005199432373047 0.1788608431816101 -0.1447177678346634
-0.4149271547794342 0.3775794506072998 -0.428032785654068
0.7438188791275024 0.7579869627952576 0.3618636131286621
-2.0963594913482666 0.6589882373809814 0.22637048363685608
-0.3843325674533844 0.3160218298435211 -0.029183432459831238
0.18238399922847748 0.677841305732727 0.02622293494641781
0.4218437373638153 0.2977074682712555 -0.35299810767173767
0.12717166543006897 0.2230444848537445 -0.5443820357322693
1.3393841981887817 0.6637628078460693 -0.20627403259277344
-0.5771505832672119 0.5523017644882202 -0.2018318921327591
-0.484029620885849 0.5125932097434998 -0.5286215543746948
1.0156919956207275 0.20366591215133667 0.3436846137046814
-0.4919161796569824 0.33391478657722473 -0.5231391191482544
-0.32665789127349854 0.7914453744888306 0.415785551071167
-0.28503185510635376 0.702399492263794 -0.5043930411338806
-0.7263473868370056 0.09538426995277405 0.3109879493713379
-0.595066487789154 0.1881801187992096 0.18994973599910736
-0.1496439278125763 0.603145182132721 -0.5051482915878296
0.8317589163780212 0.4987163841724396 -0.44020140171051025
-0.17470544576644897 0.6709228157997131 0.3239392042160034
-0.2028786838054657 0.8444425463676453 -0.17836517095565796
0.2787984311580658 0.46233534812927246 -0.030826833099126816
-1.218216061592102 0.20274530351161957 -0.2346975952386856
0.9283260107040405 0.7896394729614258 -0.19587038457393646
-0.8149310946464539 0.27315425872802734 0.16281843185424805
-1.4152405261993408 0.35057148337364197 -0.2616709768772125
2.259312629699707 0.36314305663108826 0.14508798718452454
0.12427009642124176 0.7998263239860535 0.11146431416273117
-1.2192025184631348 0.5235764980316162 -0.4929373264312744
0.15556949377059937 0.5205268859863281 -0.4120398759841919
-0.6262985467910767 0.18945659697055817 -0.5283463597297668
-1.1455416679382324 0.39032578468322754 -0.13608144223690033
0.518025815486908 0.1263214647769928 -0.17822425067424774
-0.17724327743053436 0.7867445945739746 -0.17288914322853088
-1.0389810800552368 0.5814913511276245 0.2795565724372864
0.18178343772888184 0.6154376268386841 0.16313536465168
0.7045151591300964 0.1713607758283615 0.22331348061561584
0.36606565117836 0.7758779525756836 0.14173877239227295
0.8337371945381165 0.5924172401428223 0.24367490410804749
-0.10326463729143143 0.34502094984054565 0.4844713509082794
-0.07388810813426971 0.7319295406341553 -0.3909343481063843
-0.7200673222541809 0.43409550189971924 -0.5121282339096069
0.40667712688446045 0.24145455658435822 -0.14218050241470337
-0.8344436287879944 0.7360646724700928 0.44346535205841064
1.5040138959884644 0.5787004232406616 0.03336102515459061
0.30519774556159973 0.8550422787666321 0.16891621053218842
-0.30265018343925476 0.2079441249370575 0.26615381240844727
0.3461742401123047 0.7169028520584106 -0.011942926794290543
0.2564505934715271 0.5465930700302124 -0.4823411703109741
-0.10737007856369019 0.1709858477115631 0.1126331090927124
0.4065684676170349 0.7505916953086853 0.16499507427215576
-0.026172734797000885 0.30487221479415894 0.014188685454428196
0.10214020311832428 0.7041006684303284 -0.08405081927776337
-1.5729864835739136 0.6730268001556396 -0.3393056392669678
-0.35711604356765747 0.038377076387405396 0.15469418466091156
-1.510805368423462 0.15341264009475708 0.5376843810081482
-0.8511833548545837 0.3540872633457184 0.41444796323776245
-0.660391628742218 0.5434911251068115 0.024884318932890892
-1.0692644119262695 0.4354180097579956 0.334896445274353
-0.23484432697296143 0.42163360118865967 -0.17788554728031158
0.8773773908615112 0.2783552408218384 -0.1842467188835144
-1.2700920104980469 0.46868592500686646 0.08486741036176682
0.45969876646995544 0.621982753276825 0.15923799574375153
0.635445773601532 0.6205732822418213 -0.38502728939056396
-0.9754465222358704 0.766383707523346 -0.2643088102340698
-0.1377134919166565 0.7720425128936768 0.2476317435503006
0.7958143949508667 0.5758652091026306 0.2226511836051941
0.5534948706626892 0.5795233845710754 0.48720061779022217
-1.1744024753570557 0.42710745334625244 -0.4468681216239929
0.5063592195510864 0.3762819766998291 0.3914663791656494
-1.0742137432098389 0.4303652048110962 -0.4748367965221405
-0.24387452006340027 0.4945732653141022 -0.5703999400138855
-1.4546107053756714 0.2800241708755493 -0.4272877275943756
0.18544194102287292 0.6215991973876953 -0.4696590304374695
-0.9374874830245972 0.7248636484146118 -0.08593792468309402
-1.0413062572479248 0.3041905462741852 -0.18181395530700684
0.13832156360149384 0.7912237048149109 -0.6878213882446289
-1.4390335083007812 0.7557936310768127 -0.39826175570487976
-1.124861240386963 0.12381058931350708 -0.233198344707489
-0.03904051333665848 0.7866949439048767 0.3827868700027466
-1.1952565908432007 0.08140683174133301 -0.43594294786453247
0.16699494421482086 0.6337704658508301 0.25247931480407715
-0.19305084645748138 0.4370470643043518 -0.5292446613311768
-1.4845106601715088 0.6787562966346741 0.28987693786621094
-2.1549289226531982 0.19264040887355804 -0.0281120203435421
1.5617883205413818 0.46694114804267883 -0.12222034484148026
-0.24358807504177094 0.5854147672653198 -0.06908991932868958
0.8838605284690857 0.7908235788345337 0.07021906971931458
-0.15629296004772186 0.7730894088745117 0.08554762601852417
-1.6473498344421387 0.3871290385723114 0.04625672474503517
-0.8418667316436768 0.8129075765609741 0.09496980905532837
-0.8483614921569824 0.5208480358123779 0.5936721563339233
-0.6865836381912231 0.42039161920547485 -0.17671816051006317
-1.1668068170547485 0.13406044244766235 0.15263772010803223
1.255842924118042 0.6710925102233887 -0.22315920889377594
-1.6362683773040771 0.3607935905456543 -0.35281574726104736
0.5338225960731506 0.8319872617721558 0.5711327791213989
-0.12027402967214584 0.17479299008846283 0.08269733190536499
-1.7844032049179077 0.201736718416214 -0.18815293908119202
-1.201766014099121 0.5756553411483765 0.21323665976524353
-0.09661462903022766 0.4990154504776001 0.15322403609752655
-0.933694064617157 0.4972469210624695 0.4590646028518677
0.6210685968399048 0.4437212347984314 0.5031775236129761
-0.14289650321006775 0.5891993045806885 0.15850836038589478
-0.1004779189825058 0.7026116251945496 -0.2725980579853058
-1.3606131076812744 0.15828454494476318 0.32184773683547974
0.32462748885154724 0.8326491713523865 0.17094455659389496
-1.231645107269287 0.6273517608642578 -0.4834771156311035
-1.073286771774292 0.3984944820404053 -0.3234971761703491
-0.041020944714546204 0.7538111209869385 -0.4294397532939911
0.20783567428588867 0.47634488344192505 -0.4867382049560547
-0.6340855360031128 0.5591282844543457 -0.11555694788694382
-1.2153456211090088 0.4776036739349365 0.2377702295780182
0.09698724746704102 0.8172967433929443 -0.06269922852516174
0.9440006613731384 0.6431262493133545 0.3440377712249756
-0.5118758082389832 -0.07730340957641602 0.1997777372598648
-0.5281324982643127 0.23328182101249695 -0.561769962310791
-0.8959085941314697 0.5528078079223633 0.21703781187534332
-0.4170168340206146 0.5521345734596252 0.3430802524089813
-0.7872281670570374 0.47072654962539673 -0.5094574689865112
-0.55606609582901 0.4079200327396393 -0.4233032464981079
-1.259768009185791 0.3071328103542328 -0.4402911365032196
-0.24267300963401794 0.21188472211360931 0.3532983958721161
0.7763258218765259 0.24473533034324646 0.20423683524131775
0.599628210067749 0.7777070999145508 0.04934026300907135
0.15729278326034546 0.22653554379940033 0.06535692512989044
0.8488800525665283 0.18996712565422058 -0.05581441521644592
-0.1964014619588852 0.057020872831344604 0.16513803601264954
-0.8210281729698181 0.7920055985450745 0.27659279108047485
0.6941515207290649 0.3102805018424988 0.385732501745224
0.32450050115585327 0.7873272895812988 0.24719803035259247
-0.5401756763458252 0.543095588684082 0.1451013684272766
-1.1968976259231567 0.26159191131591797 0.2670089900493622
-0.41337665915489197 0.4677320718765259 0.21918648481369019
0.5337046384811401 0.6220265030860901 0.2641799747943878
-1.1833876371383667 0.616885781288147 0.24700883030891418
-1.2402743101119995 0.10601472854614258 0.2945576608181
-1.3550353050231934 0.6171578168869019 -0.169640451669693
0.2642369866371155 0.7602680921554565 0.015197070315480232
-0.5194653868675232 0.5419670343399048 0.018170932307839394
-1.4491589069366455 0.7667498588562012 -0.3600063920021057
0.056495506316423416 0.6308276653289795 0.04772638902068138
0.16798271238803864 0.2884816825389862 -0.4412003457546234
-0.5007106065750122 0.010274648666381836 -0.17263972759246826
-0.51739102602005 0.12504401803016663 0.16817046701908112
-0.7337300777435303 0.3192834258079529 0.1217295303940773
-1.1186330318450928 0.4843866527080536 0.16950827836990356
-0.20035536587238312 0.4564124345779419 0.10967301577329636
0.4880000352859497 0.4693129062652588 0.45210346579551697
-0.09596528112888336 0.368033766746521 0.34479260444641113
-0.512134313583374 0.26352471113204956 0.2169051617383957
0.30816370248794556 0.3839113712310791 -0.4311569929122925
-1.6562827825546265 0.5699834227561951 -0.18086732923984528
-0.2412477731704712 0.2789633870124817 -0.5384147763252258
-0.11522047966718674 0.12384791672229767 -0.05427825450897217
0.5877560377120972 0.28493034839630127 -0.2647104859352112
-0.1593654453754425 0.7608029842376709 -0.5004811882972717
-1.0404539108276367 0.1630520075559616 0.060874953866004944
-0.0723254606127739 0.8632908463478088 -0.06255623698234558
-0.005554575473070145 0.429922878742218 0.0682244673371315
-0.822881281375885 0.6797850131988525 -0.16264182329177856
-0.9886080622673035 0.30905330181121826 -0.0037411628291010857
0.7011693716049194 0.12041714787483215 0.21524611115455627
-0.8198818564414978 0.17411459982395172 0.001459863968193531
-0.5583170056343079 0.44502031803131104 0.020646467804908752
-0.36943957209587097 0.11356671154499054 -0.45300179719924927
-1.303015947341919 0.4227696657180786 -0.22882944345474243
0.5039302110671997 0.5818198919296265 0.41651588678359985
-1.111060619354248 0.5089882612228394 0.1271638423204422
-1.8355581760406494 0.6923292875289917 0.11776407808065414
-0.4345802664756775 0.5000062584877014 -0.4730817377567291
0.5219759941101074 0.23224817216396332 -0.1261386126279831
-1.0835902690887451 0.14658722281455994 -0.488629549741745
0.545569121837616 0.2708689272403717 -0.16939091682434082
-0.14498218894004822 0.7804737687110901 0.1918773651123047
0.23713912069797516 0.22819189727306366 -0.3657269775867462
0.6747357249259949 0.47805094718933105 0.20661082863807678
0.15558218955993652 0.0926894098520279 -0.3194999396800995
1.882230281829834 0.5419590473175049 -0.10875986516475677
0.5334928631782532 0.47620391845703125 -0.10295189172029495
1.0180647373199463 0.2751176953315735 -0.26244330406188965
-1.3531992435455322 0.12436920404434204 -0.4020589590072632
-0.8460370302200317 0.4810243248939514 0.024116531014442444
0.026479657739400864 0.7763100266456604 0.3984568417072296
-0.09345166385173798 0.18849948048591614 -0.047860223799943924
-0.1495295912027359 0.5781777501106262 0.1544344276189804
-0.9745853543281555 0.11530548334121704 0.3201395571231842
-0.8903043270111084 0.543728232383728 0.18875913321971893
-0.9737001061439514 0.5278664231300354 0.05035562440752983
-0.8775059580802917 0.755744218826294 0.34925729036331177
0.5891039371490479 0.32473644614219666 0.0768364667892456
-0.23068049550056458 0.3437190055847168 -0.021062983199954033
-0.017783109098672867 0.2524830996990204 -0.13561847805976868
0.5391412973403931 0.7937877774238586 0.4443184733390808
-0.0765991136431694 0.00252339243888855 -0.2996019721031189
1.3631272315979004 0.6020163893699646 0.051572367548942566
-0.19586220383644104 0.7805476188659668 -0.48962798714637756
-0.8562687039375305 0.5608924627304077 0.5189169049263
1.9861468076705933 0.5095866918563843 0.1825539767742157
-0.4295027554035187 0.26392102241516113 -0.10557445138692856
-0.5883362293243408 0.3922751545906067 -0.27758780121803284
-1.0567572116851807 0.7293847799301147 -0.17900535464286804
0.30214816331863403 0.5275546908378601 -0.07347096502780914
0.4158989191055298 0.7607893943786621 -0.24504511058330536
0.08714021742343903 0.14520278573036194 -0.13737580180168152
-0.43023979663848877 0.02151167392730713 -0.17635703086853027
-0.15441808104515076 0.5930416584014893 -0.4115017056465149
-1.3252949714660645 0.49735260009765625 0.46284303069114685
0.07401871681213379 0.054047614336013794 0.06511206924915314
0.2368733286857605 0.7599574327468872 -0.10132133960723877
0.030961178243160248 0.7573208808898926 -0.06144356727600098
-1.268254280090332 0.26910465955734253 -0.08046980202198029
0.14506688714027405 0.6572964787483215 -0.12396545708179474
-1.0017194747924805 0.4939512014389038 0.028977960348129272
-0.9811079502105713 0.6792292594909668 -0.3722188174724579
0.5619552135467529 0.1548190414905548 0.16451004147529602
1.0161837339401245 0.4452052712440491 0.06015441566705704
-1.0550744533538818 0.3885958790779114 -0.14162687957286835
0.030365396291017532 0.37263476848602295 -0.4842761754989624
0.29092735052108765 0.2750563621520996 0.10441936552524567
-0.11108947545289993 0.04176527261734009 0.37692081928253174
0.13893276453018188 0.5540812611579895 0.42682987451553345
-1.3785384893417358 0.1772235929965973 -0.026817817240953445
-0.5287783145904541 0.39492475986480713 0.13933080434799194
-0.09603149443864822 0.7960029244422913 -0.4557267427444458
-0.16987191140651703 0.39381271600723267 0.4378888010978699
-0.12705756723880768 0.23505446314811707 -0.2909109890460968
-0.8239431381225586 0.6741280555725098 0.18217594921588898
0.15488889813423157 0.5030056834220886 0.1252112239599228
-0.22536244988441467 0.23834984004497528 0.4057502746582031
0.4848257303237915 0.6843976974487305 0.36883533000946045
-0.8483582735061646 0.25516319274902344 -0.5039709806442261
0.4511447250843048 0.525286078453064 0.07285656780004501
1.5531660318374634 0.6531407237052917 -0.2511119246482849
0.09056403487920761 0.3030032515525818 0.07194854319095612
0.289419949054718 0.8741512298583984 0.141401007771492
-0.3790833055973053 -0.01560869812965393 0.03461723029613495
1.0011518001556396 0.7882447838783264 -0.11588577181100845
0.2925584018230438 0.5543004274368286 -0.017001884058117867
0.7347878813743591 0.8048811554908752 0.4204232394695282
0.555858850479126 0.6838498115539551 0.05386684834957123
0.006529398262500763 0.7173232436180115 -0.2709317207336426
-0.824173092842102 0.6588951349258423 -0.33809083700180054
-1.8828327655792236 0.4575389623641968 0.18332664668560028
0.1895635724067688 0.8095400929450989 0.14814811944961548
0.6344139575958252 0.6494196653366089 0.27207082509994507
0.010994672775268555 0.15280483663082123 -0.6609565019607544
-1.0465521812438965 0.0017805099487304688 0.3608758747577667
-1.9189653396606445 0.26432132720947266 -0.06531781703233719
-2.572969913482666 0.35130658745765686 -1.1080551147460938
0.5696377754211426 0.3295317590236664 -0.07506966590881348
-0.1034359261393547 0.620216429233551 -0.46910423040390015
-1.127081036567688 0.6917757987976074 -0.45537102222442627
1.1425305604934692 0.5816272497177124 0.15584219992160797
0.4734094738960266 -0.1622697114944458 -0.7716488838195801
0.8023819327354431 0.19652357697486877 0.09865836799144745
-1.0709474086761475 0.11906677484512329 -0.008212883025407791
-1.2357304096221924 0.336870014667511 0.24541804194450378
-0.45627090334892273 0.7434484362602234 0.4334641396999359
-0.8591771721839905 0.3227129280567169 -0.14733749628067017
-1.8539795875549316 0.2610357403755188 0.05789107084274292
-0.4358437657356262 0.2914925813674927 -0.4634782373905182
-1.1365820169448853 0.138864666223526 0.20424456894397736
-0.7420746088027954 0.5593370795249939 -0.5537036657333374
0.5061852335929871 0.5961964130401611 0.1242237240076065
-0.3426711857318878 0.6426090002059937 -0.24376444518566132
-2.1967451572418213 0.2618975043296814 -0.250765323638916
-1.7311999797821045 0.577180027961731 -0.16362670063972473
-1.381988763809204 0.7118834853172302 -0.4337473511695862
-0.06276574730873108 0.017265111207962036 -0.5292133092880249
0.241786390542984 0.21530011296272278 0.594704806804657
0.6753107309341431 0.613872230052948 0.3277069926261902
-1.4046180248260498 0.3435214161872864 0.06548866629600525
-1.2898368835449219 0.5036129951477051 0.26030880212783813
0.47780540585517883 0.1451706439256668 -0.22336211800575256
1.4277905225753784 0.432158499956131 0.06894709169864655
-0.7421936392784119 0.46301230788230896 -0.5175235271453857
0.43098801374435425 0.8601930141448975 0.22927185893058777
0.9278987646102905 0.6256727576255798 -0.19499675929546356
-1.3971960544586182 0.6031771898269653 -0.13915984332561493
0.3020004332065582 0.5354915857315063 0.26344290375709534
0.8443775773048401 0.1711018979549408 0.3856223225593567
-0.3380080461502075 0.5695468187332153 -0.4336545169353485
1.1061614751815796 0.30059486627578735 -0.06535451114177704
0.8387510776519775 0.8212918639183044 0.11250138282775879
-1.0175617933273315 0.6475420594215393 0.17687085270881653
0.3173007071018219 0.8121163845062256 0.3639011085033417
-0.9509698152542114 0.22080831229686737 -0.28862497210502625
-0.4696132242679596 0.7254335880279541 -0.31072941422462463
0.18308255076408386 0.29740044474601746 -0.12349583953619003
0.849357545375824 0.7337493896484375 0.29956382513046265
0.49139469861984253 0.661892294883728 0.037292368710041046
-0.5435540676116943 0.7748409509658813 0.3040156066417694
0.29956936836242676 0.3152652382850647 -0.1979888677597046
0.14727258682250977 0.015940725803375244 -0.13438674807548523
-0.15276315808296204 0.5994149446487427 0.017162112519145012
-0.8551384806632996 0.6871356964111328 0.46986961364746094
-1.012969732284546 0.2410338819026947 -0.5469119548797607
-0.9045603275299072 0.17779339849948883 0.058173976838588715
-1.715104579925537 0.7450734376907349 -0.14227360486984253
0.24494986236095428 0.7528437376022339 0.4134123623371124
-0.6636806726455688 0.08760988712310791 -0.4806844890117645
0.37859639525413513 0.8220128417015076 0.02539285086095333
-0.42393064498901367 0.02345031499862671 0.14383165538311005
-0.9051000475883484 0.5304921865463257 -0.2985702157020569
-0.74622642993927 0.2883404493331909 -0.044905051589012146
0.8521175384521484 0.7912725806236267 0.14904722571372986
-1.8378431797027588 0.5078649520874023 -0.19796837866306305
-1.1202446222305298 0.7158287167549133 0.33318787813186646
-0.5818151235580444 0.8387386202812195 -0.864215612411499
-0.9725905656814575 0.09912711381912231 -0.3240228295326233
-1.3391729593276978 0.16890662908554077 -0.16201725602149963
-1.306617021560669 0.6024787425994873 0.1200404018163681
-0.1494925618171692 0.8412711024284363 -0.1595863252878189
-0.8400945663452148 0.596937894821167 0.5297219753265381
-0.6020888090133667 0.5500670075416565 0.19099411368370056
0.006231382489204407 0.21210531890392303 -0.5359622836112976
-1.1358798742294312 0.7331948280334473 -0.020763900130987167
0.8090550899505615 0.6616765856742859 0.05423426628112793
-0.31511300802230835 0.231819748878479 0.2210836559534073
-0.5435041189193726 0.4864791929721832 0.20472006499767303
0.09041906893253326 0.43324601650238037 -0.08392339199781418
-1.2571748495101929 0.11024680733680725 -0.4842052161693573
0.09723003208637238 0.08647520840167999 0.032534874975681305
-0.7493850588798523 0.39337271451950073 -0.4045388102531433
-0.4432123005390167 0.4412616491317749 -0.02350441738963127
-0.8813134431838989 0.7647048234939575 -0.49036267399787903
-0.4287715554237366 0.6796411275863647 -0.021969832479953766
1.605203628540039 0.6317063570022583 -0.23245950043201447
0.3536423444747925 0.552958607673645 0.29241377115249634
-1.1568410396575928 0.06937146186828613 -0.24271678924560547
0.8162562847137451 0.4640454351902008 0.23335176706314087
-0.2484796643257141 0.535234808921814 -0.2568153738975525
-1.180379033088684 0.2761341333389282 0.005472252145409584
-1.0223522186279297 0.4054495394229889 -0.08431622385978699
-0.9331983327865601 0.3424658477306366 -0.5086010694503784
-1.1385642290115356 0.5918801426887512 0.2639748454093933
-1.3616021871566772 0.44474172592163086 0.16840194165706635
0.3230258524417877 0.5362779498100281 -0.29451510310173035
-0.5266370177268982 0.15634290874004364 -0.12025776505470276
-0.33281493186950684 0.7445799112319946 -0.5284535884857178
0.07861538976430893 0.636758029460907 -0.3438526690006256
0.06005408242344856 0.7852581143379211 0.45843762159347534
1.5119198560714722 0.6361033320426941 -0.1628222018480301
0.004777349531650543 0.4618394374847412 0.42945870757102966
-0.04162820056080818 0.6047189235687256 -0.10223724693059921
1.1095343828201294 0.5184736251831055 -0.30145567655563354
-0.700736939907074 0.5473033785820007 0.3524811267852783
-1.437235951423645 0.3762299716472626 0.16651107370853424
0.26635411381721497 0.0545881986618042 -0.09201981127262115
-0.603858470916748 0.8610804080963135 -0.13688716292381287
-0.581360399723053 0.6159523725509644 -0.49648013710975647
0.5379241704940796 0.7925812602043152 -0.37534213066101074
-1.6461354494094849 0.1883542537689209 -0.10375288873910904
-0.7306616902351379 0.2841135859489441 0.2282755821943283
1.568874716758728 0.6027499437332153 -0.17690274119377136
1.1417357921600342 0.21679025888442993 0.0195700041949749
-0.544148862361908 0.22765403985977173 0.023268749937415123
0.7623785734176636 0.7269873023033142 -0.10809467732906342
0.5515402555465698 0.7810367345809937 0.3948403596878052
0.18316654860973358 0.07338473200798035 0.128975048661232
-0.31789594888687134 0.7428620457649231 0.23059852421283722
-0.2579471170902252 0.6110844612121582 0.02354995533823967
-1.5073797702789307 0.18535162508487701 -0.31993502378463745
-1.30424964427948 0.1210421770811081 -0.1891518384218216
0.44282883405685425 0.09869998693466187 0.231448695063591
-0.6769853830337524 0.8287763595581055 -0.5021039843559265
0.39802539348602295 0.7906281352043152 -0.4623439311981201
0.22642551362514496 0.4755399525165558 0.13773810863494873
-0.9015117287635803 -0.039798617362976074 0.7800000309944153
-0.29681000113487244 0.18948131799697876 0.4630914628505707
-0.509371280670166 0.3247024416923523 -0.09079453349113464
0.4400777816772461 0.7196597456932068 0.3400735855102539
-1.6232088804244995 0.5758666396141052 -0.23065003752708435
-1.7169784307479858 0.6690679788589478 -0.3282961845397949
-0.4351973831653595 0.04945892095565796 -0.3658727705478668
-0.27922695875167847 0.5502106547355652 -0.04664665460586548
1.2667332887649536 0.3698384761810303 -0.04413113743066788
-1.0454449653625488 0.4516255855560303 0.44703996181488037
0.36518505215644836 0.36304771900177 -0.39514923095703125
0.4419788122177124 0.6404837369918823 -0.2114267796278
-0.4405706822872162 0.7624838948249817 -0.3295304477214813
0.449163019657135 0.31322863698005676 -0.31689563393592834
-0.19304049015045166 0.7444263696670532 0.20498912036418915
-0.46122437715530396 0.7422853112220764 -0.5723199248313904
-0.8356112837791443 0.36037737131118774 0.030496813356876373
0.20410041511058807 0.2716425061225891 0.3457735478878021
-0.7245850563049316 0.6987336874008179 -0.24842716753482819
-0.9392240643501282 0.7000566124916077 -0.4753340482711792
-0.054935842752456665 0.2961704730987549 -0.0551842525601387
-0.42784491181373596 0.4125334620475769 -0.18909791111946106
0.8741587400436401 0.40541785955429077 -0.36821597814559937
1.0699491500854492 0.6483449339866638 -0.07293061167001724
