ply
format ascii 1.0
element vertex 805
property float x
property float y
property float z
end_header
1.1875271797180176 -0.347908079624176 0.13679350912570953
1.1522901058197021 -0.054478719830513 -0.6609766483306885
-1.2327865362167358 0.20651555061340332 -0.44268178939819336
0.25767987966537476 0.025232478976249695 0.2060733437538147
1.1562213897705078 0.4977109730243683 0.4662979245185852
-0.14925405383110046 0.5549699664115906 -0.5494052767753601
-0.9376058578491211 -0.21225905418395996 0.6558263301849365
0.7529911398887634 0.6086686253547668 -1.034180760383606
-0.976765513420105 -0.31591513752937317 0.28059205412864685
0.2696160674095154 -0.2499605268239975 -0.4052768349647522
0.16788031160831451 0.2462647706270218 0.3646949529647827
0.625372588634491 -0.2875503599643707 -0.7330809831619263
-0.8835750818252563 -0.31149163842201233 0.3682660162448883
0.9951930046081543 0.3827436566352844 -0.47861677408218384
-1.0971812009811401 0.13078579306602478 -0.7874547839164734
1.7277802228927612 0.05494706332683563 -0.3407626450061798
0.9608900547027588 0.3742198348045349 0.43721285462379456
0.9610446691513062 -0.1859702318906784 0.2503282427787781
-0.7908987402915955 0.44959142804145813 0.8939217329025269
0.7205703258514404 -0.2913333475589752 -0.6524385809898376
1.0352059602737427 0.014174297451972961 -0.27706363797187805
-0.8792948722839355 -0.3109463155269623 -0.007643252611160278
-1.9106330871582031 -0.16302132606506348 1.1792196035385132
-0.6001460552215576 0.431023508310318 0.4765026271343231
0.5767836570739746 -0.111597940325737 -0.43857526779174805
1.8053147792816162 -0.06836749613285065 -0.5041046738624573
-2.069509983062744 0.3009144961833954 -0.2794235050678253
-2.2462716102600098 0.560011088848114 -0.017949966713786125
1.0934592485427856 -0.05724634230136871 1.0777697563171387
0.17628991603851318 -0.1587517410516739 0.4697660207748413
-0.7005611658096313 0.39639055728912354 -0.18565797805786133
-0.5448712110519409 -0.3352964222431183 0.30672335624694824
0.7855516672134399 0.004024043679237366 0.35593661665916443
1.8881847858428955 -0.32870912551879883 0.15635791420936584
-0.7851746082305908 0.057203277945518494 0.862226128578186
-1.5596903562545776 -0.1136908233165741 -0.08533069491386414
0.2284594476222992 0.246273934841156 0.4261985421180725
-0.10277421772480011 0.47631633281707764 -0.10441084206104279
-0.9164831638336182 -0.30681294202804565 0.4865676760673523
2.0729453563690186 0.23584678769111633 -0.43979209661483765
-1.9945361614227295 0.17792288959026337 -0.28392893075942993
0.3917180299758911 0.4066849648952484 -0.47108712792396545
0.2911527752876282 0.02405191957950592 0.3051773011684418
2.321948289871216 0.18735341727733612 0.7934936285018921
-2.1255593299865723 0.12389200925827026 0.18984681367874146
-0.12826022505760193 -0.3154643177986145 -0.7444294691085815
0.5871594548225403 0.4909319579601288 -0.45050397515296936
0.2826201021671295 0.5928887128829956 0.38687077164649963
1.6608388423919678 -0.2915007174015045 -0.5355523824691772
0.056357838213443756 0.08594194054603577 0.23867420852184296
1.3284167051315308 0.4282505512237549 0.6320096850395203
-1.1847656965255737 0.12379656732082367 0.3316161334514618
-0.8810887336730957 -0.30935871601104736 0.162021204829216
-0.6315189003944397 -0.29555684328079224 0.17824673652648926
0.5974717140197754 -0.025386065244674683 0.13599851727485657
-0.8145042061805725 -0.149057999253273 -0.06964796781539917
1.3889927864074707 0.47823867201805115 -0.059503763914108276
-0.9207643270492554 -0.1985030621290207 0.6357327699661255
-0.7285062074661255 0.20600703358650208 0.4377034604549408
0.0844108983874321 0.22087888419628143 -0.0017703025368973613
1.5787434577941895 0.2198949009180069 0.20226453244686127
-2.8346292972564697 -0.14579027891159058 0.36818256974220276
0.33250510692596436 0.5317800641059875 -0.27189353108406067
0.9163870215415955 0.24496717751026154 0.12138616293668747
1.7385672330856323 -0.29557710886001587 -0.13947346806526184
2.3397066593170166 0.12208792567253113 0.1589471399784088
1.1334023475646973 0.2027914971113205 0.4184543788433075
-1.6754332780838013 0.3986349403858185 0.15765264630317688
-0.7997538447380066 0.13710905611515045 -0.2108897566795349
0.23210839927196503 -0.02473503351211548 0.6137828230857849
-0.915010929107666 -0.02891261875629425 0.5401568412780762
0.43151363730430603 0.5412558317184448 -0.35914552211761475
1.5357708930969238 -0.35590624809265137 -0.263492226600647
1.1507670879364014 0.514331579208374 0.3203181326389313
-1.9549719095230103 0.37473249435424805 0.31082192063331604
-0.2427648901939392 -0.24276871979236603 -0.6023786664009094
-0.9189941883087158 0.23759686946868896 0.3726957440376282
0.6746846437454224 -0.3266167640686035 -0.6134192943572998
0.3882374167442322 0.11766484379768372 -0.5355309247970581
-0.43615421652793884 -0.10862113535404205 0.3323616087436676
0.5255677700042725 -0.07613712549209595 -0.3176344037055969
-1.550181269645691 -0.30974459648132324 0.2905769944190979
0.4206753373146057 -0.05212070047855377 -0.523502767086029
1.3632327318191528 -0.33577579259872437 0.005545749329030514
-1.28566312789917 0.1730261594057083 0.2547725439071655
2.147068738937378 -0.06280958652496338 0.8979901075363159
-0.5814987421035767 -0.3105815351009369 0.19379965960979462
1.7560490369796753 0.2778821289539337 0.07003835588693619
-2.270099639892578 0.0941665917634964 -0.1259530484676361
-0.9901881217956543 0.018936604261398315 -0.5566843152046204
-0.738773763179779 0.4481673836708069 -0.4229380786418915
-1.8794318437576294 -0.30405473709106445 -0.4622017741203308
2.6325595378875732 -0.1656910479068756 -0.39521223306655884
1.3068572282791138 -0.21608847379684448 0.4807558059692383
-2.117415428161621 -0.24667233228683472 -0.6695886254310608
-1.6182116270065308 0.5058822631835938 -0.40227460861206055
-0.2534215450286865 -0.11341330409049988 0.5228357911109924
1.0690547227859497 0.060700416564941406 -0.8536672592163086
1.044468879699707 0.3813816010951996 -0.8594621419906616
-1.9989081621170044 0.2643890380859375 0.41349735856056213
0.4104188084602356 0.38206177949905396 -0.5619304180145264
-1.7710832357406616 0.36359524726867676 0.22181664407253265
-0.17564353346824646 0.2304779589176178 0.8716204166412354
-1.401870846748352 0.3883887231349945 -0.0818747878074646
-1.8883458375930786 0.17777813971042633 -0.6240178346633911
-0.6707034111022949 -0.3233264088630676 0.20399388670921326
-0.5321952700614929 -0.22444863617420197 0.8932322263717651
-0.11388815939426422 -0.31646299362182617 -0.17819973826408386
-0.552377462387085 0.049128443002700806 -0.13171546161174774
-0.7875730991363525 -0.08858069777488708 -0.08083139359951019
-1.7749682664871216 0.09627972543239594 -0.3540804088115692
-0.13786479830741882 0.13629339635372162 0.15036433935165405
-1.6269656419754028 0.05631621181964874 0.07337937504053116
-1.3097844123840332 0.46935123205184937 -0.44273141026496887
1.0872036218643188 -0.06663574278354645 0.9409818649291992
-1.102953314781189 -0.29968297481536865 0.6825095415115356
0.37102168798446655 0.4363933801651001 0.30638155341148376
-0.6125555038452148 -0.21169057488441467 0.6842543482780457
2.1789724826812744 0.3091469407081604 -0.7493752837181091
0.94901442527771 -0.0481543242931366 -0.5204360485076904
-0.14919844269752502 -0.31362324953079224 0.3844280242919922
-0.956756591796875 0.44491949677467346 0.1195613294839859
2.2074270248413086 0.4891679584980011 -0.40837562084198
-2.327258348464966 0.41232240200042725 0.4935460090637207
0.6322109699249268 -0.14721651375293732 0.24321651458740234
2.4841465950012207 -0.12398679554462433 -0.2094881683588028
-0.02946097031235695 0.09829004108905792 -0.6656448245048523
1.6892637014389038 0.2726326584815979 0.32700881361961365
0.16677482426166534 0.19550049304962158 -0.5361199975013733
-1.4292314052581787 -0.08925919234752655 -0.15533645451068878
0.13548287749290466 -0.4141361713409424 -0.9406591057777405
-1.2863413095474243 0.47468963265419006 0.7422366142272949
0.4690210819244385 -0.16342522203922272 -0.8074959516525269
0.9076075553894043 0.062496334314346313 -0.5202551484107971
-0.527387797832489 0.20754870772361755 -0.8456161618232727
0.4586881995201111 0.3641120195388794 0.13718831539154053
1.0989925861358643 -0.31248998641967773 1.0281403064727783
-1.3006536960601807 -0.1219707578420639 0.4507170617580414
0.22617602348327637 -0.0517510324716568 -0.46959197521209717
0.3265094757080078 0.21926113963127136 0.3687053322792053
-1.818839430809021 -0.26125890016555786 -0.7427471280097961
0.8207047581672668 -0.19026006758213043 -0.36360466480255127
2.140716075897217 -0.3165174126625061 0.713352620601654
0.9806460738182068 0.6157711148262024 -1.1020543575286865
0.7791314125061035 0.22552146017551422 0.2569945752620697
-1.0500295162200928 0.3748944103717804 0.7203570008277893
-0.5019782185554504 0.2030327022075653 0.022888801991939545
-0.18728479743003845 0.3790048360824585 0.262178510427475
-0.7470265626907349 -0.2957059144973755 -0.6582368612289429
-0.7416073679924011 0.5647773742675781 -0.022359579801559448
1.6151126623153687 0.5171245336532593 -0.42281755805015564
-2.0102477073669434 0.09013598412275314 1.0507231950759888
-0.20640307664871216 0.6285536289215088 -0.3272683620452881
-2.0471558570861816 -0.2872030735015869 0.2283572107553482
-0.6377179026603699 -0.2905758023262024 0.5442407727241516
0.7969528436660767 0.07801491022109985 0.07842158526182175
-0.301400363445282 0.4655991196632385 -0.6543686389923096
1.0540051460266113 0.5850964188575745 -0.22677969932556152
1.7244267463684082 -0.291561484336853 1.0980409383773804
0.0509687140583992 -0.32154881954193115 0.499267578125
2.439318895339966 0.2145863026380539 0.5757999420166016
-0.9801161885261536 -0.08898618817329407 -0.12283258885145187
0.6205472946166992 -0.044919997453689575 0.36559009552001953
0.11379200965166092 0.0921734869480133 -0.2280944138765335
0.40395474433898926 -0.3090778589248657 -0.5347350835800171
-1.0456466674804688 0.26669761538505554 -0.20103301107883453
0.9493461847305298 0.017329081892967224 0.1633295863866806
-1.566180944442749 0.5454613566398621 0.0935126319527626
1.8756037950515747 0.16792859137058258 0.021993163973093033
-0.3927193582057953 -0.3250201344490051 0.3061997890472412
2.4866511821746826 0.25802215933799744 0.10357164591550827
-1.671603798866272 0.17724642157554626 0.29375386238098145
0.7283288836479187 -0.19873161613941193 0.6811888813972473
1.9720191955566406 0.24020294845104218 0.005020025186240673
0.844535768032074 0.24884940683841705 0.4357125759124756
1.9077787399291992 0.4557702839374542 0.3310520350933075
-2.083914041519165 -0.29135552048683167 -0.48221689462661743
0.7357949018478394 -0.3128091096878052 -0.11142909526824951
-0.741628885269165 0.27738362550735474 -0.02841125801205635
-0.40622764825820923 0.03955768048763275 -0.44655442237854004
0.8452600240707397 -0.06119723618030548 0.1902795433998108
1.0740199089050293 0.1380511224269867 0.2304656058549881
1.2431702613830566 -0.051680296659469604 0.04447057470679283
-0.22846031188964844 -0.36265718936920166 -0.03947065770626068
-1.489680290222168 0.4448873996734619 -0.19091102480888367
-1.4791723489761353 -0.12083986401557922 0.29076120257377625
-0.41358229517936707 0.43895742297172546 -0.6532973647117615
-0.8378499150276184 -0.09380963444709778 0.10022378712892532
-1.2224944829940796 -0.3054742217063904 -0.0013078231131657958
-0.6756022572517395 0.21323277056217194 -0.8447625637054443
0.8243208527565002 0.0721585601568222 -0.23541778326034546
0.04724797606468201 0.4774230122566223 0.5008743405342102
-1.4006685018539429 0.15004713833332062 0.09740054607391357
-0.4654385447502136 0.4457989037036896 0.6254116892814636
0.6974315643310547 0.049807339906692505 0.6164231896400452
-1.5040446519851685 0.030293792486190796 0.7325912117958069
-0.10914044827222824 -0.32248228788375854 -0.14977771043777466
0.5173864364624023 -0.0553562194108963 -0.1276535540819168
-1.382957935333252 0.5122874975204468 0.24656961858272552
1.3303592205047607 0.25332802534103394 0.2788943648338318
1.276241421699524 0.34567075967788696 0.034026239067316055
0.6685579419136047 0.3779919147491455 0.5630759000778198
-1.5700576305389404 0.5562320351600647 -0.5182052254676819
0.3496633470058441 -0.2959732413291931 -0.518329381942749
1.6198536157608032 -0.2746008634567261 -0.573699951171875
0.6263169050216675 -0.3890359401702881 -0.7338433861732483
0.16399790346622467 0.465664803981781 -0.3610941469669342
0.13703656196594238 0.04087938368320465 0.49070844054222107
-0.2872442901134491 -0.04101555049419403 -0.2663663625717163
1.313971757888794 0.4909290373325348 -0.5517191290855408
-1.7750471830368042 0.23058582842350006 -0.10963169485330582
-0.9655011296272278 0.21794843673706055 0.9878784418106079
0.03469346836209297 0.6203740239143372 -0.4353271424770355
0.734999418258667 0.126358300447464 0.092475526034832
-1.681823968887329 -0.27027857303619385 -0.7184792757034302
1.8537062406539917 0.39905208349227905 0.19370825588703156
-1.742047905921936 0.584156334400177 -0.5813365578651428
0.6019954085350037 0.056432366371154785 0.6715864539146423
-0.04480968788266182 0.13534708321094513 0.01843576319515705
0.9056573510169983 0.10442861914634705 -0.11104831099510193
-0.1983388066291809 0.3906233608722687 0.8262078762054443
1.4132992029190063 0.4332304000854492 0.03767606243491173
0.6166917085647583 0.10238887369632721 -0.066621333360672
1.2949912548065186 -0.140034019947052 -0.03337954729795456
-0.28464820981025696 0.07338917255401611 0.6974417567253113
-1.1742578744888306 -0.04621568322181702 0.17483459413051605
-0.8453718423843384 0.10794205963611603 -0.009994031861424446
0.7027592062950134 -0.30092763900756836 0.3073000907897949
0.2949318289756775 -0.30698853731155396 -0.5827087163925171
-0.40863293409347534 0.6195296049118042 0.018158527091145515
0.5338653326034546 0.3530126214027405 -0.06015928089618683
-1.488235592842102 -0.33320969343185425 -0.23927545547485352
1.133997917175293 -0.13659971952438354 0.6530233025550842
-1.599204421043396 0.3483946621417999 0.3660629987716675
0.9838485717773438 -0.075787752866745 0.7743719816207886
-0.7481468915939331 -0.09015701711177826 0.34209388494491577
-0.8683586716651917 -0.022294238209724426 -0.6189323663711548
0.6836203336715698 0.31240755319595337 -0.4397204518318176
3.018521308898926 -0.008801162242889404 -0.28982681035995483
-1.09683096408844 0.004045993089675903 0.20344306528568268
0.06355050951242447 0.4775336682796478 0.8356693983078003
-1.2283843755722046 -0.3181760013103485 -0.2415088564157486
-0.9834608435630798 -0.12442311644554138 0.5569192171096802
0.2835882008075714 0.12650622427463531 0.27220845222473145
1.7415322065353394 -0.16793371737003326 0.5563086867332458
1.4586045742034912 0.36145251989364624 0.10949435830116272
-1.0814464092254639 -0.29849666357040405 0.9852681756019592
0.5167866349220276 0.5770950317382812 0.12702952325344086
-1.1353228092193604 0.4454631507396698 0.8505799770355225
-1.0818555355072021 -0.34197694063186646 0.6395843625068665
-0.39795181155204773 0.11944614350795746 0.8418870568275452
0.4381266236305237 0.02174416184425354 0.6459604501724243
0.6695036888122559 0.44576019048690796 -0.06657547503709793
0.8227929472923279 0.10411755740642548 0.89356529712677
-0.14417363703250885 0.08410094678401947 0.8569067120552063
-1.8046303987503052 -0.11423139274120331 -0.17024913430213928
-0.8987829089164734 -0.33854764699935913 0.6705847382545471
1.8510661125183105 0.5219346880912781 0.17959266901016235
2.8782284259796143 0.1738324761390686 0.2569531798362732
-2.1975455284118652 0.4718685746192932 0.45132049918174744
1.853677749633789 0.3064298629760742 -0.4278316795825958
-0.6984350085258484 0.4729475677013397 0.488750696182251
0.5136156678199768 -0.36162805557250977 -0.25206032395362854
-0.37015828490257263 -0.040201738476753235 -0.035105880349874496
0.8016102910041809 0.24296052753925323 -0.15432195365428925
-1.5993499755859375 -0.06954248249530792 -0.6606789827346802
-2.499706268310547 -0.27116429805755615 0.06613276153802872
0.6114583611488342 0.06838323175907135 -0.7673853039741516
2.415968656539917 -0.2594248652458191 -0.3458581566810608
0.42956459522247314 -0.3065817952156067 -0.4074723422527313
-1.156559944152832 -0.2817055284976959 0.5129072666168213
-1.9821852445602417 -0.29242202639579773 0.3160480856895447
1.5393071174621582 0.47897544503211975 0.09292304515838623
-0.4759502410888672 0.4184166193008423 0.05627025291323662
-0.8615217804908752 -0.018229499459266663 0.011066460981965065
0.296885222196579 -0.3114849925041199 -0.029483988881111145
-1.943060040473938 0.48274803161621094 -0.6553963422775269
-1.839781641960144 -0.016272470355033875 0.020130127668380737
1.2390950918197632 0.05089716613292694 1.4519063234329224
0.869702935218811 0.09277501702308655 -0.5543952584266663
-0.9988428354263306 -0.31442925333976746 -0.3488375246524811
-1.4783023595809937 -0.11840826272964478 0.33649301528930664
1.1107604503631592 0.5893250703811646 -0.006305354181677103
-0.8876774907112122 0.5877602696418762 0.36047589778900146
-1.1491594314575195 -0.32264798879623413 0.6554731726646423
0.6564226746559143 0.44178444147109985 0.23995567858219147
-0.8502734303474426 -0.26829081773757935 -1.0256069898605347
0.2999432384967804 0.3446023464202881 0.7023472785949707
0.8124172687530518 0.35658782720565796 -0.15108415484428406
-0.6555061936378479 -0.13577254116535187 -0.06849923729896545
-0.4924725294113159 -0.2456093281507492 0.4252519905567169
-0.8555824756622314 0.45730262994766235 0.3228917121887207
0.22888395190238953 -0.3140411078929901 0.5275211930274963
-2.296903610229492 0.022629201412200928 0.3944550156593323
-1.0800988674163818 0.13005977869033813 0.3916693925857544
-0.5832390785217285 0.41537198424339294 0.02943585067987442
0.9497668147087097 -0.26929014921188354 0.27031418681144714
-0.4542946219444275 0.10427446663379669 0.7274393439292908
0.9084010124206543 -0.3054347038269043 -0.7020050287246704
0.8761389851570129 0.15124882757663727 0.06853236258029938
-1.2060471773147583 -0.0733298659324646 -0.3698663115501404
0.028706539422273636 0.48076799511909485 -0.8042287230491638
-0.4093654155731201 0.1816638559103012 -0.44317764043807983
-1.270463228225708 0.49832966923713684 0.13701769709587097
0.6760683059692383 0.17528453469276428 0.8275225162506104
2.1412954330444336 -0.08070589601993561 -0.12682464718818665
-1.4141517877578735 -0.282293438911438 -0.5316495895385742
-1.9723657369613647 0.5093458294868469 -0.22806623578071594
-1.389595627784729 -0.031531840562820435 -0.7778311371803284
0.6542209982872009 0.5934505462646484 -0.16228416562080383
2.3107380867004395 0.3851192891597748 0.4300383925437927
-2.513333797454834 -0.199557363986969 -0.919221818447113
-2.8198165893554688 0.16507238149642944 -0.8562954664230347
-1.471692681312561 0.36294764280319214 -0.2277657687664032
-1.9705275297164917 -0.2997507154941559 -0.4355775713920593
1.0363339185714722 -0.3356613516807556 0.3962039053440094
-0.3361552357673645 0.09106999635696411 0.07541795819997787
-1.0570251941680908 0.22109255194664001 -0.16845273971557617
1.5797721147537231 -0.2713589072227478 0.32907605171203613
1.242074728012085 0.029944881796836853 0.6145609617233276
1.4330945014953613 -0.36189591884613037 -0.23552323877811432
-0.02779698371887207 -0.2624747157096863 0.8566243648529053
0.8595214486122131 0.17912615835666656 0.021319497376680374
-2.2650418281555176 -0.30049437284469604 0.2815932631492615
-0.6120241284370422 0.09885771572589874 0.856839120388031
-1.0661274194717407 -0.040355294942855835 0.012200622819364071
0.17064416408538818 0.1475600302219391 0.7514118552207947
-0.27998071908950806 -0.039077043533325195 0.3312849998474121
-0.8929968476295471 -0.3141319453716278 -0.14272063970565796
0.5474811792373657 0.4775441884994507 -0.13392700254917145
0.2599371671676636 -0.12760767340660095 -0.5117444396018982
-0.10839603841304779 -0.005779951810836792 0.41847673058509827
0.31560155749320984 -0.32570189237594604 -0.38413962721824646
-0.1198902353644371 -0.1257815659046173 0.4278990924358368
1.3058098554611206 -0.14876523613929749 0.7135964035987854
1.8624674081802368 -0.12228517234325409 0.7112240195274353
0.6571926474571228 0.027292057871818542 -0.5168293714523315
2.958030939102173 0.16176170110702515 -0.4029477834701538
1.7227102518081665 -0.23990383744239807 -0.8932101130485535
0.8310917615890503 0.2940467596054077 -0.8460299372673035
0.17706401646137238 0.49754852056503296 -0.6388914585113525
0.3160223364830017 -0.332222044467926 -0.36050671339035034
2.178626298904419 -0.24432457983493805 0.6583660244941711
0.9279671311378479 -0.08967657387256622 0.20623275637626648
1.6283529996871948 0.41286081075668335 -0.25389036536216736
2.0685365200042725 -0.16404402256011963 -0.1652088314294815
0.758521556854248 -0.11532464623451233 0.13713917136192322
0.2843358814716339 -0.25972604751586914 -0.47420060634613037
-0.41242897510528564 -0.2979114353656769 0.5494885444641113
-0.3040214776992798 0.08546574413776398 -0.07767252624034882
2.1169614791870117 -0.1425609290599823 -0.08730636537075043
0.613444447517395 -0.27766042947769165 0.22923268377780914
-0.7911555171012878 0.5224279165267944 -0.6642021536827087
2.440483331680298 -0.0006028562784194946 -0.1810414046049118
-0.7034895420074463 0.6171781420707703 0.33444321155548096
-2.0114433765411377 -0.2860219180583954 0.6197894811630249
2.5162885189056396 -0.2871195673942566 0.3645275831222534
-0.5760276913642883 -0.2691458761692047 0.6499461531639099
-0.10524923354387283 0.4440843462944031 0.4782879650592804
-0.5782637000083923 0.47788211703300476 0.5778706073760986
1.8372982740402222 0.3113105595111847 -0.39360055327415466
-1.9700090885162354 -0.1738997995853424 0.5399941802024841
-0.2143716812133789 0.26590630412101746 -0.3846570551395416
2.466770648956299 -0.06122972071170807 -1.194624662399292
-0.7110840082168579 0.39821839332580566 0.14236830174922943
-0.06579510867595673 0.27943041920661926 -0.7479836940765381
0.9274052381515503 -0.3202552795410156 -0.8043705821037292
-0.9627017974853516 0.2763986587524414 0.6227309107780457
-0.3335554897785187 0.3927374482154846 -0.22899167239665985
0.5345973372459412 0.10762237012386322 -0.8411282300949097
1.3216407299041748 0.34484291076660156 -0.15350084006786346
1.854607343673706 0.20551379024982452 0.06492643803358078
-0.9231196045875549 0.0032417774200439453 -0.6374099850654602
-0.2598892152309418 -0.32058942317962646 -0.12766574323177338
0.9633331894874573 -0.3506771922111511 -0.25846752524375916
1.6563200950622559 -0.17466296255588531 0.5462719798088074
-1.821022868156433 -0.06032465398311615 -0.3282161355018616
3.2396583557128906 0.06467762589454651 -0.19522321224212646
1.2979276180267334 -0.3236694931983948 -0.20503762364387512
1.6477457284927368 0.23936551809310913 0.2363119274377823
-0.6301053762435913 -0.11776939034461975 0.6989983320236206
0.8817789554595947 0.4741179943084717 -0.002078151097521186
0.7296662330627441 -0.15405933558940887 -0.5438976287841797
0.2116052657365799 0.22177845239639282 -0.7284099459648132
0.5654042363166809 0.5871532559394836 -0.08407353609800339
-0.7749031782150269 -0.3205835223197937 0.0935271605849266
-0.01566164568066597 0.19873541593551636 -0.5068686008453369
-0.009478293359279633 -0.10222591459751129 -0.24695278704166412
0.4709707498550415 0.24581769108772278 -0.4831046164035797
1.302899956703186 0.4537295997142792 -0.06293279677629471
-0.7016436457633972 0.3165973722934723 -0.7815625667572021
1.8209733963012695 0.1802193820476532 -0.16591833531856537
-1.2828394174575806 -0.11938036978244781 -0.018826493993401527
-1.2709366083145142 0.5582188963890076 -0.7742750644683838
0.5278128385543823 0.5517603158950806 0.31553328037261963
-0.9314550161361694 0.387834370136261 0.6220374703407288
1.737504005432129 0.22618873417377472 0.33742281794548035
-2.006647825241089 -0.060788124799728394 0.4708178639411926
-1.1485130786895752 -0.3144313395023346 0.10591863095760345
1.9939252138137817 0.3795352280139923 0.22950153052806854
1.1985002756118774 -0.000640183687210083 0.407686710357666
-0.6946375370025635 0.4208882749080658 0.8550024032592773
-1.118270754814148 -0.3153895437717438 0.6850602030754089
0.15972107648849487 0.06589995324611664 -0.3065491020679474
0.12379404157400131 -0.10208171606063843 -0.09028592705726624
-1.3271533250808716 -0.3313944935798645 0.5960983633995056
-0.5357244610786438 -0.31813710927963257 -0.35494500398635864
-1.9478518962860107 0.3182905912399292 -0.3258303999900818
-1.147418737411499 0.0243881493806839 -0.4246342182159424
0.8597240447998047 -0.039829328656196594 0.09402863681316376
2.084169864654541 0.13664045929908752 -0.7677740454673767
1.130096435546875 0.3069039285182953 0.9412583112716675
0.9537655115127563 0.00729292631149292 -0.31219470500946045
-1.9949467182159424 -0.33832013607025146 -0.16248613595962524
-0.8811843991279602 -0.3417634963989258 0.8606759905815125
1.7263203859329224 -0.3068826198577881 0.047937553375959396
-0.8990135788917542 -0.306806743144989 0.634594202041626
0.3367358446121216 0.35238945484161377 -0.03866340592503548
1.07724130153656 -0.2910752296447754 0.19007213413715363
1.0530080795288086 -0.32646745443344116 0.5242435336112976
0.9768014550209045 -0.3183286786079407 -0.26331132650375366
-0.7393820881843567 -0.2806060016155243 -0.8218480348587036
-1.686158299446106 -0.020633935928344727 0.7419081926345825
0.08965533971786499 -0.3485199213027954 -0.2396029531955719
-1.1782852411270142 0.14944370090961456 -0.6452346444129944
-1.6649073362350464 0.08440899848937988 -0.34283894300460815
2.1004137992858887 0.2548062205314636 -0.8624181747436523
1.0648493766784668 0.11394400894641876 0.3945363759994507
-0.4885145425796509 0.3398054540157318 -0.8446238040924072
-2.0138282775878906 0.1667412519454956 0.7365796566009521
-0.35806840658187866 -0.14905445277690887 0.053366344422101974
1.639788031578064 0.10701793432235718 -0.25659868121147156
0.7517333626747131 -0.016726836562156677 -0.43089208006858826
1.136581301689148 0.5848970413208008 0.47529441118240356
-0.9424307346343994 -0.07255794107913971 0.993675708770752
-2.2182507514953613 -0.06114153563976288 0.2346053570508957
1.5044955015182495 -0.3185599446296692 -0.18650208413600922
1.0448271036148071 -0.30691444873809814 0.13285255432128906
-0.2416323721408844 -0.10016071796417236 -0.14054076373577118
-2.2276551723480225 0.4423752427101135 0.29629644751548767
0.5629962682723999 0.2183438241481781 -0.09233575314283371
-1.9835399389266968 0.21410372853279114 -0.3626285493373871
-1.0407226085662842 0.0991845428943634 -0.7614691853523254
2.2023890018463135 -0.2838951349258423 -0.5472633242607117
-2.2192347049713135 -0.14680838584899902 -0.044892869889736176
0.3171009421348572 0.19844552874565125 0.3585193157196045
0.1049489751458168 0.05548667907714844 -0.32936644554138184
0.6914879083633423 -0.30467551946640015 -0.09755665808916092
-1.3187472820281982 0.497004896402359 -0.16204005479812622
-0.8228737115859985 -0.26884204149246216 -0.5548941493034363
0.16166697442531586 -0.01249760389328003 -0.1071954295039177
-0.3415186405181885 0.09173999726772308 0.17925015091896057
-0.8389402627944946 0.27509573101997375 0.9482594728469849
-0.392227441072464 0.024998202919960022 0.1858808696269989
-0.23181290924549103 0.6249967217445374 0.02154351770877838
0.9253016114234924 0.3591996431350708 -0.6530867218971252
-0.8877365589141846 0.0943545401096344 1.0977946519851685
-1.3097892999649048 0.5461446046829224 -0.2103971689939499
1.2736860513687134 0.42709052562713623 0.5780546069145203
1.0388489961624146 -0.18195563554763794 -0.31709641218185425
1.2990719079971313 0.397926926612854 0.5776723027229309
1.7515788078308105 0.4080425500869751 -0.34942784905433655
0.8079499006271362 0.4220848083496094 -0.33671724796295166
1.506949782371521 -0.17492271959781647 -0.32277727127075195
1.1972402334213257 -0.3214702606201172 0.1283612698316574
1.8540295362472534 0.3276805877685547 0.7516757845878601
1.3677552938461304 -0.018854796886444092 -0.8330707550048828
-1.0041356086730957 -0.05940893292427063 -0.1180325523018837
-1.484248399734497 -0.22901691496372223 0.9013630151748657
2.499875068664551 0.44223466515541077 -0.14566895365715027
2.3743369579315186 -0.2984393239021301 -0.9962031841278076
0.5114140510559082 0.455169677734375 0.16908355057239532
0.35071659088134766 0.47325199842453003 -0.3459881544113159
1.6986384391784668 -0.29184889793395996 -0.41620543599128723
0.4837910234928131 -0.24735058844089508 0.07904592156410217
2.3854260444641113 0.20032328367233276 0.32516834139823914
1.223740816116333 -0.3225894570350647 0.25011852383613586
-1.7475506067276 0.10740473866462708 0.7079305648803711
2.680756092071533 -0.06358878314495087 -0.37085792422294617
-1.4050129652023315 0.5221247673034668 0.389940470457077
-0.8198198080062866 0.46773502230644226 0.016952576115727425
-0.38395175337791443 0.31006020307540894 -0.8526138067245483
-2.6060547828674316 0.024569332599639893 0.14807158708572388
0.12566101551055908 -0.32442235946655273 0.08778693526983261
1.3852177858352661 0.2923216223716736 0.13766472041606903
-1.1044913530349731 0.5668210983276367 0.4283813238143921
0.8079800605773926 -0.3377573788166046 -0.4337877929210663
-1.5258246660232544 -0.2984914779663086 0.7317399978637695
-0.30618688464164734 -0.19518256187438965 -0.688360869884491
0.6488046050071716 0.08799441158771515 -0.31364905834198
-0.33066433668136597 -0.24813620746135712 -0.5034750699996948
0.6433098912239075 0.4029026925563812 -0.2832324206829071
0.5296722650527954 -0.33013463020324707 0.23856306076049805
1.9540669918060303 -0.2737089991569519 0.3170033097267151
-1.4546780586242676 0.5518925189971924 -0.3305824100971222
1.3793528079986572 0.07833993434906006 -0.8849532604217529
-0.9470162391662598 0.2751345634460449 -0.27897199988365173
-0.46506035327911377 -0.2907315194606781 0.05083693936467171
1.5564587116241455 0.3098587393760681 -0.8305414915084839
0.4099975824356079 -0.32113444805145264 0.5954777002334595
-1.8807495832443237 0.527076005935669 -0.28024187684059143
-0.9187074899673462 -0.30991846323013306 -0.03349820151925087
0.39588266611099243 -0.34504908323287964 0.4331471025943756
0.7044975161552429 0.5766286849975586 0.32151398062705994
-0.07873287796974182 0.5517120361328125 0.5770480036735535
-1.6287709474563599 -0.09375427663326263 0.7095804810523987
-1.46769380569458 -0.0784887969493866 0.0006071355892345309
0.9995595812797546 -0.2244499772787094 0.9204357266426086
0.07371468842029572 -0.3263004720211029 0.563398003578186
1.0551745891571045 0.04930141568183899 -0.24067838490009308
0.9547985792160034 0.15507963299751282 0.6906101107597351
1.1885185241699219 0.505805253982544 0.194890096783638
1.3888307809829712 -0.3181779384613037 -0.10370153188705444
1.0941654443740845 -0.05775390565395355 0.7499873042106628
-0.7791781425476074 0.22231313586235046 0.3284902274608612
-0.771578311920166 -0.15985409915447235 0.16516277194023132
0.6000297665596008 -0.3201352655887604 0.5278638005256653
1.6831321716308594 0.42214012145996094 -0.4758128821849823
1.7510854005813599 -0.3252529501914978 0.3447493016719818
2.32871675491333 0.03879682719707489 -0.23470480740070343
-1.3706128597259521 -0.1482134759426117 0.8738257884979248
-0.1278078407049179 0.37620070576667786 0.6347582936286926
0.6736480593681335 -0.10415303707122803 0.7952399253845215
-1.2329462766647339 -0.13665196299552917 -0.0422205775976181
-1.3527394533157349 0.010238543152809143 -0.25482624769210815
-0.39980316162109375 0.6126736998558044 -0.04335929453372955
-1.1931753158569336 0.13451823592185974 -0.295424222946167
0.909477949142456 0.4129779040813446 -0.453281968832016
-1.6519479751586914 0.23257729411125183 0.29069018363952637
1.9297490119934082 0.35780656337738037 -0.17491956055164337
1.3749432563781738 0.040242478251457214 -0.09716145694255829
0.3116801679134369 0.1670825481414795 -0.7177731990814209
-0.7620055675506592 0.28585323691368103 -0.5989974141120911
-0.6352486610412598 0.4648791551589966 0.3618885576725006
0.8657345771789551 -0.3676595091819763 0.26582592725753784
-2.2832345962524414 0.2255282700061798 -0.49893808364868164
-1.4970409870147705 0.31624072790145874 0.22554120421409607
-2.7418692111968994 0.1748214066028595 -0.0833626240491867
-0.7121356129646301 0.016387775540351868 0.5314370393753052
-1.150292158126831 0.05490197241306305 -0.596040666103363
1.1220507621765137 -0.32078027725219727 0.24794520437717438
2.697951316833496 -0.19960254430770874 0.10612990707159042
-0.3233385384082794 -0.14716629683971405 -0.12800970673561096
-2.0728342533111572 0.4006946384906769 0.036125656217336655
-0.5366270542144775 -0.07673384249210358 -0.09086425602436066
-1.3766703605651855 0.11597377061843872 0.9369815587997437
0.6121955513954163 -0.33144840598106384 0.5407584309577942
-0.23718425631523132 -0.09706053137779236 0.14317487180233002
-1.5757179260253906 -0.3177952766418457 0.6593022346496582
-0.03533201292157173 0.5232992768287659 0.5086097717285156
-1.9095677137374878 -0.3069949448108673 0.6370535492897034
0.3691694736480713 0.395050972700119 -0.43624401092529297
0.1583210676908493 -0.15118758380413055 0.768103301525116
1.8466622829437256 0.24834784865379333 -0.041122570633888245
0.12590020895004272 0.0755939930677414 0.7592400312423706
1.861964225769043 -0.20346525311470032 -0.08415787667036057
-0.1846187263727188 0.1835637390613556 -0.33517202734947205
-1.4384211301803589 0.2884799838066101 -0.2003939151763916
-0.7879565954208374 -0.4188435673713684 0.5023025870323181
-1.2949079275131226 0.2702685594558716 -0.7029808163642883
-0.46392375230789185 -0.31190308928489685 -0.26340237259864807
-0.22270351648330688 0.05010741949081421 0.0166615080088377
2.4575836658477783 -0.060642823576927185 0.3167836368083954
1.4563301801681519 0.3544148802757263 0.8146304488182068
0.863056480884552 0.4754464626312256 -0.17991453409194946
-0.9004916548728943 -0.3916670083999634 -0.33730393648147583
-1.6789497137069702 -0.1004008948802948 0.429097980260849
-0.8517168760299683 0.06271974742412567 0.34899258613586426
-0.38837897777557373 0.6245520114898682 -0.19424830377101898
1.543267846107483 -0.30131348967552185 -0.027549289166927338
0.7617895603179932 -0.1926555633544922 0.02615484967827797
-1.4992183446884155 0.04239833354949951 0.10317665338516235
0.01505323126912117 0.5795441269874573 0.211110457777977
-0.8009746670722961 0.2278485894203186 -0.040679931640625
0.040898799896240234 0.15865670144557953 -0.07796559482812881
0.4576209783554077 0.22619867324829102 0.3335774540901184
0.999354362487793 0.06959797441959381 -0.5839512944221497
0.08562120050191879 0.020765408873558044 0.018224993720650673
1.0705629587173462 -0.23528936505317688 -0.3971794843673706
-0.8559741973876953 0.2726794481277466 -0.11312282830476761
1.3673192262649536 -0.18759861588478088 -0.0773254930973053
0.8099995851516724 0.4454692006111145 0.24664515256881714
0.6686578989028931 -0.3158629536628723 0.10140927881002426
0.9356037378311157 0.21908780932426453 -0.6860338449478149
0.6209551692008972 -0.3427737355232239 0.25182369351387024
-0.48870688676834106 0.45950350165367126 0.6950089335441589
-1.2800650596618652 -0.12516050040721893 0.610528826713562
1.2784265279769897 -0.2689802944660187 -0.1975492238998413
1.4834991693496704 0.29046618938446045 0.5762814283370972
0.4754177927970886 0.12297475337982178 -0.8625549077987671
-0.7159577012062073 -0.08369143307209015 -0.04001479968428612
2.1577374935150146 -0.3004075586795807 0.5202816724777222
0.12381057441234589 -0.327376127243042 0.08141815662384033
0.5907807946205139 -0.33186987042427063 0.25295042991638184
-0.7109329104423523 -0.3011412024497986 -0.38469198346138
-0.3012377619743347 0.3091786205768585 0.12721329927444458
2.041978597640991 0.2716035842895508 0.8283883333206177
-1.7640955448150635 -0.07146039605140686 0.44187048077583313
1.1156967878341675 0.3852844834327698 -0.4058375060558319
-0.8513185977935791 0.35847675800323486 -0.5954089164733887
-0.05410310626029968 -0.1163223534822464 0.34913572669029236
-1.0026768445968628 -0.32161852717399597 0.35104307532310486
0.14334344863891602 -0.1296316236257553 -0.020405227318406105
-0.3424719572067261 -0.32809096574783325 -0.41793161630630493
0.44199690222740173 -0.27947959303855896 -0.2850917875766754
-0.37585556507110596 -0.014634847640991211 -0.28445836901664734
1.094048261642456 -0.32250744104385376 0.006737636402249336
-2.0424742698669434 0.2550389766693115 0.2763504683971405
-0.7192060947418213 0.2132694572210312 0.8105366826057434
-0.9998589754104614 0.391317218542099 0.10466460883617401
-0.8239197731018066 -0.04510498046875 -0.7067700028419495
-0.06259562075138092 -0.1042797714471817 0.4104435443878174
1.034894347190857 -0.31181374192237854 0.09389004856348038
-0.09674181044101715 0.3630262017250061 0.5565248727798462
-1.2895801067352295 0.4368765354156494 -0.5967247486114502
-0.6998937726020813 -0.22478803992271423 -0.7473389506340027
-1.8682438135147095 0.3043850064277649 0.7278999090194702
-1.77987539768219 -0.29815325140953064 -0.19483023881912231
0.44077494740486145 -0.19016195833683014 0.17668062448501587
1.2291799783706665 0.4978288412094116 0.3999728560447693
0.46368783712387085 0.49781617522239685 0.6020457744598389
-0.6436252593994141 -0.3029801845550537 -0.452738881111145
-1.0161577463150024 -0.30357587337493896 0.5680999755859375
-2.1537086963653564 0.6306395530700684 -0.3972265422344208
-0.5503955483436584 0.25239771604537964 -0.5942327380180359
0.4392935037612915 0.32900094985961914 -0.721299946308136
-0.41084152460098267 0.4062615931034088 0.36734825372695923
2.4618918895721436 0.3043909966945648 -0.16533640027046204
-1.684147834777832 -0.08151465654373169 -0.07748951017856598
1.204255223274231 0.44638222455978394 0.5575859546661377
-0.19962750375270844 0.2872473895549774 -0.05996863543987274
-1.1600134372711182 0.546406090259552 -0.2565867602825165
-0.852461576461792 0.32273241877555847 0.25479361414909363
0.06078270822763443 -0.06412121653556824 0.811453104019165
0.19867275655269623 0.17700493335723877 -0.839951753616333
-1.8657320737838745 0.49224376678466797 0.49870505928993225
0.5012766718864441 -0.00881919264793396 0.694345235824585
0.3091251254081726 0.29882848262786865 -0.9535026550292969
1.958330750465393 0.4134475886821747 0.21256613731384277
-0.29350778460502625 0.0033459067344665527 0.8712764978408813
2.5435948371887207 -0.024511098861694336 0.01507997140288353
1.098776936531067 -0.30541837215423584 -0.10515336692333221
-1.5205769538879395 0.5238008499145508 -0.7801436185836792
0.7469421625137329 0.5786184072494507 0.12673257291316986
-1.4360673427581787 -0.1088138073682785 -0.12005965411663055
1.8383394479751587 0.47881627082824707 0.18095850944519043
2.1737492084503174 -0.027783751487731934 -0.4607304036617279
-1.236703872680664 0.3563051223754883 0.7448097467422485
0.49901920557022095 -0.08560308814048767 0.7190503478050232
0.27156227827072144 -0.300399512052536 0.3703903555870056
0.3230247497558594 0.020628899335861206 -0.017045926302671432
0.4232509434223175 -0.036493316292762756 0.3825119137763977
-0.5435182452201843 -0.050883591175079346 0.06976256519556046
0.9244059920310974 -0.1629692167043686 -0.012832853011786938
-0.3976076543331146 -0.16302873194217682 -0.6605592370033264
2.1971499919891357 -0.28012216091156006 0.6155222058296204
-0.5908913016319275 0.5798282623291016 0.056484270840883255
-0.5635272264480591 -0.06493070721626282 -0.14393123984336853
1.3310940265655518 -0.11727266013622284 -0.6725359559059143
-2.866720199584961 0.13795721530914307 0.5464915633201599
0.1560615748167038 0.4403030574321747 0.3346193730831146
2.520073175430298 0.2172156423330307 0.4212549924850464
-3.1125690937042236 0.17146499454975128 0.5134739279747009
2.2405827045440674 0.43532317876815796 -0.4550095498561859
-0.24417056143283844 0.3994331955909729 0.49496281147003174
0.19989605247974396 -0.3426089286804199 -0.14316816627979279
-0.20673507452011108 0.034030795097351074 -0.30796366930007935
-0.4703524708747864 -0.3575260639190674 -0.19555352628231049
-2.4199280738830566 0.35768961906433105 0.09660427272319794
2.241255044937134 -0.09810267388820648 0.733047604560852
-0.6160221695899963 0.4509761929512024 -0.39425399899482727
-0.6246663928031921 -0.3046286106109619 -0.5298551321029663
-0.457376629114151 0.029548153281211853 0.04343118518590927
-0.15215498208999634 0.36770308017730713 0.4077818989753723
0.32443925738334656 -0.15885765850543976 0.5637167096138
-0.9509229063987732 0.5520486831665039 -0.41626062989234924
0.19013193249702454 0.17569272220134735 -0.4875488877296448
-0.9191960692405701 -0.31444549560546875 0.7904210686683655
0.4194975793361664 0.5858004093170166 0.10252842307090759
-0.17939701676368713 -0.05683009326457977 -0.3570076823234558
0.4862836003303528 -0.022756367921829224 0.447354793548584
0.5461809039115906 0.5124016404151917 0.509680986404419
-1.1105847358703613 0.19476652145385742 0.6630646586418152
-0.9503093361854553 0.10279031097888947 0.9063678979873657
0.12049336731433868 -0.22425633668899536 0.8163365125656128
0.5236598253250122 0.0744030773639679 0.31199216842651367
1.9425954818725586 -0.04529471695423126 -0.40244588255882263
0.363926500082016 -0.07911337912082672 -0.4901184141635895
1.7495512962341309 -0.01234525442123413 0.7774114608764648
0.6738040447235107 0.5739940404891968 -0.25571390986442566
-1.5486069917678833 0.5209965109825134 -0.3481675982475281
0.5382212996482849 0.4903794229030609 -0.037763211876153946
0.3088172674179077 -0.022956207394599915 0.5914500951766968
1.430572271347046 0.19203615188598633 -0.14261971414089203
-1.363219141960144 0.1133011132478714 -0.1350950300693512
-1.1667288541793823 -0.037352949380874634 0.22342205047607422
1.922928810119629 -0.32132503390312195 -0.26519110798835754
-0.7148681879043579 -0.3182216286659241 0.4162810444831848
1.5680879354476929 -0.0035812556743621826 0.2519294321537018
0.09191767871379852 0.0555332750082016 -0.21882422268390656
-1.5529522895812988 0.2030636966228485 0.21142122149467468
0.21840426325798035 0.21281252801418304 0.130482479929924
-2.1979775428771973 -0.23433205485343933 -0.6859394907951355
-0.05869678407907486 0.11798684298992157 -0.3475836217403412
-1.84101402759552 0.14003659784793854 -0.14451633393764496
1.2161564826965332 0.4927542209625244 0.34369125962257385
0.7873671054840088 0.3734423816204071 -0.17377632856369019
-1.4920244216918945 -0.13707102835178375 0.30639806389808655
1.835571527481079 0.16182658076286316 0.8263055682182312
-0.822878360748291 -0.34885281324386597 0.14731056988239288
0.316939115524292 0.024368003010749817 0.27210626006126404
1.6020311117172241 0.26993894577026367 -0.41936126351356506
-0.4895249009132385 -0.1330043524503708 -0.08258816599845886
-1.0340434312820435 0.566389799118042 0.06762424856424332
-1.2395474910736084 0.13270024955272675 -0.766274631023407
-0.5439307689666748 0.5220947861671448 -0.5649961829185486
-1.847249150276184 0.07276250422000885 0.48623034358024597
-2.3268539905548096 0.6193075180053711 0.01576096937060356
-0.2768573760986328 0.2114596664905548 0.3962797224521637
-1.051430344581604 -0.31596511602401733 -0.32699379324913025
-0.06583141535520554 -0.07893519103527069 0.6151506304740906
-2.316408157348633 0.17051640152931213 -0.32995089888572693
-1.0876095294952393 -0.0962420105934143 -0.20384329557418823
0.32739368081092834 -0.13135451078414917 0.7826697826385498
1.174939513206482 0.13696075975894928 0.1494525820016861
-0.5591549277305603 -0.2878667414188385 -0.28746405243873596
0.29911863803863525 0.10593698918819427 0.5670971870422363
0.16068482398986816 -0.31933367252349854 0.3586015999317169
-0.44576677680015564 0.42169180512428284 0.37104177474975586
0.16170358657836914 0.3163709342479706 0.1856887936592102
-0.4812975525856018 0.019993603229522705 -0.05644109472632408
1.0042880773544312 0.10508719086647034 0.9680072665214539
0.1393500715494156 0.47907188534736633 0.8841807842254639
0.9004133343696594 0.27544909715652466 0.4871230125427246
1.031491994857788 -0.10089091956615448 -0.815727949142456
-0.13221991062164307 0.09935270249843597 0.42871803045272827
2.426896333694458 -0.11622053384780884 0.10056895762681961
0.5740255117416382 -0.31492096185684204 -0.22800315916538239
-0.19939714670181274 0.2236069142818451 -0.18189316987991333
0.21577394008636475 0.24471567571163177 -0.0887410044670105
-0.9153326749801636 -0.3448008894920349 -0.4090268015861511
-0.8128523230552673 -0.3304879069328308 -0.36975911259651184
0.6274003386497498 -0.3219364881515503 0.5441749095916748
-0.5083690285682678 -0.14703452587127686 0.5821834206581116
-1.0780118703842163 -0.31140756607055664 -0.4824178218841553
1.0762879848480225 0.33830416202545166 -0.1926146000623703
-0.7057285904884338 -0.3158460855484009 0.14846035838127136
1.8128528594970703 -0.25848180055618286 0.8207057118415833
-1.1939769983291626 0.5333747267723083 0.487994521856308
-0.7883700728416443 -0.3195914924144745 0.22779260575771332
-0.3654223680496216 0.3186337351799011 0.325810968875885
1.446333885192871 0.5641164183616638 -0.31813204288482666
-0.17520198225975037 -0.20694617927074432 0.3325895667076111
0.5997440814971924 0.3515656888484955 -0.4210633635520935
-0.4986550509929657 0.10402464866638184 -0.41934260725975037
0.7093740105628967 0.12520445883274078 0.5892086029052734
-1.1276346445083618 -0.2891213297843933 -0.6146617531776428
-2.1175496578216553 0.35538411140441895 0.09213083237409592
0.1308620572090149 0.456525981426239 0.31965601444244385
-0.12792657315731049 -0.0721157044172287 0.10275179147720337
0.7868613600730896 0.011101245880126953 -0.48632702231407166
-1.4373615980148315 -0.026887059211730957 0.06421351432800293
-1.5590938329696655 0.05718694627285004 0.23440460860729218
-1.396619439125061 -0.2825365662574768 0.6089428067207336
-0.003910236060619354 -0.31098270416259766 0.10557197779417038
1.639413833618164 0.42513537406921387 0.05272938683629036
0.20160582661628723 -0.016300588846206665 -0.08446503430604935
-1.6291402578353882 0.42100590467453003 -0.41966620087623596
-1.5442718267440796 0.14086051285266876 -0.23719152808189392
-1.4274215698242188 0.0820731371641159 0.3606990575790405
-0.13363143801689148 -0.3269217312335968 0.13403140008449554
-2.0413451194763184 0.2905571162700653 0.6178690195083618
-2.331033706665039 -0.26252448558807373 -0.23117366433143616
0.7631494998931885 0.20390398800373077 0.5670008063316345
-0.8472362160682678 0.6457734107971191 -0.20810069143772125
0.43268197774887085 -0.11223645508289337 -0.41216009855270386
-0.24921569228172302 -0.31262990832328796 0.7345317006111145
-0.2675463855266571 -0.31936877965927124 -0.0933653935790062
0.5486311912536621 -0.04891937971115112 0.23627068102359772
-2.120293378829956 0.06000998616218567 0.19442398846149445
-1.213617205619812 -0.29836225509643555 -0.7361420392990112
2.9211721420288086 -0.22315523028373718 0.6676235198974609
-1.4610213041305542 0.19120101630687714 0.6917767524719238
1.193151831626892 0.23165960609912872 0.540700376033783
-0.009143900126218796 -0.2860678434371948 -0.47119221091270447
-1.247755527496338 0.21420730650424957 0.716316282749176
2.0569119453430176 0.38308268785476685 0.10108837485313416
-0.49038219451904297 0.24618390202522278 -0.4970358610153198
0.5655325055122375 0.28798824548721313 0.8552157282829285
0.7126388549804688 -0.29231590032577515 -0.335391104221344
0.1852569580078125 -0.29631155729293823 -0.4349793791770935
-1.4833215475082397 -0.05222195386886597 0.5017978549003601
-1.417069673538208 0.3441077470779419 -0.03973575681447983
0.11121512949466705 0.16052016615867615 0.21195624768733978
0.6437287330627441 -0.17093123495578766 -0.11825647950172424
-0.02701202780008316 0.3452775478363037 0.2069360464811325
-0.1929139643907547 0.3183506429195404 0.8570839762687683
2.657723903656006 -0.1622830182313919 -1.143735647201538
-1.1711798906326294 0.26143476366996765 0.3692229092121124
-1.580062985420227 0.03709590435028076 -0.1309860646724701
1.4092111587524414 -0.1170131117105484 0.1290651261806488
1.258813500404358 0.09162633121013641 0.3653494715690613
-0.9589237570762634 0.5510463714599609 -0.6401657462120056
0.060354407876729965 -0.052232325077056885 0.1833377480506897
0.008416719734668732 -0.30074542760849 -0.38210463523864746
