ply
format ascii 1.0
element vertex 813
property float x
property float y
property float z
end_header
1.8413684368133545 -0.4501309394836426 -0.5436769127845764
-1.7814457416534424 1.0559992790222168 0.6340879201889038
2.3911352157592773 -0.5266607999801636 0.9289879202842712
-1.9429006576538086 -0.470534086227417 -0.5560092329978943
1.1079272031784058 0.08704172074794769 -0.9615806341171265
-0.19545701146125793 -0.325300931930542 0.5835203528404236
2.894547700881958 0.09680289775133133 0.3990717828273773
-2.2134244441986084 -0.0458209365606308 0.2833417057991028
2.4972333908081055 -0.33864378929138184 -0.30921831727027893
-2.6542210578918457 0.13954052329063416 0.7561075687408447
-2.599170446395874 0.9092910289764404 0.396272748708725
1.9615724086761475 -0.6297788619995117 0.7076579928398132
1.8351532220840454 0.3003425598144531 0.21138621866703033
2.331502914428711 0.38691285252571106 0.9310173988342285
1.1547963619232178 1.1732527017593384 0.16048163175582886
2.804499626159668 0.15561890602111816 -0.3860536217689514
2.0483481884002686 -0.22210517525672913 0.07543417811393738
1.3261455297470093 1.043168067932129 0.39732247591018677
3.1128296852111816 -0.0946846604347229 -0.6937708854675293
-1.1996971368789673 -0.10423386096954346 0.9436904788017273
2.7547383308410645 -0.06745664775371552 0.9372125267982483
1.6191253662109375 -0.29769185185432434 0.8423044085502625
2.1931557655334473 0.3676677942276001 0.14017239212989807
1.7236932516098022 0.20176658034324646 -0.6522186994552612
-0.48600608110427856 -0.17021198570728302 0.9461210370063782
0.15156793594360352 1.024364948272705 -0.7120205163955688
-0.9801250696182251 0.09325054287910461 -0.3295701742172241
-0.05408463627099991 -0.3246477246284485 0.17476877570152283
-1.4850860834121704 -0.24279353022575378 0.2815602421760559
2.2679665088653564 0.47495129704475403 -0.8520146608352661
1.9723554849624634 0.5956487655639648 -0.4109991788864136
-1.6037068367004395 -0.4986144006252289 0.5340516567230225
2.272012233734131 0.008344635367393494 0.33436283469200134
-1.8816276788711548 -0.012754619121551514 0.49378469586372375
-1.1367722749710083 -0.4371486008167267 -0.8905401229858398
0.9431207776069641 1.2484644651412964 0.47237253189086914
-1.5568487644195557 -0.46586349606513977 -0.8316775560379028
-1.4026758670806885 -0.7924875020980835 -0.6193979382514954
2.5055084228515625 -0.5180915594100952 0.9516969919204712
1.3258724212646484 0.530614972114563 0.983871340751648
1.8762621879577637 -0.15062583982944489 -0.9587562084197998
-1.2254489660263062 -0.23348583281040192 -0.0958886593580246
0.7647425532341003 0.7941638827323914 0.7947403788566589
0.9734511375427246 -0.37082639336586 0.8667000532150269
-2.266836643218994 0.2647498548030853 -0.6477552056312561
1.2286649942398071 -0.3840126097202301 0.2796725630760193
-1.9271403551101685 -0.31390416622161865 0.33569905161857605
2.197772264480591 -0.18682175874710083 0.10130367428064346
-1.2971583604812622 -0.6780081987380981 0.8001881241798401
2.9771125316619873 -0.3065870702266693 -0.826093316078186
2.169480800628662 -0.21729078888893127 -0.39261123538017273
2.133236885070801 0.5336533784866333 0.27824077010154724
0.030792556703090668 -0.34845757484436035 0.6812906861305237
-0.7996739745140076 0.1765214055776596 0.6226506233215332
-1.9241652488708496 0.13379833102226257 -0.4134397804737091
2.5103278160095215 0.05239449441432953 0.5496103763580322
-1.1489274501800537 -0.5879517197608948 -0.8077618479728699
-2.6410465240478516 0.3321238160133362 -0.5796083211898804
0.614599347114563 0.6042125225067139 0.8835024833679199
2.2909412384033203 -0.23295153677463531 -0.6925382614135742
-2.3197479248046875 -0.2341710329055786 0.8892561197280884
-2.3693289756774902 -0.2421509027481079 0.6295166611671448
-0.9111442565917969 0.11308018863201141 -0.6015222072601318
1.611246109008789 0.591813325881958 -0.3033379912376404
3.060795307159424 0.32052212953567505 0.41965463757514954
-1.943171501159668 -0.35555657744407654 -0.1888209879398346
1.6552770137786865 0.7774122357368469 -0.6211615204811096
2.3959226608276367 -0.5683409571647644 -0.9128668308258057
1.1058093309402466 1.1719176769256592 -0.5117779970169067
-2.194211721420288 0.15044339001178741 -0.5815021991729736
2.967221736907959 -0.18555065989494324 0.13251934945583344
-2.588813066482544 0.2559424340724945 -0.8146183490753174
-1.4731725454330444 0.9240057468414307 0.7139675617218018
2.576144218444824 -0.22615928947925568 0.6662620902061462
-1.189706563949585 0.9066881537437439 -0.7577653527259827
1.496516227722168 0.023709475994110107 0.9575872421264648
-1.8759180307388306 0.5224335193634033 -0.8742254972457886
-2.3496084213256836 1.0337499380111694 -0.6461755037307739
-2.6457972526550293 0.7268123626708984 -0.13665609061717987
1.195002555847168 -0.3459547758102417 -0.14281553030014038
1.496782660484314 -0.37451499700546265 -0.26109299063682556
-1.0022470951080322 -0.054821133613586426 0.13748730719089508
2.5841426849365234 -0.04532395303249359 -0.4781718850135803
-0.7224753499031067 -0.07088197767734528 -0.942676305770874
2.7007060050964355 0.24566534161567688 -0.4446638822555542
-1.2035934925079346 -0.5042542219161987 0.9468258023262024
3.1757092475891113 -0.1773383766412735 0.16073757410049438
2.763848066329956 0.41799694299697876 0.6544632911682129
1.504902958869934 0.6542053818702698 -0.8699322938919067
-1.6625070571899414 -0.24079348146915436 -0.39228323101997375
-0.493653267621994 0.8990406394004822 0.7753024101257324
-1.0444297790527344 -0.42697370052337646 -0.8637455701828003
3.1088204383850098 0.22670350968837738 0.3738049566745758
2.5152885913848877 0.06232985854148865 0.5721613764762878
1.601090908050537 0.47476261854171753 0.17272740602493286
2.908090353012085 -0.05971647799015045 -0.14764301478862762
2.245119571685791 0.3458479642868042 0.1656932532787323
1.9645265340805054 0.2616480588912964 0.35016703605651855
-0.4474303722381592 -0.38404878973960876 -0.7732318639755249
2.340491771697998 -0.4039453864097595 -0.23470035195350647
-0.7119619250297546 1.161521553993225 0.4014699459075928
1.5636396408081055 0.09385974705219269 -0.3727167844772339
1.5888917446136475 -0.2942814528942108 -0.08173210918903351
-2.489396333694458 0.6551889181137085 0.7966063022613525
-0.729348361492157 0.02214488387107849 0.07928647845983505
-1.4264079332351685 0.21550488471984863 -0.20104429125785828
2.6190454959869385 0.029774054884910583 0.6872231364250183
2.20772123336792 -0.14601430296897888 -0.7762962579727173
-0.5818025469779968 1.1943681240081787 -0.019759202376008034
3.0009512901306152 -0.2694052457809448 0.8092867732048035
-2.644021987915039 0.66020268201828 -0.3920382261276245
2.2185654640197754 -0.48418092727661133 -0.2930068075656891
1.5627394914627075 0.04049497842788696 -0.32816189527511597
0.6783971786499023 1.2421706914901733 0.08685626834630966
2.635040044784546 0.46811342239379883 0.20090903341770172
2.7732226848602295 -0.004839465022087097 -0.592638373374939
-1.6121723651885986 1.1316871643066406 0.352211058139801
2.489891767501831 -0.21858593821525574 -0.6677064299583435
1.8733164072036743 -0.41833972930908203 0.5400237441062927
0.11839074641466141 1.1928070783615112 -0.43926185369491577
1.5255500078201294 0.09210332483053207 -0.5333629846572876
1.5278408527374268 -0.38760173320770264 0.18739312887191772
-2.2213027477264404 1.1147762537002563 -0.32297661900520325
2.3269519805908203 0.0024170130491256714 -0.9482472538948059
-0.4995972216129303 1.1765528917312622 0.36337801814079285
0.15219005942344666 -0.39276123046875 -0.8059907555580139
3.1109771728515625 -0.2557956278324127 -0.7122349143028259
-0.20205312967300415 -0.32887399196624756 -0.48621419072151184
-0.1441505253314972 -0.4039563834667206 0.775088369846344
0.9548972845077515 -0.3324893116950989 0.014569508843123913
1.4475126266479492 0.419239342212677 -0.26294052600860596
-1.802665114402771 -0.2790987491607666 0.3013322055339813
3.1296286582946777 -0.08336834609508514 0.5765061974525452
1.8120448589324951 0.3336585760116577 0.01379583589732647
-1.9973382949829102 -0.10760059952735901 0.6065196394920349
1.8464269638061523 -0.0388677716255188 0.7666980624198914
1.3704148530960083 -0.050809651613235474 -0.9521734714508057
0.7896726727485657 0.8258626461029053 -0.794950544834137
-1.9153826236724854 0.12106559425592422 0.9299760460853577
-1.0345371961593628 -0.023897945880889893 -0.6470496654510498
-0.6240048408508301 1.1770405769348145 -0.3396071791648865
-1.7641687393188477 0.13376064598560333 -0.633759081363678
2.538543462753296 -0.3800366222858429 0.5975143909454346
-0.7355960011482239 -0.3321065306663513 -0.8912769556045532
-2.541163921356201 0.9546186923980713 0.6475749611854553
-0.7614763379096985 1.1758577823638916 -0.06948527693748474
2.190089702606201 -0.4990159273147583 -0.7068212032318115
-1.1014153957366943 1.1372307538986206 -0.18411999940872192
2.8709003925323486 0.4154919683933258 -0.6946051716804504
2.8026018142700195 0.24745126068592072 -0.29703760147094727
3.099804639816284 -0.26655811071395874 -0.6627867221832275
2.6292805671691895 -0.6530807018280029 -0.7399164438247681
-1.1958632469177246 -0.192356675863266 -0.32832464575767517
-1.9818774461746216 -0.3259177505970001 -0.11203768849372864
0.7400403022766113 -0.3345983922481537 0.8986745476722717
1.2966493368148804 0.5041141510009766 0.8681118488311768
-2.6734912395477295 0.02199457585811615 0.2022390365600586
2.7008962631225586 0.4593810439109802 -0.30704179406166077
1.2011722326278687 0.3422926068305969 0.3907741904258728
-1.3869253396987915 0.8758792281150818 -0.7677509188652039
-0.582011878490448 1.1758874654769897 -0.4019351601600647
2.927830457687378 -0.20778697729110718 0.32060301303863525
1.6169847249984741 0.3183770775794983 -0.34991347789764404
-0.35491618514060974 1.0922808647155762 -0.6330402493476868
-2.1164052486419678 -0.24880525469779968 -0.25866779685020447
0.7320069670677185 -0.3359638750553131 0.023150846362113953
1.5331729650497437 -0.38684624433517456 0.5486191511154175
-1.7159152030944824 0.8352410793304443 0.7648254036903381
2.6879043579101562 0.21625182032585144 -0.379433274269104
-1.527112603187561 0.2136342078447342 -0.11009316146373749
1.6221855878829956 -0.3948100805282593 -0.46570178866386414
-1.039786696434021 0.8547999858856201 -0.773553192615509
-0.6083852648735046 -0.06503751873970032 -0.9442906975746155
-2.341383695602417 1.1038098335266113 -0.43443092703819275
-1.500537395477295 -0.516135573387146 0.5849711298942566
-0.07000485062599182 0.10632462799549103 -0.9515926837921143
-1.3571438789367676 -0.6951814889907837 0.9740374088287354
0.41678404808044434 -0.38993823528289795 0.7979114651679993
2.2186644077301025 0.3596787452697754 -0.3846602439880371
2.0217268466949463 -0.4808695614337921 0.6136940717697144
-2.5634195804595947 1.068362832069397 0.05176272988319397
2.355834484100342 0.1711135059595108 -0.5484420657157898
3.0895698070526123 0.2904738187789917 0.03660795837640762
-1.6636462211608887 0.15188807249069214 -0.16645538806915283
-1.4890902042388916 -0.5503767728805542 -0.6023378372192383
2.7339980602264404 -0.03881455957889557 0.6414164304733276
-1.3195724487304688 -0.32837194204330444 0.9630550146102905
-0.2936842143535614 -0.2548840641975403 -0.9341945052146912
0.10491980612277985 1.0106004476547241 0.7364213466644287
0.9564656019210815 -0.34577569365501404 0.8446865677833557
-0.10639532655477524 0.5029816627502441 -0.9149712920188904
-1.0126436948776245 0.9563306570053101 0.7287821769714355
-0.5768440365791321 0.7632474899291992 0.8326130509376526
0.516151487827301 1.2431666851043701 0.2837977707386017
1.5846861600875854 -0.3849308490753174 -0.5884979367256165
-1.7085496187210083 -0.06182283163070679 -0.2291242778301239
1.9075450897216797 -0.09141188859939575 -0.7651066780090332
1.5649640560150146 0.8342258930206299 0.6667478084564209
1.0855636596679688 -0.3450254201889038 -0.6262528896331787
-2.4286417961120605 0.5527778267860413 -0.8532776236534119
2.798882484436035 0.2559238076210022 -0.29784682393074036
-1.8441935777664185 -0.4862208068370819 0.6649472713470459
3.077092409133911 0.11556375026702881 0.6612846255302429
-0.6944063305854797 -0.05007919669151306 0.2608115077018738
0.8034411668777466 0.4522649049758911 -0.9224441051483154
-0.8453891277313232 -0.3026455342769623 -0.396896094083786
-0.028098024427890778 -0.3388407826423645 -0.6422529816627502
2.5256826877593994 0.24292868375778198 0.5110671520233154
-0.48503223061561584 1.1230082511901855 -0.614424467086792
2.8148038387298584 0.01687784492969513 -0.9200707674026489
-1.3921929597854614 -0.23728875815868378 0.6511087417602539
-0.9127686023712158 0.35403743386268616 -0.5304020047187805
-1.1675152778625488 0.2506991922855377 0.962694525718689
1.7037279605865479 -0.06152668595314026 -0.4824245572090149
2.2812349796295166 -0.7841405272483826 0.8475537300109863
1.0312881469726562 0.18518199026584625 0.9590400457382202
1.0682542324066162 0.25981613993644714 0.9249034523963928
0.6169224977493286 0.9892026782035828 0.7311259508132935
-2.4993159770965576 -0.15206953883171082 -0.3428710401058197
-1.5144761800765991 1.0205680131912231 0.6651476621627808
-1.58677077293396 0.4936428368091583 -0.8820582628250122
1.021641492843628 -0.3616325259208679 0.35082462430000305
-0.8303362727165222 -0.24272267520427704 0.11586936563253403
1.340604305267334 -0.06077547371387482 -0.9571099877357483
-0.8947861194610596 -0.19449622929096222 -0.0233843382447958
0.4651889503002167 -0.35801443457603455 0.5668789148330688
2.906968116760254 0.1602463573217392 0.1436622142791748
2.074934959411621 0.027246147394180298 0.48581209778785706
-0.8501494526863098 0.4817023277282715 -0.9135044813156128
-2.5231401920318604 1.0817049741744995 0.4552282989025116
2.682892322540283 -0.467288076877594 -0.45310598611831665
-0.3026581406593323 -0.36903098225593567 0.2985920310020447
2.809255361557007 -0.3107573688030243 0.8817704916000366
-1.9216338396072388 0.11535181105136871 0.5004248023033142
1.9219180345535278 0.36278730630874634 0.5115774273872375
0.8769007921218872 -0.35955187678337097 0.37082546949386597
2.236365556716919 0.47287502884864807 -0.859393835067749
-0.9844322800636292 -0.10740450024604797 -0.6761019229888916
2.038114547729492 0.5555410385131836 0.4615269601345062
0.6804627180099487 0.7759581804275513 -0.8160549402236938
-2.606506586074829 0.5381309986114502 -0.8067108988761902
2.721677780151367 0.453730970621109 0.1296570897102356
2.730428695678711 -0.27151423692703247 -0.6798175573348999
1.5596204996109009 0.9122864603996277 0.11244013160467148
-0.5227801203727722 1.171824336051941 0.44800499081611633
-0.9281616806983948 -0.33276093006134033 0.21698638796806335
1.3067365884780884 0.9746068120002747 -0.6912517547607422
-0.9026228785514832 0.23421317338943481 0.20075473189353943
0.003478650003671646 1.1657299995422363 -0.5385192632675171
-1.7196106910705566 0.15800741314888 -0.8177297711372375
1.8643393516540527 0.09106716513633728 0.6942626237869263
-2.4552061557769775 0.702607274055481 -0.8114528656005859
1.576824426651001 -0.0070578306913375854 0.9575110077857971
1.9702398777008057 -0.5088759660720825 -0.3612627685070038
-2.686142683029175 -0.13191118836402893 0.11844702064990997
1.9744783639907837 -0.40386027097702026 -0.9642589092254639
-1.0173808336257935 0.28395718336105347 0.9563134908676147
-1.404341459274292 1.1177325248718262 -0.2899399697780609
-0.7990557551383972 0.24669241905212402 -0.17275257408618927
1.7794688940048218 0.0021532028913497925 0.5562516450881958
-1.55855393409729 0.46009156107902527 0.9156345129013062
3.1027979850769043 -0.06439407169818878 0.6590083241462708
1.2684093713760376 0.539190411567688 -0.2301158308982849
2.5077569484710693 0.4567108750343323 -0.8094898462295532
2.4918720722198486 -0.306659996509552 0.27824604511260986
1.7200547456741333 -0.4624209403991699 -0.17419657111167908
2.0193939208984375 0.5692212581634521 -0.43173035979270935
-1.8547587394714355 0.48920029401779175 -0.878208339214325
-1.5033925771713257 -0.19998301565647125 0.14619311690330505
1.4506272077560425 0.5401424169540405 0.5229304432868958
1.1479798555374146 0.8778969049453735 -0.7695658802986145
-0.7596628665924072 0.27841681241989136 -0.6408175826072693
-0.1748870611190796 0.1760428249835968 -0.9344022870063782
0.7509686350822449 0.25215157866477966 0.9553303122520447
2.059490919113159 -0.2504848837852478 -0.20900583267211914
2.7313621044158936 0.2814258635044098 -0.31323325634002686
-1.7660378217697144 0.29794153571128845 -0.8729816675186157
-1.7092509269714355 -0.39071035385131836 0.9667679071426392
0.6612460613250732 0.4507306218147278 -0.9220502972602844
2.804513692855835 0.2923576831817627 0.2144102305173874
-0.7424813508987427 0.08418768644332886 0.11027497798204422
2.825183391571045 0.23387965559959412 0.341764897108078
-1.9305986166000366 -0.34699830412864685 0.04485148936510086
1.0620903968811035 1.174295425415039 0.5495582222938538
1.0586731433868408 0.29274237155914307 -0.08512318134307861
-1.0865776538848877 0.3600296974182129 0.4863418936729431
2.3439602851867676 -0.14611046016216278 -0.6222654581069946
-1.3034777641296387 -0.04241102933883667 -0.3216053247451782
2.1075897216796875 0.3473382890224457 -0.3464730978012085
-1.9537806510925293 0.8812335133552551 -0.7709336876869202
-0.8443782329559326 0.46323972940444946 -0.9152587652206421
2.3953351974487305 -0.36910414695739746 -0.05464369058609009
2.428917169570923 -0.639690101146698 -0.6873252987861633
0.23404085636138916 1.228158950805664 0.047567617148160934
-1.4144277572631836 -0.3397650718688965 -0.9051249027252197
0.13659262657165527 1.2078540325164795 0.4079349637031555
1.132863163948059 -0.20773015916347504 0.9285608530044556
-1.83138108253479 -0.3013702929019928 0.4106595814228058
-1.5101984739303589 -0.4982532560825348 -0.8747928738594055
1.0068206787109375 -0.356963574886322 -0.6250866651535034
1.5569168329238892 0.34728458523750305 0.00477343937382102
2.3137526512145996 0.006907612085342407 -0.6523025035858154
-0.8024669289588928 -0.35116955637931824 -0.6535875201225281
-1.7445943355560303 0.8233689069747925 -0.7961733341217041
-0.8686227202415466 -0.3585836589336395 -0.0078088631853461266
-1.3142008781433105 0.1830984652042389 -0.005661281757056713
2.16692852973938 -0.027390122413635254 0.49237290024757385
2.1600282192230225 0.35704511404037476 -0.07831093668937683
-0.3645685315132141 0.7938281893730164 -0.8069279193878174
-0.5254364013671875 -0.3549438714981079 -0.14893044531345367
3.1344125270843506 0.10306040197610855 0.3611209988594055
2.504894733428955 -0.49817997217178345 0.18534916639328003
-1.1492425203323364 -0.01642344892024994 -0.470294326543808
-1.7448288202285767 0.08703143894672394 -0.4251241087913513
0.6931896209716797 -0.33474108576774597 0.21477288007736206
-0.22561267018318176 0.35666805505752563 0.959749698638916
-2.5965256690979004 0.9292958378791809 0.39700865745544434
-1.2288923263549805 1.1392738819122314 -0.024670980870723724
1.4585713148117065 -0.27189886569976807 -0.9425499439239502
-2.022094488143921 -0.004837051033973694 -0.2785920798778534
1.1418737173080444 -0.3571801781654358 0.16770829260349274
-1.1014574766159058 -0.5233935117721558 -0.693868100643158
3.1165268421173096 0.050599604845047 -0.5865469574928284
-1.0201704502105713 -0.1047230213880539 0.8116025924682617
-0.3960823118686676 0.27889537811279297 0.9671935439109802
-1.068138837814331 0.4555462598800659 0.9252476692199707
-0.7475383281707764 0.3669557571411133 0.9533572196960449
2.915315628051758 0.16837219893932343 0.7561215162277222
-0.8760585784912109 1.171401023864746 0.12001198530197144
1.5659713745117188 0.5835862159729004 -1.04538893699646
1.2382222414016724 0.5749344825744629 0.2911655306816101
-1.643632411956787 0.36277836561203003 0.9279735684394836
2.938504457473755 -0.04661485552787781 0.061756908893585205
1.985586404800415 0.23250284790992737 0.6861633658409119
-1.8586596250534058 -0.10204523801803589 0.1715487390756607
-2.3732500076293945 -0.17311450839042664 -0.8418083190917969
2.458219528198242 0.4655788838863373 0.643255889415741
2.816100597381592 -0.3431578278541565 -0.8977624773979187
-2.6694509983062744 0.1709553599357605 -0.05258118361234665
-0.10689885914325714 -0.22254827618598938 -0.931907057762146
1.5495022535324097 0.033831506967544556 -0.2871338725090027
-2.116241693496704 1.0749497413635254 -0.6060529947280884
2.089467763900757 -0.7617515921592712 0.8114663362503052
-0.8237323760986328 0.14855696260929108 -0.08126457035541534
1.87019681930542 0.14849349856376648 0.9467212557792664
-1.1476871967315674 0.31992632150650024 0.6226886510848999
2.3769564628601074 -0.4668782949447632 -0.019097745418548584
1.8904322385787964 -0.21443627774715424 0.20917488634586334
-2.3731937408447266 0.07885508984327316 0.8870457410812378
2.0946569442749023 0.1300794631242752 -0.9160560369491577
1.387940764427185 -0.36929526925086975 -0.905624508857727
-0.5544239282608032 0.6828706860542297 0.8587217330932617
-2.515995979309082 -0.18082019686698914 -0.7868178486824036
3.139761209487915 -0.2818998694419861 -0.44603225588798523
2.724886655807495 -0.292758584022522 -0.5735974907875061
-1.979506015777588 0.03983481973409653 0.38360774517059326
-2.0654428005218506 -0.11885437369346619 -0.5238357782363892
-0.7056741714477539 -0.37122783064842224 0.17673692107200623
-0.7415909767150879 0.4074397087097168 -0.9165656566619873
-1.7959140539169312 -0.21676111221313477 0.942047119140625
1.7013823986053467 0.20311801135540009 -0.11643599718809128
1.599997878074646 0.7037347555160522 0.8017696738243103
2.0514378547668457 0.3947743773460388 0.9289706349372864
-0.8817205429077148 -0.3201234042644501 -0.22001127898693085
1.4500133991241455 0.10219936072826385 0.47521838545799255
0.15834003686904907 1.237767219543457 0.10177475214004517
0.5909726619720459 -0.32129427790641785 -0.9498794078826904
3.18639874458313 -0.15068267285823822 -0.03693019226193428
-1.878881573677063 0.29370489716529846 -0.8985247015953064
0.6479328274726868 -0.35889196395874023 -0.44701969623565674
-0.9646784067153931 -0.2999454438686371 0.4559267461299896
2.20969295501709 -0.06324386596679688 0.5336169004440308
1.2110131978988647 0.29960697889328003 -0.4319571256637573
-0.9103399515151978 -0.023643404245376587 0.9589570760726929
-1.1454555988311768 0.09120547771453857 -0.6666468381881714
-1.5919373035430908 0.13362158834934235 0.7017654776573181
2.6491522789001465 -0.09566910564899445 -0.624508798122406
0.3526234030723572 0.5089899897575378 -0.9103862047195435
3.0110859870910645 -0.32681095600128174 0.46582168340682983
2.570552110671997 0.09743298590183258 -0.4488963782787323
2.6598217487335205 -0.6246088743209839 -0.624937891960144
0.37415844202041626 -0.3021030128002167 -0.03979210928082466
2.6154301166534424 -0.12037324905395508 -0.5194360017776489
-1.482185959815979 -0.14497853815555573 0.6124356985092163
1.1365149021148682 0.7811979651451111 0.7685979008674622
2.435793399810791 0.10584098845720291 -0.574637234210968
-1.2031716108322144 0.14636936783790588 0.6069315075874329
1.312669277191162 1.0112278461456299 0.6383160352706909
2.8900790214538574 0.042339175939559937 -0.18492113053798676
2.1780858039855957 0.11366535723209381 0.22798125445842743
0.055721983313560486 -0.3343411087989807 -0.4089568853378296
2.926403522491455 -0.2111894190311432 0.22370359301567078
-2.687067747116089 0.007875025272369385 -0.7629864811897278
-1.5161082744598389 0.2594587206840515 -0.527632474899292
-2.3841888904571533 -0.05825173854827881 -0.8601508736610413
3.054914712905884 -0.3071713447570801 -0.03201623260974884
2.4141764640808105 -0.3246600031852722 0.7183336615562439
-2.4699361324310303 -0.19601470232009888 -0.6955567002296448
2.161604404449463 0.27894994616508484 0.3727029860019684
2.8697707653045654 -0.33107107877731323 0.7504002451896667
-0.6996548771858215 1.131506323814392 -0.5562206506729126
-0.5126150846481323 -0.2914426326751709 -0.9244623780250549
2.2114195823669434 0.5092096328735352 -0.7007075548171997
1.081587553024292 -0.38977059721946716 -0.8001028895378113
-2.6266226768493652 0.7586110830307007 0.00514050992205739
1.0244667530059814 -0.1664394736289978 0.9389879107475281
1.9068803787231445 0.023326843976974487 0.9534964561462402
1.2232370376586914 0.6976379156112671 -0.20788253843784332
2.8992397785186768 -0.07298946380615234 0.5082108378410339
-1.6152764558792114 -0.2508159875869751 -0.45734697580337524
-1.9200925827026367 -0.10584117472171783 -0.9279980063438416
1.1913862228393555 -0.36977601051330566 -0.7021443843841553
1.6306538581848145 0.24708807468414307 0.1516706794500351
1.2535474300384521 1.0981851816177368 -0.43714842200279236
-1.9368797540664673 -0.3296155333518982 0.8002098202705383
0.5470999479293823 0.7052775621414185 -0.8425452709197998
-0.7445374131202698 0.01304696500301361 -0.10354229062795639
2.208042860031128 -0.26832249760627747 -0.9205178022384644
-0.682253360748291 -0.30199575424194336 -0.7955283522605896
-1.2797931432724 0.06921404600143433 0.4874308705329895
-0.1453319787979126 0.10285121202468872 0.9627819061279297
-1.7763032913208008 -0.1837199181318283 0.3993381857872009
-2.0263442993164062 1.074177861213684 0.5613957047462463
-0.12031598389148712 -0.45923155546188354 -0.43852898478507996
1.2432243824005127 -0.3565778136253357 0.855634868144989
1.457008719444275 -0.0419715940952301 0.952795147895813
1.9995160102844238 0.4737507998943329 -0.9015178680419922
-1.6185766458511353 0.033720120787620544 0.8629265427589417
-2.174611806869507 -0.18414103984832764 -0.5705521106719971
-1.126060128211975 -0.2707698941230774 -0.5613481998443604
0.6909226775169373 0.8813037872314453 -0.7763260006904602
1.5921052694320679 0.1263672411441803 -0.5971499681472778
-0.22399674355983734 -0.26648977398872375 0.9243879318237305
2.028841733932495 0.5086943507194519 0.1308881640434265
-0.6507172584533691 1.1674309968948364 -0.4292978048324585
-1.6393717527389526 -0.6194667816162109 -0.5314621329307556
1.3109676837921143 0.6855252385139465 -0.3279329240322113
-0.8845371007919312 -0.09415185451507568 0.29506319761276245
2.438473701477051 -0.39537373185157776 -0.015795907005667686
2.1137359142303467 0.20660808682441711 0.9408078789710999
2.1056768894195557 0.15072137117385864 0.49931222200393677
-1.0208656787872314 1.1388914585113525 -0.41096580028533936
-1.1810111999511719 1.110039234161377 -0.558539628982544
0.05608940124511719 -0.1139623373746872 -0.9478694200515747
2.4369795322418213 -0.26514923572540283 -0.5147610306739807
2.180206060409546 -0.6556093096733093 0.5781331658363342
2.6431448459625244 0.4565087854862213 -0.751325249671936
-2.3215713500976562 -0.07710516452789307 0.10909844189882278
-2.0446367263793945 -0.18602706491947174 -0.3795749545097351
2.1567652225494385 -0.35732412338256836 -0.739372730255127
-2.434152126312256 0.562199056148529 0.8264970183372498
2.879711151123047 0.3965160846710205 -0.7120130062103271
-0.8836224675178528 -0.2310328483581543 0.34006932377815247
-1.7125300168991089 -0.2791635990142822 0.3997374176979065
-1.4816700220108032 1.0284371376037598 0.6558610200881958
-0.4774363934993744 -0.37297576665878296 0.7421171069145203
-2.1297082901000977 0.015254318714141846 0.9034523367881775
-1.3287352323532104 -0.7789813280105591 -0.6720649600028992
-1.836909532546997 0.48300454020500183 0.8939263224601746
-0.8199040293693542 1.0379552841186523 -0.7026090621948242
-1.2349495887756348 -0.2549183964729309 0.4897152781486511
0.45685046911239624 1.228217601776123 0.2568521201610565
2.9254555702209473 -0.13605822622776031 0.4527665078639984
2.247584819793701 0.21921353042125702 0.48440223932266235
2.54132080078125 0.4564170837402344 0.6307470798492432
-2.4876198768615723 1.0958530902862549 -0.18470431864261627
-1.3988784551620483 -0.23139366507530212 0.27097567915916443
-1.4087101221084595 1.1077667474746704 0.5034783482551575
-0.8274660706520081 1.1269081830978394 -0.5074765682220459
1.885245442390442 -0.19627106189727783 -0.5424416065216064
-1.1355515718460083 -0.33586323261260986 0.6405327320098877
-0.897024929523468 0.10969385504722595 -0.7194379568099976
2.883640766143799 -0.22846877574920654 -0.5356228947639465
2.8895370960235596 -0.09230178594589233 0.8928363919258118
-0.48841392993927 -0.19190552830696106 0.9370219707489014
-1.490498423576355 -0.009042412042617798 -0.22239314019680023
3.1132702827453613 0.18029026687145233 0.2742759883403778
1.6427406072616577 0.4535934329032898 0.32419681549072266
0.3485689163208008 -0.33540451526641846 0.2353336066007614
-1.5612328052520752 1.1051216125488281 -0.3929864168167114
1.609025239944458 0.059212736785411835 -0.6134408116340637
3.1927103996276855 -0.15507306158542633 0.02416064590215683
-1.9014997482299805 -0.054281800985336304 0.47618433833122253
-2.4663968086242676 1.1080985069274902 0.29376327991485596
1.7446645498275757 0.2814875841140747 -0.4737735688686371
-0.24572166800498962 -0.3598380386829376 0.8963162899017334
1.1568200588226318 0.7247991561889648 -0.8235750198364258
-1.25069260597229 -0.38460439443588257 -0.6137325763702393
1.1446638107299805 0.791588544845581 -0.17822377383708954
2.953646183013916 -0.2859737277030945 0.3807932734489441
-2.4475669860839844 0.8155097365379333 0.7547609210014343
-0.7324454188346863 -0.36315208673477173 -0.7881530523300171
-2.0092806816101074 -0.23314136266708374 0.9173241853713989
2.362805128097534 -0.2228693664073944 -0.4702329933643341
-1.611663579940796 0.356295108795166 0.9243259429931641
0.8870595693588257 0.8679860830307007 -0.7783015370368958
1.6723212003707886 0.3199364244937897 0.41726404428482056
-0.8272760510444641 0.9073615074157715 0.7581061720848083
2.853079080581665 -0.021494105458259583 -0.5120572447776794
2.513252019882202 0.0319414883852005 -0.33056047558784485
-1.6514900922775269 -0.25628039240837097 0.18201081454753876
1.271812081336975 1.1048182249069214 -0.25199705362319946
1.8391166925430298 0.3826948404312134 0.9251604080200195
2.9603710174560547 -0.3145272433757782 0.577541172504425
-0.49953243136405945 0.5690839290618896 -0.8948742747306824
-1.0675432682037354 0.37722519040107727 0.5100502371788025
1.8672279119491577 -0.16249775886535645 -0.010760280303657055
2.0997073650360107 0.49922770261764526 0.17063911259174347
0.15438693761825562 1.2258665561676025 0.23496147990226746
-2.4531378746032715 0.3557108938694 -0.8876221776008606
-2.1938517093658447 -0.12102118134498596 -0.47253677248954773
0.7285265922546387 -0.3926554322242737 -0.7875427603721619
3.167368173599243 -0.04535819590091705 -0.23079147934913635
-0.6712771654129028 -0.03865222632884979 0.9528399705886841
1.8653883934020996 -0.079491525888443 0.7528403997421265
2.642239809036255 0.1662711203098297 -0.6339993476867676
-1.3667842149734497 0.01869453489780426 0.5139870643615723
-0.8441691994667053 -0.36168909072875977 -0.7747790217399597
-0.8355290293693542 0.25519707798957825 -0.10076983273029327
-0.6864128112792969 -0.34566783905029297 0.7023436427116394
1.4377998113632202 0.13667085766792297 0.9547513723373413
-2.1858103275299072 -0.12669534981250763 -0.6288965344429016
1.5079684257507324 0.5987788438796997 -0.30108439922332764
2.7380406856536865 0.46300631761550903 -0.1555708348751068
1.699912667274475 0.2467680275440216 0.025515463203191757
-2.6105353832244873 -0.225359708070755 0.7450345754623413
-1.2159515619277954 0.22301670908927917 0.9666756391525269
0.9854846000671387 0.4675053358078003 -0.9213491678237915
-0.9038815498352051 -0.25016120076179504 -0.9285972714424133
1.2430717945098877 0.7783219218254089 -0.2177378088235855
0.22109752893447876 1.2275419235229492 0.23617973923683167
-1.1075161695480347 0.39252787828445435 0.5800102353096008
-1.8697891235351562 -0.05660787224769592 -0.9165055155754089
2.5312418937683105 -0.28375595808029175 0.5260149240493774
-0.5802252292633057 -0.3395686149597168 0.6857381463050842
-0.5757074356079102 -0.14738866686820984 0.9441996216773987
0.24593551456928253 1.042870283126831 -0.7082608342170715
0.22210974991321564 -0.33052435517311096 0.2449958175420761
-0.7990204095840454 0.279782235622406 0.10392820090055466
0.19953767955303192 -0.3407078981399536 0.3743225932121277
0.9814215898513794 1.193037986755371 0.4843275547027588
1.2808579206466675 0.5398032665252686 0.4967675805091858
2.244492769241333 -0.38926398754119873 -0.9462110996246338
-1.7404744625091553 0.41085338592529297 0.9182038307189941
-0.6124158501625061 1.067960500717163 -0.684583842754364
1.8185020685195923 -0.08975952863693237 0.6968675851821899
-1.1629345417022705 -0.21688537299633026 -0.8937351703643799
-2.0758936405181885 -0.10201448202133179 0.9062014818191528
-0.4804444909095764 0.42556026577949524 0.9544647932052612
-1.3712824583053589 -0.27513808012008667 -0.8957837224006653
-1.0361571311950684 1.1226328611373901 0.5074136257171631
2.3910584449768066 0.34583580493927 0.9409251809120178
1.2596840858459473 0.21679317951202393 0.487095445394516
0.8885174989700317 0.22277407348155975 0.9456734657287598
2.1498217582702637 -0.7743078470230103 -0.6253300905227661
2.0726399421691895 -0.5471572875976562 -0.6478057503700256
-1.4343870878219604 0.16523349285125732 -0.1629980355501175
0.9415821433067322 0.7606275081634521 0.7986485958099365
0.37130117416381836 -0.3879640996456146 -0.8303250670433044
1.9673492908477783 0.3179834187030792 -0.5444810390472412
-0.9983514547348022 -0.10403239727020264 -0.09821013361215591
2.9910807609558105 0.281225323677063 0.6882307529449463
2.438040018081665 0.3954012095928192 0.9206687211990356
2.129831314086914 0.12251251935958862 -0.9388753175735474
2.142138957977295 -0.44080251455307007 0.9244588017463684
2.22798490524292 -0.11242875456809998 -0.7015259265899658
-0.6911931037902832 1.1593188047409058 0.4221108555793762
-0.11986546963453293 1.1984407901763916 0.35228365659713745
-1.275452733039856 -0.4608524441719055 -0.5954745411872864
-0.6129735112190247 -0.07973664999008179 0.9468370079994202
3.1310455799102783 -0.16431128978729248 0.569381594657898
-0.4671005606651306 -0.37789788842201233 0.8689934015274048
2.0400876998901367 0.5797761082649231 0.02508503757417202
-1.7623668909072876 1.065871238708496 0.6195380687713623
-1.576257348060608 -0.06704631447792053 0.9523507356643677
2.914201498031616 0.010862171649932861 0.38071465492248535
-1.5068092346191406 -0.7316124439239502 0.7002527713775635
-1.5926454067230225 -0.31231486797332764 0.9679937362670898
-1.8244179487228394 0.8701115250587463 0.7351602911949158
-2.649620294570923 0.7146121263504028 0.11102437973022461
1.6814857721328735 0.524198055267334 0.33761534094810486
1.3763816356658936 1.0563294887542725 0.1528128832578659
2.0119593143463135 -0.06216433644294739 -0.5879956483840942
2.10661244392395 0.21099764108657837 -0.2528828978538513
1.1761271953582764 -0.4137493073940277 0.8510262966156006
2.1125290393829346 -0.2692972421646118 0.06207815557718277
1.5506329536437988 0.17056572437286377 0.9549891352653503
3.1593682765960693 -0.19839760661125183 0.38341259956359863
2.794639825820923 -0.15995286405086517 -0.6415785551071167
0.9904336333274841 1.2195327281951904 0.11333863437175751
-1.838631510734558 -0.24075008928775787 0.39567822217941284
2.5038270950317383 -0.5401390194892883 0.11259916424751282
-0.01474510133266449 0.2563077509403229 0.9674597978591919
0.8910487294197083 0.14094720780849457 0.9533023238182068
-1.708243727684021 0.49094897508621216 0.9006819128990173
0.7849583029747009 1.2110053300857544 -0.28195250034332275
-0.9830582141876221 0.03345207870006561 -0.7526682019233704
3.1233370304107666 0.012991145253181458 -0.5181540846824646
1.3717994689941406 0.8106316328048706 0.7473490834236145
1.859502911567688 0.3954906761646271 -0.16387581825256348
-2.477975606918335 -0.18256090581417084 -0.5845713019371033
-0.6193146109580994 1.0128130912780762 0.7167317867279053
2.712892532348633 -0.5254957675933838 -0.8686519265174866
-0.7971762418746948 -0.07337960600852966 -0.9471216201782227
-0.3095216155052185 -0.3684420883655548 0.7056542634963989
-1.8208366632461548 -0.22035685181617737 0.17030124366283417
2.9232265949249268 0.09340710937976837 -0.0016821485478430986
0.9218008518218994 0.28749459981918335 -0.952853798866272
2.6595752239227295 0.06706506758928299 -0.4518996775150299
-2.4833598136901855 0.8068815469741821 -0.7678946256637573
-1.815877079963684 -0.08274444937705994 0.3669242262840271
1.403632402420044 1.030004858970642 -0.17665915191173553
2.3259196281433105 -0.5645747184753418 0.37679949402809143
-2.5758583545684814 1.0014638900756836 -0.018239853903651237
-0.4777956008911133 -0.35875841975212097 -0.6623062491416931
-0.8906469345092773 0.3114912509918213 0.6622890830039978
1.8460934162139893 0.42886996269226074 0.6422034502029419
-1.1355199813842773 0.0035951435565948486 0.9715372323989868
-1.3494592905044556 -0.0059974342584609985 0.011989809572696686
-1.7183539867401123 -0.6927967667579651 -0.6462283730506897
-1.5646486282348633 -0.26149940490722656 -0.4801173806190491
2.456587314605713 0.1735491156578064 -0.48923611640930176
-2.1548523902893066 0.8076091408729553 -0.8013437986373901
-0.7057468295097351 -0.20442764461040497 -0.9287329912185669
-1.2892447710037231 -0.15961922705173492 0.164247065782547
-1.2132892608642578 0.20718523859977722 -0.9278935790061951
-2.6074321269989014 0.8736358880996704 0.18161895871162415
-1.0772068500518799 0.4506695866584778 0.9205179810523987
2.1537036895751953 -0.011118978261947632 -0.224606454372406
1.90115487575531 0.47115713357925415 0.36379894614219666
-2.402928352355957 -0.09032769501209259 0.39746880531311035
1.134509801864624 0.45465362071990967 -0.11778373271226883
2.491788387298584 -0.5325003862380981 -0.25473469495773315
1.6176127195358276 0.10457663983106613 -0.5535804033279419
1.3932689428329468 1.0212706327438354 -0.2570265531539917
-2.3267834186553955 -0.052868813276290894 0.6083222031593323
1.3541483879089355 0.9722119569778442 -0.6788976192474365
2.588486433029175 0.32483166456222534 -0.1813124716281891
-1.5210230350494385 0.163962259888649 0.25023433566093445
1.8880701065063477 -0.436460942029953 -0.35538390278816223
1.9621484279632568 -0.03777284920215607 -0.6524245738983154
1.7194499969482422 0.49434250593185425 0.017134642228484154
-2.0507736206054688 -0.04835079610347748 -0.4730730354785919
0.8533292412757874 0.022820547223091125 0.9525607824325562
-1.1429433822631836 0.22325339913368225 -0.5465714931488037
-1.9858380556106567 0.975712239742279 0.6888798475265503
-1.575311541557312 -0.5590540766716003 -0.5645232796669006
-1.8468072414398193 1.1422070264816284 -0.010997640900313854
0.005045041441917419 0.562784731388092 -0.8966812491416931
0.004497069865465164 1.1650071144104004 0.5722233653068542
-0.08767635375261307 0.6239421963691711 -0.8846609592437744
-0.044551849365234375 -0.3376941978931427 -0.18639539182186127
2.2253448963165283 0.05234994739294052 0.26171040534973145
-2.671283483505249 -0.01700405776500702 0.20848679542541504
2.307828664779663 0.15680508315563202 -0.5352357029914856
-0.36621975898742676 0.27177953720092773 -0.9421196579933167
2.2133889198303223 -0.6289050579071045 0.9582040309906006
2.062817335128784 0.3311423361301422 -0.07442938536405563
1.6591646671295166 -0.3684128522872925 -0.13562104105949402
0.7634152173995972 0.09393835812807083 -0.95859295129776
2.7342684268951416 0.257605642080307 -0.4146806299686432
2.471569538116455 0.4563719928264618 0.8292334079742432
3.1794278621673584 -0.16013140976428986 0.2673170566558838
2.0310986042022705 0.38460084795951843 -0.31492453813552856
2.9757440090179443 -0.06733755767345428 0.8638092875480652
1.6165252923965454 0.567575216293335 -0.921307384967804
1.8234468698501587 0.17323808372020721 0.7062087059020996
1.7665579319000244 0.510076105594635 0.12031833082437515
-1.4358835220336914 -0.5187830328941345 -0.8935015797615051
-0.25573331117630005 0.25662288069725037 -0.9479672312736511
1.8190467357635498 0.36819639801979065 0.07969202101230621
2.0061333179473877 0.18246155977249146 -0.29814639687538147
0.8140826225280762 0.1903851330280304 0.9482232332229614
-1.1039488315582275 0.9995092153549194 0.7076812982559204
0.7338364124298096 -0.2535244822502136 0.9373587369918823
2.3153607845306396 -0.175749734044075 0.7520944476127625
1.2372491359710693 -0.3834361732006073 -0.778484046459198
-0.9964351058006287 1.1086348295211792 0.5541992783546448
-0.35525262355804443 1.1234854459762573 -0.6277932524681091
2.441133737564087 0.03045736253261566 0.684851348400116
2.3698480129241943 0.4731203317642212 0.6529914736747742
1.6456258296966553 -0.3855043649673462 -0.6431717872619629
1.1657823324203491 0.574241042137146 0.15762074291706085
-1.2768646478652954 -0.6239779591560364 -0.5739884376525879
2.495692491531372 0.3397853374481201 -0.20878933370113373
-1.6364085674285889 0.03272649645805359 0.05911511182785034
-1.540506362915039 -0.15234263241291046 0.6161631345748901
0.6074156165122986 -0.3669605553150177 -0.6832535862922668
2.0302724838256836 0.54561847448349 -0.6875921487808228
0.18019604682922363 -0.41374731063842773 0.778951108455658
1.6211073398590088 0.8661835193634033 0.16286203265190125
3.1364998817443848 -0.18659983575344086 0.4934019446372986
-1.7153422832489014 0.1210426539182663 -0.06592962145805359
-2.4247219562530518 1.1201738119125366 0.08312183618545532
-2.3325624465942383 0.072015680372715 0.8860935568809509
-0.07214194536209106 0.3085002601146698 0.9645723700523376
-1.4982192516326904 -0.06730888783931732 0.9631448984146118
-0.8581054210662842 0.06932898610830307 -0.46815815567970276
-2.0097897052764893 -0.1640101820230484 0.3203381597995758
0.20589148998260498 -0.34832763671875 -0.26180219650268555
-1.04918372631073 -0.20958282053470612 -0.9013276696205139
2.5576093196868896 0.4870745539665222 -0.08240944147109985
2.114525079727173 -0.28421664237976074 0.08567176759243011
1.9916800260543823 0.5014894008636475 -0.8874019980430603
-1.1203649044036865 -0.18189796805381775 -0.8934169411659241
0.1594650149345398 -0.25788450241088867 0.9305659532546997
-1.7849973440170288 -0.023249119520187378 -0.04663573205471039
0.6624706387519836 -0.27635347843170166 -0.03308551385998726
1.6579784154891968 0.0995943695306778 -0.36080247163772583
1.1392217874526978 0.2386355698108673 0.6213310956954956
2.555025100708008 -0.5961964130401611 -0.9514872431755066
-0.45815008878707886 0.23247426748275757 -0.9421240091323853
-0.22489431500434875 -0.21695548295974731 0.9351384043693542
0.5806646347045898 0.9282844066619873 0.7612523436546326
2.303197145462036 0.15035207569599152 0.6425196528434753
-2.381802558898926 0.8139641880989075 -0.7909778356552124
2.278022050857544 -0.6254804730415344 -0.7377732992172241
-2.14125919342041 0.08150357753038406 0.6341191530227661
-0.5344788432121277 0.6651459336280823 -0.8566967248916626
2.56671142578125 0.3796493113040924 -0.8943488597869873
0.06614841520786285 1.213168978691101 0.06778069585561752
1.4998453855514526 0.9065335988998413 -0.4916888475418091
1.7982629537582397 0.7389674186706543 0.15680845081806183
-1.836808443069458 0.16192807257175446 0.3980690538883209
2.3685996532440186 -0.3821990489959717 -0.7571390867233276
0.5571771860122681 1.0731801986694336 0.6851544380187988
2.5615556240081787 0.14135649800300598 -0.4869125485420227
-2.2207765579223633 -0.0316905677318573 0.4138033986091614
1.7030540704727173 0.07388348877429962 0.9373593330383301
1.6356005668640137 0.5277730822563171 -0.9159665703773499
0.7494040727615356 0.4351436197757721 -0.9255014061927795
-1.3669179677963257 0.20410582423210144 -0.030637873336672783
1.8834552764892578 -0.35214492678642273 -0.25149887800216675
-2.6168041229248047 0.2577143609523773 -0.8060534000396729
-2.5685291290283203 -0.20541229844093323 0.47439953684806824
1.668478012084961 0.49181169271469116 0.27298879623413086
1.0626338720321655 -0.33777907490730286 0.8756503462791443
1.6499145030975342 0.7705942988395691 -0.6490901708602905
1.4881224632263184 -0.383463054895401 0.14343799650669098
-0.3034484088420868 -0.38415253162384033 0.7371155023574829
2.6397364139556885 0.4422134757041931 -0.6900365352630615
0.7694451212882996 -0.36864814162254333 -0.9149639010429382
-0.38897237181663513 -0.3333582878112793 0.15803509950637817
0.6002604365348816 0.9670787453651428 0.7439001798629761
1.4573737382888794 0.4877406656742096 0.5830612778663635
1.5612049102783203 0.398050993680954 0.9281577467918396
0.041399888694286346 -0.2492789477109909 -0.9567858576774597
2.2695024013519287 -0.14728939533233643 0.935987114906311
-2.476875066757202 1.121654987335205 0.2359064221382141
-1.2738951444625854 1.137450098991394 0.1308770626783371
-2.281205415725708 -0.10221122205257416 -0.4281028211116791
1.6908284425735474 0.20192626118659973 -0.022404970601201057
-1.6717280149459839 0.14208710193634033 0.6804741024971008
2.488370180130005 -0.5237925052642822 -0.3102787137031555
1.4655444622039795 0.4103214144706726 0.13033823668956757
1.1290497779846191 0.3677908182144165 0.9222908020019531
2.2285401821136475 -0.5645205974578857 0.2272024303674698
1.9821165800094604 -0.21147708594799042 0.4070046842098236
-0.5818673372268677 0.795831561088562 0.8139541745185852
-1.7512470483779907 -0.44973546266555786 -0.9092590808868408
-0.14487801492214203 0.9535424709320068 0.7685166001319885
1.2840745449066162 1.105380654335022 0.10299514979124069
1.587522268295288 -0.3914533853530884 -0.6583753228187561
-1.0359094142913818 1.088779091835022 -0.6533492207527161
-0.5505617260932922 -0.32721009850502014 0.3156387507915497
0.8786653876304626 -0.24764719605445862 0.9248847961425781
3.155083656311035 -0.07464368641376495 0.41019123792648315
2.504901170730591 -0.0854906290769577 0.9359476566314697
2.8160135746002197 0.24792054295539856 -0.27315616607666016
-1.4497056007385254 0.16514573991298676 0.6470126509666443
-2.2457547187805176 1.1078522205352783 0.2566644549369812
2.5412168502807617 -0.5177466869354248 -0.946119487285614
-0.8079994320869446 -0.19844429194927216 -0.9292839169502258
0.5637184381484985 -0.36263781785964966 0.5653156042098999
0.5397092700004578 -0.1600904017686844 0.9495426416397095
0.25963345170021057 0.08239855617284775 -0.9612220525741577
-2.568876266479492 0.867830753326416 -0.5137674808502197
2.255600929260254 -0.5351004004478455 0.1488090455532074
-0.9538174271583557 -0.2395348697900772 0.3837060034275055
-1.9998615980148315 -0.14410123229026794 0.5909171104431152
-0.5644166469573975 0.5716437101364136 0.9008724689483643
2.3318300247192383 0.5091711282730103 0.07948604226112366
1.6417324542999268 0.07681962102651596 -0.1262424886226654
0.9965860247612 -0.3849581182003021 0.8368010520935059
0.27123209834098816 1.2332487106323242 0.207831472158432
-1.4744786024093628 1.0928891897201538 -0.592926561832428
-0.9074394702911377 0.3735158443450928 -0.9609005451202393
-1.1581518650054932 -0.4935237765312195 0.6121652722358704
2.7043073177337646 0.2501053810119629 -0.9071575403213501
2.182169198989868 -0.562312126159668 -0.6770188808441162
-1.3228081464767456 1.1362087726593018 0.16634994745254517
0.9143699407577515 0.310049831867218 -0.09100759774446487
-0.8433857560157776 0.07039041072130203 0.9682785868644714
-1.0263354778289795 -0.4838723838329315 0.7969460487365723
2.4519941806793213 -0.10296158492565155 0.6551057696342468
-1.3790488243103027 -0.6391518115997314 0.985904335975647
3.12292218208313 0.06468498706817627 0.4886651039123535
1.6264631748199463 0.15360556542873383 0.22977709770202637
1.2527964115142822 0.565611720085144 -0.009024102240800858
3.014543294906616 0.2805730998516083 0.618287980556488
-1.6441445350646973 0.9433162808418274 0.7032786011695862
-0.47984060645103455 -0.3842267394065857 0.7649641036987305
0.44280603528022766 0.5057508945465088 -0.9163613319396973
-0.8060182332992554 -0.04573619365692139 0.0036172508262097836
-1.66576087474823 -0.20877458155155182 -0.44070225954055786
2.0364224910736084 0.047155871987342834 0.9465512037277222
-1.656847357749939 0.25371652841567993 0.31963714957237244
-1.2761822938919067 0.21642951667308807 0.9610095620155334
-0.457130491733551 0.25967711210250854 0.9686738848686218
2.3307950496673584 -0.061995163559913635 -0.4929414689540863
3.0041520595550537 0.36881184577941895 0.3881223797798157
-1.0069929361343384 -0.26650577783584595 0.33665820956230164
-2.4174299240112305 -0.127030611038208 -0.010952891781926155
