ply
format ascii 1.0
element vertex 814
property float x
property float y
property float z
end_header
2.357179880142212 -0.2757176160812378 0.3116483688354492
0.3761988878250122 0.1881546825170517 1.1641895771026611
-0.013600997626781464 0.6532999277114868 0.4927681088447571
-0.0826682597398758 0.6926960945129395 0.10701464861631393
2.037998914718628 0.23358112573623657 -0.8006415367126465
-0.3394418954849243 0.5714190006256104 0.5164110660552979
0.5841898918151855 0.7026440501213074 0.6928521394729614
-1.8002815246582031 0.8140785098075867 1.02775239944458
-1.8736759424209595 0.33436840772628784 0.8234731554985046
-1.0097359418869019 -0.33809560537338257 -0.43275946378707886
0.3014788329601288 -0.25555211305618286 -0.36869344115257263
-1.6234863996505737 0.39547187089920044 -0.363511860370636
0.49434733390808105 0.5480683445930481 -0.5962283611297607
-0.22968997061252594 -0.47879964113235474 -0.3610425889492035
0.4594518542289734 0.04118494689464569 1.0861252546310425
1.3048040866851807 -0.3274073600769043 -1.0579389333724976
1.6576001644134521 0.4434725046157837 -0.8367929458618164
0.739141047000885 0.12003757059574127 -0.11389918625354767
1.0236848592758179 1.0687918663024902 0.2594742178916931
-0.7764003872871399 -0.37816357612609863 0.36825650930404663
-0.7531307339668274 0.505509078502655 -0.17125143110752106
1.3831462860107422 0.3581000566482544 0.9380722045898438
0.31894832849502563 -0.43647515773773193 0.02435772493481636
0.05090750753879547 0.8686158061027527 0.046035464853048325
2.7276148796081543 -0.40962615609169006 -0.2534712851047516
1.2720798254013062 0.5211596488952637 -0.8661949634552002
0.7776881456375122 -0.3849530518054962 0.33718377351760864
-0.6094984412193298 -0.32951539754867554 -0.592387855052948
-0.18301090598106384 -0.13107331097126007 0.4778240919113159
0.6121012568473816 0.3329435884952545 -0.1104007437825203
0.6181931495666504 -0.061051398515701294 1.7688937187194824
-1.1896740198135376 0.8005567789077759 -0.4127276837825775
-1.0051181316375732 -0.47436875104904175 -1.2468764781951904
-1.0051265954971313 0.2089335024356842 -0.18291248381137848
2.1447343826293945 0.43162664771080017 1.1141061782836914
2.0471346378326416 0.22536872327327728 -0.7284181714057922
1.857774257659912 -0.3928311765193939 -0.746972918510437
0.15657052397727966 -0.10923238098621368 -0.5121651887893677
-0.3739374876022339 0.12230803072452545 -0.5666463971138
-0.42632102966308594 0.8975417017936707 1.3181933164596558
-0.16151411831378937 -0.26820820569992065 0.9643324613571167
1.0081355571746826 -0.1782551109790802 -0.2864064872264862
-0.4116958975791931 -0.07295620441436768 -0.195692777633667
-0.49544376134872437 1.0693398714065552 0.17727725207805634
0.9847688674926758 0.07087452709674835 0.14779436588287354
2.0968563556671143 0.23242183029651642 0.3413841426372528
-0.06615881621837616 0.9685936570167542 1.11722993850708
-1.3880709409713745 0.9239680767059326 0.8098325729370117
1.041074275970459 0.09441438317298889 0.18953685462474823
-1.3375201225280762 0.06200362741947174 -0.9167607426643372
0.9614558219909668 0.9436661005020142 -0.3005581200122833
0.41469207406044006 0.42641961574554443 0.8860328197479248
2.0743472576141357 0.582034707069397 1.0645748376846313
2.511592388153076 0.35751259326934814 0.6440460085868835
0.6619588136672974 -0.3624061048030853 0.12672752141952515
1.2270644903182983 0.1932336390018463 1.502380609512329
1.6290076971054077 0.3706894814968109 -1.2324868440628052
3.076096296310425 -0.07100111246109009 -0.1272495687007904
2.585594892501831 0.6031550168991089 -1.0906165838241577
1.8928871154785156 0.5149451494216919 -1.422532320022583
0.024453405290842056 0.1342453509569168 -1.1700531244277954
2.0285115242004395 0.7226577997207642 -0.22542093694210052
2.2357306480407715 0.09565764665603638 0.01055149920284748
0.4997120499610901 -0.29661402106285095 -0.8206207156181335
0.9539545178413391 0.6942763328552246 -0.6494112014770508
-1.684786081314087 0.1346256136894226 0.7264174818992615
1.7299703359603882 -0.07611797749996185 -0.10109696537256241
-1.8623909950256348 0.7866538763046265 0.8125653266906738
-0.9599471092224121 0.7502410411834717 -0.19370092451572418
1.6899032592773438 -0.01794673502445221 -0.42977437376976013
-1.1507335901260376 -0.24413515627384186 0.2742396891117096
2.147298812866211 0.6526584625244141 -0.953007698059082
1.6468331813812256 0.09781502187252045 0.2900677025318146
-0.9181317687034607 1.1260372400283813 0.6457987427711487
-1.9142807722091675 0.4879825711250305 0.22820471227169037
0.26591309905052185 -0.215255469083786 -0.9720727801322937
3.0363099575042725 0.22361892461776733 -0.23860086500644684
-0.9469854831695557 0.1719713807106018 -1.2364193201065063
2.0471339225769043 -0.06944699585437775 0.4472198188304901
1.3914909362792969 0.13020484149456024 -0.39343884587287903
-0.9269679188728333 0.29836738109588623 0.8172507286071777
3.4090819358825684 0.1316252499818802 -0.5940784215927124
-1.8471317291259766 0.34913870692253113 0.8728933334350586
0.2792418301105499 0.2993059754371643 -0.03878677636384964
2.1183102130889893 0.48714718222618103 0.8816902041435242
-0.6097102761268616 0.4426380693912506 -0.6798487901687622
1.695082664489746 -0.21739697456359863 0.629079282283783
1.1198221445083618 -0.057722657918930054 -0.6184818148612976
1.36021089553833 -0.17268092930316925 -0.36021512746810913
-0.28091108798980713 -0.38332027196884155 0.717863142490387
2.7024221420288086 0.5171245336532593 -0.6512002944946289
0.8169894218444824 -0.046342939138412476 0.9823653101921082
-1.2496006488800049 0.009088188409805298 -0.44838574528694153
1.7909467220306396 -0.38681915402412415 -0.45112374424934387
-1.6495734453201294 -0.058201998472213745 0.21276827156543732
1.4923641681671143 -0.2645699083805084 0.1987287998199463
1.506567358970642 0.6405432820320129 0.487507164478302
1.0813047885894775 0.33202940225601196 -0.42088472843170166
1.2594295740127563 0.2548683285713196 -1.3074082136154175
2.8962550163269043 0.4831933379173279 -0.3669484555721283
-0.8254641890525818 0.04361547529697418 0.5740201473236084
-1.3100298643112183 -0.15864156186580658 0.33574581146240234
1.6109254360198975 0.3402613699436188 0.8489282727241516
0.3816419541835785 0.6820756196975708 0.1488526612520218
0.5140578150749207 0.04851321876049042 -0.8570790886878967
1.2214919328689575 0.2515692412853241 0.21366450190544128
1.7084863185882568 -0.3938371241092682 0.5798195004463196
-1.0010921955108643 -0.3222992718219757 -0.6987854242324829
2.331069231033325 0.042434096336364746 1.115909218788147
-2.150231122970581 0.38240134716033936 0.03809397295117378
0.6781308054924011 1.0039501190185547 0.19202540814876556
2.5355968475341797 0.13276273012161255 -0.5222622156143188
2.0292813777923584 0.46516478061676025 0.7561092376708984
1.5034254789352417 0.2754531502723694 1.1153614521026611
-0.0995209738612175 0.8886439800262451 0.08922518789768219
-1.803349256515503 -0.38378995656967163 0.6035342812538147
2.80679988861084 0.27000585198402405 0.1346084624528885
2.5551748275756836 -0.41726216673851013 0.10708560049533844
2.1660897731781006 0.5711773633956909 -0.42438632249832153
-1.8249191045761108 -0.09342890977859497 0.1261013150215149
-0.06327670812606812 0.8880060315132141 -0.6931928396224976
0.20963948965072632 0.9706482887268066 0.8877574801445007
0.35572507977485657 -0.02774915099143982 -0.100995272397995
-2.0313243865966797 0.050991207361221313 0.0706152468919754
1.0876678228378296 0.5632956027984619 0.4057251513004303
2.029503583908081 0.10953934490680695 0.4581442177295685
1.526982307434082 0.37116897106170654 -0.3683343827724457
1.49773108959198 0.7319083213806152 -0.6289135217666626
1.8437758684158325 0.561053454875946 -0.2899467945098877
0.1343201994895935 0.7617332935333252 0.645736038684845
-0.47480517625808716 0.057678163051605225 -0.7760618925094604
2.2791836261749268 -0.018771082162857056 -0.2901286780834198
-0.41020700335502625 0.7971196174621582 -0.18690110743045807
-1.8317769765853882 -0.34983888268470764 -0.7492431402206421
0.9638394117355347 0.03069394826889038 1.0395193099975586
2.1460697650909424 -0.14266179502010345 -0.3733188807964325
0.48314204812049866 -0.07093556225299835 -0.7007703185081482
-0.12610086798667908 0.3861330449581146 -0.40254873037338257
-1.0201395750045776 1.1146398782730103 -0.41206124424934387
0.8442314863204956 -0.26094064116477966 0.5194850564002991
2.200915575027466 -0.32189807295799255 0.435673326253891
2.4894018173217773 -0.14513160288333893 -0.7078129649162292
1.5031869411468506 -0.11405517160892487 0.11193970590829849
-0.6027793884277344 0.1802498698234558 -0.8088386058807373
1.7051984071731567 0.2404496818780899 0.34266939759254456
-1.2207423448562622 -0.35213252902030945 -0.9013703465461731
-1.1112703084945679 -0.2972533702850342 -0.4645853638648987
1.7893136739730835 0.3319234848022461 0.6244839429855347
2.299201488494873 0.6519824266433716 0.3442900776863098
0.17070364952087402 -0.3573606312274933 -0.06219860911369324
1.4221298694610596 -0.013775482773780823 1.1177424192428589
2.1014463901519775 0.40129244327545166 -0.0010310558136552572
-0.9350926280021667 0.007343888282775879 0.22260917723178864
-0.3584479093551636 0.2670580744743347 -0.18115730583667755
-2.156186580657959 0.17155830562114716 -0.21218341588974
-0.05126916989684105 0.1876739114522934 -0.6304523944854736
2.016813278198242 0.50295090675354 0.1587124764919281
-0.6746608018875122 -0.34822583198547363 -0.26053065061569214
2.3353240489959717 -0.33509814739227295 0.514487624168396
2.4984052181243896 0.28475266695022583 -0.7417678833007812
-0.027080755680799484 1.1770586967468262 -0.10230250656604767
2.441291093826294 -0.0854237824678421 1.0906074047088623
-0.479467511177063 0.30339640378952026 -1.0435935258865356
-0.13100893795490265 1.0076103210449219 -0.5608964562416077
-0.6751301884651184 -0.16776998341083527 0.6914682984352112
-0.30925512313842773 0.1918807476758957 -0.7133671045303345
0.42857322096824646 0.98850417137146 -0.06403877586126328
2.6519253253936768 0.21940821409225464 -0.6211207509040833
1.2560300827026367 -0.012724235653877258 0.9819258451461792
0.9515616297721863 -0.41093409061431885 0.5622550845146179
1.8722760677337646 0.5711719989776611 -0.7864946126937866
0.20691393315792084 0.4583817720413208 -0.694450855255127
-1.1305383443832397 0.8431593179702759 -0.35591456294059753
0.9709113240242004 -0.39133381843566895 -0.7368806600570679
0.2030174285173416 0.9059461355209351 0.11589815467596054
-1.8918319940567017 0.07694749534130096 -0.031486958265304565
-2.044266939163208 -0.06202857196331024 -0.4173503518104553
0.8158007264137268 -0.38734492659568787 -0.15667539834976196
2.719083786010742 0.5482016801834106 -0.8702612519264221
1.058739185333252 0.13418632745742798 0.5798507332801819
2.027294158935547 -0.32835695147514343 -0.3435356318950653
-1.284197449684143 0.028111353516578674 -0.15672916173934937
1.985775351524353 0.12053090333938599 0.5959042906761169
-0.6087537407875061 -0.02871689200401306 -0.9375950694084167
0.129093736410141 -0.06866662204265594 0.19469016790390015
2.3578078746795654 0.3622656464576721 0.41100698709487915
0.9158629179000854 -0.29776376485824585 -0.19449390470981598
0.9580760598182678 0.9450435638427734 0.9330849051475525
1.3373175859451294 -0.41136109828948975 -0.7847337126731873
2.3952832221984863 0.1336752325296402 -0.10118439048528671
1.2650126218795776 0.8754640817642212 -0.053717926144599915
-0.24203644692897797 1.0827560424804688 -0.190768763422966
0.6462152600288391 0.09241993725299835 0.6256551146507263
-0.5344496965408325 0.01842746138572693 -0.23626813292503357
2.4176504611968994 -0.25960004329681396 0.5235355496406555
2.2150161266326904 -0.12590211629867554 -0.7750100493431091
0.5954657196998596 0.7991477251052856 1.0053281784057617
1.5835096836090088 0.3826574683189392 0.8471941947937012
1.9858119487762451 0.04121525585651398 1.072200059890747
2.5965163707733154 -0.4023991823196411 -0.2885086238384247
0.8745434880256653 -0.02488541603088379 0.5232552289962769
2.7394816875457764 -0.4319530725479126 -0.23710264265537262
1.421283483505249 0.31246253848075867 -0.03535020723938942
2.0080509185791016 -0.37059783935546875 0.07657197117805481
-0.3189484775066376 1.0939501523971558 0.22828488051891327
2.304579734802246 0.6773126721382141 0.1330532282590866
-1.2652016878128052 0.3865681290626526 0.20095475018024445
1.1894229650497437 -0.3113924264907837 -0.16014981269836426
-1.1967647075653076 -0.18712638318538666 0.2883512079715729
2.230922222137451 0.12307865917682648 -0.6559720635414124
-1.144521713256836 0.24294467270374298 0.9680132865905762
1.4446388483047485 0.06498289108276367 -0.14256417751312256
-0.3748936355113983 0.10146917402744293 -1.2042752504348755
1.0223716497421265 0.7366864681243896 -0.287008136510849
2.000483751296997 -0.09242495894432068 1.0274561643600464
0.160299152135849 0.11315037310123444 0.6306674480438232
0.01271558552980423 0.7343292832374573 0.5321065187454224
0.8454983830451965 -0.015241235494613647 -0.34835827350616455
2.3291900157928467 0.35908183455467224 -0.31477469205856323
-1.9136531352996826 -0.03940442204475403 0.1871546357870102
-2.3493406772613525 0.08829650282859802 -0.6567787528038025
2.1696829795837402 -0.03326386213302612 0.005928659811615944
-0.11625770479440689 0.8399782180786133 -0.8848934769630432
3.1508333683013916 0.035019055008888245 0.36624711751937866
1.4903255701065063 -0.390045702457428 -0.652688205242157
1.3946759700775146 -0.42305952310562134 0.07045765966176987
2.6077940464019775 -0.4692564606666565 -1.2808595895767212
1.3210686445236206 -0.3638719618320465 0.11453873664140701
-1.5013844966888428 0.11515314877033234 -0.0019821387249976397
1.5861947536468506 0.7192771434783936 -1.0768072605133057
-2.277566432952881 -0.3102369010448456 -0.06961151957511902
0.5027801394462585 0.6140804290771484 1.083364725112915
0.815459668636322 0.2556350827217102 0.7667363882064819
-0.5802940130233765 1.0486875772476196 -0.18145664036273956
-0.1592499017715454 1.0537549257278442 -0.3867119252681732
0.29355883598327637 0.5205268859863281 0.7282344102859497
1.4199295043945312 0.04374898970127106 0.6257422566413879
0.44513773918151855 -0.3266814053058624 -0.3863512873649597
-1.4905436038970947 0.14609715342521667 1.2744100093841553
0.3861815333366394 0.06584146618843079 0.2756413221359253
0.8404484391212463 0.8446720838546753 0.7032623291015625
2.7723803520202637 -0.3995009958744049 -0.5893449187278748
1.0487720966339111 -0.28284555673599243 0.6787667274475098
1.9532262086868286 0.7818360328674316 0.1574326753616333
2.4999587535858154 0.5438469648361206 0.4524160623550415
0.3243330419063568 0.5214200019836426 0.08422514796257019
-0.46897783875465393 0.1126209944486618 0.785254716873169
2.1568737030029297 0.7159674167633057 0.344424843788147
-0.3960701525211334 -0.38402655720710754 -0.24396832287311554
0.41493842005729675 0.009868323802947998 -0.420087993144989
-1.7058274745941162 0.8287253379821777 0.34044426679611206
-1.8330652713775635 0.9459813833236694 0.030433904379606247
1.7907190322875977 0.2594913840293884 0.23685097694396973
0.11264563351869583 0.151678666472435 -0.04628613218665123
1.8236377239227295 0.36534252762794495 -0.10197345912456512
-0.40396061539649963 0.6509271860122681 0.21731653809547424
-0.9573712944984436 -0.31726962327957153 0.4964738190174103
2.493180751800537 -0.009384632110595703 0.43575435876846313
1.663196086883545 0.18877102434635162 0.21585233509540558
3.3019232749938965 -0.4220556616783142 0.033254023641347885
-0.8254185914993286 0.8026280403137207 0.37455907464027405
0.6856070756912231 -0.4305039644241333 0.7876828908920288
0.3413527309894562 0.5477726459503174 0.42052605748176575
2.219940423965454 0.3001742660999298 0.4149830639362335
1.5248191356658936 -0.13236366212368011 -1.0793288946151733
-0.28119105100631714 0.03046061098575592 0.42243677377700806
-0.647057056427002 0.29116493463516235 0.348287969827652
1.2613375186920166 0.17262239754199982 0.2415078729391098
1.146571159362793 0.8582003712654114 0.7753011584281921
2.4674153327941895 0.09830257296562195 -0.36454829573631287
3.1947412490844727 -0.3639862835407257 1.0134161710739136
2.9790947437286377 0.12100918591022491 -0.6090195775032043
2.841629981994629 -0.028648436069488525 0.1551949381828308
2.513154983520508 -0.09498737752437592 -0.45397433638572693
2.072312831878662 0.29284051060676575 -0.011504845693707466
0.8942574262619019 0.07988804578781128 -1.2357323169708252
2.251774787902832 0.12220488488674164 -0.4064365029335022
1.9549287557601929 0.5189577341079712 -0.7946333289146423
-0.6448749303817749 0.5646860003471375 -0.6166296601295471
1.7656141519546509 0.26394057273864746 -0.5538157224655151
-0.5960289835929871 -0.41908109188079834 -0.8308597207069397
1.8037008047103882 0.18710105121135712 -0.07245010137557983
2.7778635025024414 -0.16074565052986145 -1.022325038909912
-2.375673294067383 -0.2646529972553253 -0.13329344987869263
-1.271180510520935 0.03289903700351715 0.9009194374084473
0.9317250847816467 0.5051292777061462 0.12094809859991074
1.6278437376022339 -0.395223468542099 0.20050407946109772
1.3327085971832275 0.4797881245613098 0.35026615858078003
-0.06434851139783859 0.7042117118835449 0.9077246785163879
1.6153738498687744 -0.41882628202438354 0.11571957916021347
-1.0265107154846191 0.25987961888313293 0.05897943302989006
1.1966981887817383 0.06223234534263611 0.16789616644382477
-0.9090127944946289 -0.3223085403442383 -1.3846938610076904
-1.8217604160308838 -0.0698113739490509 -0.31128066778182983
2.4113736152648926 -0.11768636107444763 0.20885102450847626
0.458227276802063 0.020711630582809448 -0.4137325882911682
0.5081987977027893 -0.030798539519309998 -0.38479316234588623
1.9808558225631714 0.18845489621162415 0.934400737285614
1.7292715311050415 -0.09915982186794281 0.14385198056697845
0.8872836232185364 0.655754804611206 -1.3262884616851807
-1.2077120542526245 -0.1113542914390564 0.17746210098266602
-0.4192584753036499 0.6735825538635254 -0.5100956559181213
0.18566715717315674 0.9731795787811279 -0.519629180431366
-1.749520182609558 -0.04544004797935486 -0.06226377934217453
0.35803937911987305 -0.37881627678871155 -0.3167179822921753
2.1421029567718506 0.24227578938007355 0.6176067590713501
1.9472532272338867 0.4135758876800537 -0.20493173599243164
2.33369779586792 0.24424122273921967 -0.8791750073432922
1.2578492164611816 0.2631155252456665 0.19045120477676392
-0.42146235704421997 -0.3450382947921753 1.1323753595352173
1.2949309349060059 0.7418169975280762 0.4842478632926941
-0.6575641632080078 1.1725194454193115 -0.32371366024017334
-0.4305872917175293 0.9732990264892578 1.1629643440246582
-0.4727257788181305 0.8358651399612427 0.2568019926548004
1.3617331981658936 0.3270430266857147 0.4277017116546631
2.8234736919403076 -0.3898501694202423 -1.1579872369766235
1.1660829782485962 0.5659065842628479 0.49390533566474915
-0.5432196855545044 -0.2984827160835266 1.2757880687713623
1.3247315883636475 0.4952211081981659 0.4088972806930542
1.0138306617736816 0.3788740038871765 0.816977322101593
2.7359976768493652 0.21522562205791473 0.23658287525177002
-0.6010331511497498 -0.21463194489479065 -0.12267959862947464
2.815006971359253 -0.03676769137382507 -0.17535948753356934
-1.7212953567504883 0.8215101957321167 0.17284239828586578
2.2435433864593506 0.16356873512268066 0.9978429079055786
1.525713562965393 0.14418812096118927 0.47617828845977783
2.6202940940856934 0.5737650394439697 -0.24439243972301483
1.77016282081604 -0.012491211295127869 1.0482444763183594
3.1078073978424072 -0.23571167886257172 -0.14686506986618042
-0.5354006290435791 -0.3608781695365906 0.1303296536207199
1.5377628803253174 0.5235569477081299 -0.09638529270887375
0.9448594450950623 -0.13666820526123047 -0.11861256510019302
-0.4501911997795105 0.6305899620056152 0.5139836668968201
0.22570422291755676 0.9074606895446777 -0.508010983467102
1.7111701965332031 -0.39991486072540283 1.369780421257019
-0.49520984292030334 0.8573142886161804 -0.5284314155578613
2.3053359985351562 -0.21642975509166718 -1.12102210521698
1.1882665157318115 0.37758955359458923 -0.2928095757961273
1.3874579668045044 -0.5725979208946228 -0.5834569334983826
2.32824444770813 -0.2137840986251831 -0.3399116098880768
-1.5397011041641235 -0.08305226266384125 -1.2330974340438843
1.5829154253005981 0.18251904845237732 0.4704139232635498
-0.615787148475647 -0.3980744183063507 -0.7327635288238525
2.9273765087127686 -0.1510903686285019 0.048431944102048874
1.0005748271942139 -0.16958105564117432 0.9467057585716248
2.225785493850708 0.25862419605255127 0.46564194560050964
1.9417469501495361 0.2404567301273346 -0.040657270699739456
2.275620937347412 -0.4113686680793762 -1.311972975730896
0.3123752474784851 0.6947489380836487 -0.39141833782196045
1.7930288314819336 0.0818379819393158 -0.707775354385376
-0.5061256885528564 0.42748135328292847 0.7642049193382263
-0.13946004211902618 0.3469431400299072 0.36108362674713135
1.595502257347107 0.28427034616470337 -0.7129848003387451
1.93540358543396 -0.024137333035469055 -0.7508777379989624
0.764685869216919 0.1947154700756073 0.21970981359481812
2.912440299987793 0.5107095241546631 0.582511305809021
-0.6721985936164856 0.04973238706588745 0.5599184036254883
1.0738861560821533 -0.10248640179634094 -0.49733448028564453
-0.2764173448085785 0.8130162954330444 1.3208521604537964
-0.9386822581291199 0.346171498298645 0.005056809633970261
2.10980224609375 -0.37048208713531494 -0.43051645159721375
2.1903204917907715 -0.4034319519996643 0.394663542509079
-0.9101131558418274 -0.10309138894081116 0.8217556476593018
1.6202681064605713 0.5016652941703796 -0.7659208178520203
1.1575087308883667 0.11586534976959229 0.33980593085289
0.036183953285217285 0.9671013951301575 0.7665841579437256
1.6582192182540894 0.2911616265773773 -0.3543565571308136
-1.5432231426239014 -0.2508544921875 0.6124898791313171
3.003404140472412 0.18931591510772705 -0.7473874092102051
1.9050294160842896 0.6097190380096436 1.1277225017547607
0.5440037250518799 0.9461241364479065 1.0508580207824707
-0.48817601799964905 0.5333942770957947 -0.6689636707305908
2.42114520072937 -0.12609167397022247 0.34501081705093384
0.9850794672966003 0.1321331262588501 0.9535002708435059
-1.0333635807037354 -0.40092289447784424 -0.813194751739502
0.3739367127418518 0.30614304542541504 -0.5086521506309509
2.0779294967651367 0.13044999539852142 -0.1464284062385559
-0.3598826825618744 0.7540072798728943 -1.1435633897781372
-1.6131795644760132 0.2423459142446518 -0.7807972431182861
-0.3839225471019745 -0.2212994545698166 0.18510738015174866
2.3694238662719727 0.44559070467948914 -0.31051886081695557
1.9381606578826904 0.3593456745147705 0.19851043820381165
1.482756495475769 0.33357474207878113 -0.8910586833953857
1.6454967260360718 -0.177091583609581 1.300741195678711
2.46183443069458 -0.22766047716140747 -0.4884805977344513
-1.7150697708129883 0.19810841977596283 0.0888746827840805
1.3121180534362793 0.19074591994285583 -0.39603522419929504
2.6678390502929688 0.15177643299102783 -0.1807175576686859
1.046875238418579 0.39880597591400146 0.9495958089828491
2.009349822998047 0.49246203899383545 0.6409868597984314
-1.045074462890625 -0.7053673267364502 -1.680313229560852
1.3334009647369385 -0.38397106528282166 0.2376956045627594
1.4422876834869385 0.07865917682647705 -0.09354639798402786
-0.37820401787757874 -0.010788306593894958 0.13578914105892181
-1.332200050354004 0.6203813552856445 0.3049267530441284
-0.05175626650452614 -0.33996444940567017 1.0021215677261353
-1.3014142513275146 -0.22620508074760437 -0.38185375928878784
0.9742137789726257 0.7844374775886536 -1.4122493267059326
-0.24369072914123535 -0.0732259452342987 0.521911084651947
-2.115298271179199 0.31869134306907654 -1.0968681573867798
0.9568491578102112 0.8586791157722473 -0.42800891399383545
2.2570061683654785 -0.22100399434566498 0.017539802938699722
0.39472296833992004 -0.33500128984451294 -0.4596050977706909
1.5406925678253174 -0.08878922462463379 0.07830902934074402
-1.132069706916809 -0.306503564119339 0.8271572589874268
-0.4344652593135834 -0.5329245328903198 -1.0092999935150146
1.3227424621582031 -0.08481355011463165 -0.36521559953689575
2.273139715194702 -0.4465937614440918 0.33799684047698975
0.8557864427566528 0.5631455183029175 0.19593656063079834
2.011765241622925 0.08344630897045135 0.5835992097854614
-0.6110840439796448 0.079410120844841 0.7729998826980591
2.912015914916992 0.5533875823020935 -0.31112703680992126
1.8793625831604004 -0.43002772331237793 -0.007846113294363022
1.1749187707901 0.713929295539856 -0.322986364364624
-1.5807244777679443 0.2132289558649063 0.7335066795349121
2.384239673614502 0.05967584252357483 -0.3938291370868683
-0.6303005814552307 -0.1425718069076538 -0.9254077076911926
2.3498570919036865 0.5974446535110474 0.33974623680114746
-1.5017668008804321 -0.1285548210144043 0.5227642059326172
2.2323601245880127 -0.5240654349327087 -0.9531522393226624
-0.781005322933197 -0.3457168936729431 0.44980403780937195
0.1264941394329071 -0.4901408553123474 0.07589147984981537
2.3023366928100586 -0.2574310004711151 0.17922332882881165
1.7903382778167725 -0.4721553325653076 -0.7412462830543518
2.2832436561584473 0.4731525480747223 0.08404914289712906
0.9771457314491272 -0.18444840610027313 -0.975156843662262
1.8761650323867798 -0.19286523759365082 -0.4027709364891052
-2.384843111038208 -0.1905190795660019 0.2730247974395752
1.9828394651412964 0.009793296456336975 0.7896157503128052
-0.7351594567298889 -0.26937365531921387 0.0063720764592289925
-0.18028928339481354 0.774433970451355 0.2525951564311981
-1.627445936203003 -0.005443364381790161 0.6132383942604065
1.6668758392333984 0.35630446672439575 -0.4306506812572479
-1.4094154834747314 -0.3769467771053314 -0.6856433153152466
-0.9936375617980957 0.6903948783874512 0.01503086183220148
-0.7998224496841431 -0.19720688462257385 -0.3905467689037323
0.5908499956130981 -0.43885338306427 0.044212937355041504
1.8387395143508911 0.0791320949792862 0.010569245554506779
1.1238073110580444 0.23601989448070526 -0.3510177433490753
-1.3631768226623535 0.103647381067276 -0.5727828741073608
2.2817022800445557 0.22620940208435059 0.005981952417641878
-2.750230073928833 0.07030045986175537 -1.087403416633606
2.7648932933807373 0.23391777276992798 -0.13645902276039124
0.04249950125813484 0.148661270737648 0.10026924312114716
1.147449254989624 0.9813961386680603 0.7170645594596863
1.1314469575881958 -0.1163998395204544 0.4936976134777069
-0.446815550327301 0.8154380321502686 0.20420940220355988
0.9869585037231445 0.25023406744003296 0.6798210740089417
1.8165333271026611 -0.02504381537437439 -0.05183059349656105
1.5365411043167114 -0.19420935213565826 0.07845491915941238
1.5844398736953735 0.18060678243637085 0.1573060005903244
1.6704767942428589 -0.15384253859519958 -0.01438569650053978
2.1835970878601074 0.5811750888824463 -0.2509264647960663
1.9789097309112549 -0.41806817054748535 -0.2550661563873291
-1.0392814874649048 -0.6016857624053955 -1.2054482698440552
1.4844624996185303 0.39832383394241333 0.5024429559707642
0.7535142302513123 0.774404764175415 1.3325937986373901
2.7497551441192627 0.5814604759216309 -0.17372512817382812
1.9450533390045166 0.09699927270412445 -0.4238685965538025
-0.9063255190849304 1.036159634590149 0.12989695370197296
2.1659553050994873 -0.19170086085796356 0.6462609767913818
1.6220966577529907 -0.4477207064628601 -0.7983148694038391
1.462701678276062 0.8218092918395996 0.33430397510528564
1.5421136617660522 -0.4134449362754822 0.4114495515823364
-0.8639077544212341 -0.3886575400829315 -1.0011975765228271
-0.7570739984512329 0.5992234349250793 -0.3214995563030243
-1.4172992706298828 0.6714864373207092 0.5914870500564575
0.9573106169700623 -0.4298573136329651 0.18588022887706757
0.7022436261177063 -0.32453522086143494 -0.7850991487503052
0.2756538987159729 0.49824607372283936 -0.3126068115234375
-2.019235610961914 -0.02000996470451355 -0.18224655091762543
0.6492182612419128 0.9993772506713867 0.12933652102947235
0.8577734231948853 0.9467165470123291 -0.21335101127624512
0.09866788238286972 -0.38515588641166687 -0.9913311004638672
1.6202188730239868 -0.3814416527748108 -0.4666121006011963
0.45123690366744995 0.7738232016563416 0.3338897228240967
0.7340617775917053 0.7426716685295105 -0.4381254315376282
-0.8586921691894531 1.0794610977172852 -0.6387187242507935
2.012270212173462 -0.1891048699617386 0.10995078086853027
-1.3060981035232544 0.22206218540668488 0.7518868446350098
1.4349230527877808 0.6124274134635925 0.8714926242828369
-2.2206814289093018 0.3353234529495239 0.0626344159245491
-1.3666913509368896 -0.06295576691627502 -0.5474717020988464
2.482250690460205 0.0012976974248886108 -0.8170768618583679
-1.111210823059082 0.3095785975456238 -0.8959003686904907
-1.2626057863235474 0.9400526881217957 -0.3358173072338104
0.5963872671127319 0.7002829909324646 0.6234356164932251
-1.0862345695495605 0.6767684817314148 0.1501559615135193
1.8202100992202759 0.08896388113498688 1.2604022026062012
1.0112005472183228 0.65788334608078 0.5187138915061951
2.4464735984802246 0.2641514539718628 -0.5107697248458862
2.0440924167633057 0.11682853102684021 -0.05587201938033104
-0.07527296990156174 0.0835028737783432 -0.046811286360025406
2.1113674640655518 0.4799235165119171 -0.8424829244613647
1.8463932275772095 -0.00852973759174347 0.07684667408466339
-0.057668931782245636 1.0891987085342407 -0.15264207124710083
0.014203444123268127 -0.18290302157402039 0.5763787031173706
-0.6358551979064941 -0.16955849528312683 -0.7511008381843567
1.1943776607513428 -0.05178527534008026 0.49979302287101746
-1.878807783126831 0.31866031885147095 0.5405688285827637
3.0514588356018066 -0.006312236189842224 -0.8063728213310242
-0.7276194095611572 0.477377712726593 -1.137724757194519
1.5757405757904053 -0.027507543563842773 -0.48775264620780945
3.0675058364868164 -0.14722394943237305 -0.21621131896972656
-0.8625509738922119 0.2308511584997177 -0.4362761974334717
0.07684996724128723 -0.13717468082904816 0.1515859216451645
0.39250749349594116 0.017603501677513123 1.2505816221237183
2.0777037143707275 -0.33417144417762756 0.17924198508262634
0.4583685100078583 -0.2850698232650757 1.300092101097107
1.7493312358856201 0.11027231812477112 0.29905474185943604
0.2766526937484741 0.24583321809768677 1.332205891609192
2.0704920291900635 -0.40151849389076233 -0.5732288956642151
-1.2959142923355103 0.1397160291671753 -0.4769425690174103
2.2733664512634277 0.33623868227005005 0.4624219238758087
1.5778887271881104 0.2665279805660248 0.364848256111145
-1.0742955207824707 0.3155249357223511 0.4434032142162323
-0.1004452183842659 -0.4109598994255066 -1.3274365663528442
1.6773521900177002 0.4758238196372986 -0.6537500619888306
-0.9419423937797546 0.4097951650619507 -0.6671777963638306
0.023800261318683624 -0.5235756039619446 -0.9266470074653625
1.1423406600952148 1.060499668121338 0.43949171900749207
2.9566287994384766 -0.3766081929206848 -0.21646453440189362
-0.8118350505828857 0.6822726130485535 0.808932900428772
0.7890276908874512 0.06569896638393402 0.17581598460674286
0.8840214610099792 0.21325695514678955 1.093942642211914
0.13418735563755035 0.6723635792732239 0.6450120210647583
0.6792818307876587 -0.24072006344795227 0.1624118685722351
2.4559357166290283 -0.37743958830833435 -0.6472625136375427
2.0892210006713867 -0.4546997547149658 -1.3474334478378296
0.421447217464447 -0.12996526062488556 -0.7502573728561401
0.05287173390388489 0.7506850957870483 0.450565367937088
0.01744263619184494 0.9293384552001953 -0.14017848670482635
-0.27233266830444336 0.7623109817504883 -0.5832918882369995
0.9189136028289795 -0.228067085146904 0.639729380607605
2.467010021209717 -0.3681274950504303 -0.27997416257858276
0.14688321948051453 0.39446109533309937 -0.00705140084028244
1.8809597492218018 -0.3674628734588623 0.11936777085065842
1.8349621295928955 -0.1600598245859146 0.342471718788147
0.19225260615348816 -0.4345703125 0.275776207447052
-1.0798577070236206 0.44642502069473267 1.2024359703063965
1.881806492805481 -0.07134988903999329 0.9053575992584229
2.0883023738861084 0.40257441997528076 -1.063923716545105
3.0540072917938232 -0.3885258436203003 0.5260461568832397
-1.2883341312408447 0.7552803754806519 -0.9578662514686584
1.9614365100860596 0.29398077726364136 0.6003236174583435
1.6937822103500366 0.3662995398044586 0.497411847114563
0.7259499430656433 -0.07539048790931702 0.9217800498008728
1.7449707984924316 -0.33443325757980347 -1.3004308938980103
1.9184200763702393 0.05616433918476105 0.31442829966545105
2.920711040496826 0.038344621658325195 -0.30116644501686096
1.5107529163360596 -0.04252728819847107 0.2915847599506378
2.038337469100952 -0.445617139339447 0.32538720965385437
-0.9370254278182983 0.39536648988723755 0.3562472462654114
0.936141312122345 0.4350005090236664 1.5509142875671387
-1.210159420967102 -0.37644559144973755 0.279403954744339
-2.4260168075561523 -0.22994060814380646 -0.7061111927032471
-0.04793616011738777 0.018864527344703674 -0.08236116915941238
-1.0983585119247437 -0.02160555124282837 1.2893420457839966
2.1397645473480225 -0.42326509952545166 -0.23917458951473236
-1.146267294883728 0.06991955637931824 -0.1271819770336151
-0.09745406359434128 0.4410107433795929 0.5546728372573853
1.7175328731536865 -0.27787914872169495 -0.5268186926841736
2.687364339828491 0.291187047958374 -0.824860692024231
-1.7134058475494385 -0.3102176785469055 -0.5856986045837402
-0.5435876846313477 -0.1822860836982727 0.22141122817993164
1.5330451726913452 0.6756885647773743 -0.7458154559135437
-1.3808808326721191 0.8463121056556702 0.14653776586055756
1.6684499979019165 0.0319560170173645 0.7369152903556824
-1.3840488195419312 0.31172168254852295 -0.3474074602127075
-2.2242207527160645 0.18839824199676514 -0.8913754820823669
0.9727315306663513 0.49377620220184326 0.0025816992856562138
-1.5377883911132812 0.21903270483016968 -0.9164442420005798
-1.4100961685180664 0.6193353533744812 0.7050076127052307
1.5413461923599243 0.26982593536376953 -1.3275924921035767
2.1765553951263428 0.502066969871521 0.39467549324035645
1.3036298751831055 0.2598648965358734 1.040330171585083
1.3170692920684814 0.10972777009010315 -0.1495324820280075
-0.9298300743103027 -0.3707433044910431 0.4423978924751282
1.9416264295578003 0.1736234575510025 -0.03895103558897972
1.7258046865463257 -0.37170153856277466 0.6154080629348755
0.8033770322799683 -0.09829108417034149 -0.5283144116401672
2.8597044944763184 -0.36951836943626404 -0.5656282305717468
0.3256908357143402 0.1947459727525711 -0.4882254898548126
0.9082784652709961 -0.14554670453071594 -1.2391914129257202
1.5228867530822754 0.6036645174026489 -0.25152477622032166
1.7109488248825073 -0.2281196266412735 -0.5134260654449463
0.47791749238967896 0.22453908622264862 -1.092212200164795
2.3004519939422607 -0.4936235547065735 1.0043926239013672
-0.07776541262865067 0.7750881910324097 0.3013807535171509
0.8428417444229126 -0.0882607251405716 0.8528051972389221
2.266181230545044 0.49951812624931335 -0.6949859857559204
-1.165428638458252 0.533475399017334 1.1262600421905518
1.3842581510543823 0.1779685616493225 -1.2193753719329834
0.9718202352523804 -0.09016916155815125 -0.7994223237037659
0.26403316855430603 0.7364981770515442 0.13116061687469482
0.11791442334651947 0.4233933687210083 -0.2182845175266266
2.526217222213745 0.16232839226722717 0.5424719452857971
-0.850858211517334 -0.4029430150985718 -0.31446167826652527
1.1882612705230713 0.6364109516143799 -0.5057551264762878
1.4396599531173706 -0.2753066420555115 -0.9212362766265869
-0.4692665934562683 -0.03357855975627899 -0.31734976172447205
0.8083866834640503 -0.3678089380264282 -0.8974656462669373
1.7661361694335938 0.01124677062034607 0.5023939609527588
-0.4627206027507782 -0.1477862149477005 -0.46107640862464905
1.560562014579773 0.41131141781806946 -0.16157065331935883
-0.34653425216674805 -0.335854709148407 -0.24125972390174866
-1.1850767135620117 0.7997474670410156 0.50779789686203
-1.511625051498413 0.47145339846611023 0.45999473333358765
1.663604974746704 0.1855841726064682 -0.08334103226661682
2.3941564559936523 0.05380268394947052 0.7874295115470886
0.2770528197288513 1.0194816589355469 0.6357856392860413
2.2038614749908447 0.6754372715950012 0.5820919871330261
1.9344300031661987 0.028480976819992065 -0.2261296510696411
0.7920451164245605 -0.3679638206958771 0.2876431941986084
-1.9895399808883667 -0.23287105560302734 0.5061501860618591
2.657844305038452 0.034590959548950195 1.3610631227493286
-1.8837261199951172 0.5340514779090881 -0.8846723437309265
3.129227638244629 0.38373517990112305 0.7102402448654175
-0.18312056362628937 -0.3534907400608063 0.2916790246963501
0.5286130905151367 0.3917608857154846 1.2580361366271973
2.1962411403656006 0.2325029969215393 -0.017404010519385338
-1.0956143140792847 0.6414539217948914 -0.5625630021095276
-2.0154905319213867 -0.20056812465190887 -0.5774323344230652
1.622125267982483 0.15060096979141235 0.4405894875526428
2.0173401832580566 -0.2129652500152588 0.35195136070251465
0.14199218153953552 0.1607956737279892 -0.6054955124855042
0.8123205304145813 0.710729718208313 -0.39112263917922974
0.4395463466644287 0.10307051241397858 0.08138871192932129
-1.0688228607177734 0.36907246708869934 1.256547451019287
1.0902899503707886 0.46753832697868347 1.2382131814956665
-0.6682174801826477 1.1083626747131348 0.6064449548721313
1.9852890968322754 0.0210874080657959 0.9077280759811401
-0.09789440780878067 0.6036752462387085 1.1060867309570312
0.08118177205324173 0.47676169872283936 0.9729341864585876
2.97021222114563 -0.25373873114585876 -0.6615176200866699
2.027491331100464 0.16215094923973083 -0.2889859974384308
0.43881291151046753 -0.2639283537864685 -1.0063303709030151
-0.447896271944046 0.08308744430541992 0.46875259280204773
0.9722789525985718 0.3712746798992157 0.8890547752380371
1.537188172340393 0.1286289393901825 0.5554460287094116
0.6260000467300415 -0.08873675763607025 0.9184515476226807
-0.4395352005958557 -0.3665482699871063 1.145070195198059
0.5979914665222168 1.0079584121704102 0.8215518593788147
1.1008089780807495 0.4363398849964142 0.8849719762802124
0.30823051929473877 -0.3531092405319214 0.21655742824077606
1.8986034393310547 0.11670184135437012 -0.02803802490234375
0.5697827339172363 -0.3802303671836853 -1.2679457664489746
2.715435266494751 -0.19918383657932281 0.43245989084243774
1.615344762802124 0.7282032370567322 -0.38832899928092957
1.8367995023727417 -0.3827299177646637 0.7730549573898315
1.9523670673370361 0.34608185291290283 -0.042222827672958374
2.1350836753845215 0.027829080820083618 0.11061670631170273
0.6121742725372314 0.8190308809280396 -1.376407504081726
2.0598111152648926 0.09188540279865265 -0.797549307346344
0.5666705369949341 0.25933730602264404 0.041346970945596695
2.303877115249634 0.02832639217376709 -0.47219863533973694
1.4935040473937988 0.0753936767578125 -0.8228257298469543
0.1441326141357422 0.05013948678970337 0.5414959192276001
2.722306728363037 0.15891247987747192 -1.2732361555099487
1.9022033214569092 -0.4468534588813782 0.44450247287750244
2.1439895629882812 -0.3102288246154785 1.2154511213302612
1.1743870973587036 0.010483041405677795 1.4606006145477295
1.8914308547973633 -0.02403438091278076 0.1505827009677887
2.637929916381836 0.3332396149635315 -0.6232739686965942
-0.1193513423204422 -0.0909179151058197 -0.5846695303916931
1.069326639175415 0.2332332730293274 -0.10273459553718567
-0.08739180117845535 -0.032736748456954956 -0.6412119269371033
2.1569182872772217 -0.172459676861763 0.6227343678474426
-1.2057138681411743 0.9990755319595337 -0.00647049630060792
2.196739912033081 0.19094708561897278 0.6279194355010986
1.6989802122116089 0.27713316679000854 0.15964628756046295
1.119194746017456 0.28327006101608276 1.2159159183502197
0.8029118776321411 0.6002669930458069 -0.3970721960067749
-1.666925311088562 0.08729776740074158 0.06087002530694008
1.7715694904327393 0.4726596474647522 -0.6531805396080017
-0.0073909759521484375 0.6235539317131042 -0.24934042990207672
1.3623740673065186 -0.2714667320251465 0.5822824239730835
2.4356887340545654 -0.5457393527030945 0.9488211870193481
1.5963417291641235 -0.28795626759529114 0.15865814685821533
-0.156998872756958 0.6208966374397278 0.029683798551559448
-1.727154016494751 -0.3516297936439514 0.010677136480808258
1.8212528228759766 -0.3601597547531128 -0.90924072265625
-1.8814469575881958 0.23440031707286835 -0.2675088047981262
-0.22541742026805878 0.5805602669715881 -0.5499315857887268
-0.3798823654651642 0.8776991367340088 -0.4926270842552185
-0.3898048400878906 0.8236651420593262 -0.4265381097793579
0.9033693671226501 0.7377556562423706 -0.7206254005432129
2.623556613922119 -0.13104942440986633 -0.6871753931045532
2.749370813369751 -0.3644745647907257 0.04653248190879822
-0.6253701448440552 0.4068163335323334 -0.12254510819911957
1.132784128189087 0.36614900827407837 -0.7019438743591309
0.9923631548881531 0.6316279172897339 -1.442587971687317
2.641334295272827 0.6198346614837646 0.19640254974365234
0.06295149773359299 0.4401862621307373 -1.3300670385360718
2.2800164222717285 -0.11795209348201752 1.021938443183899
-1.9190115928649902 0.3043796718120575 0.77810138463974
0.18614989519119263 0.29655972123146057 0.8076200485229492
2.199399471282959 -0.27091193199157715 0.9616472125053406
2.201259136199951 0.513645350933075 -0.7197529673576355
0.009849488735198975 -0.3331073522567749 0.4187910258769989
1.9806076288223267 -0.27777230739593506 0.2503461241722107
2.288956642150879 0.22516129910945892 -0.8322897553443909
-0.4381794333457947 -0.17938581109046936 -0.566487729549408
1.1642636060714722 -0.31219327449798584 0.6770110726356506
1.7693285942077637 -0.26276838779449463 0.1807582676410675
2.0465633869171143 -0.2002551555633545 -0.31517696380615234
-1.0296909809112549 0.1286601722240448 -0.18547970056533813
1.0024672746658325 -0.3984536826610565 -0.3898351490497589
-0.45987775921821594 0.24493789672851562 -0.7340537905693054
0.7232558727264404 0.4337939918041229 0.9808182120323181
-0.4367920756340027 1.0377808809280396 0.9391829371452332
3.0176219940185547 -0.3161977529525757 -0.20555327832698822
-1.298519253730774 0.8045820593833923 -0.8252776861190796
1.7225358486175537 0.2762618660926819 -0.4317939579486847
-1.082663893699646 0.5096297264099121 0.6897571086883545
-0.7577764987945557 0.6001232266426086 0.5644526481628418
0.0547734871506691 -0.3404862582683563 -1.3494430780410767
1.6485837697982788 0.1754320114850998 0.7813254594802856
1.8298174142837524 0.06819657981395721 -0.1987282782793045
-0.7189709544181824 -0.22266525030136108 1.3550598621368408
-0.018812231719493866 0.36459434032440186 0.37225258350372314
0.8299794793128967 0.18111743032932281 -0.8460433483123779
1.9498658180236816 0.3927382230758667 -0.7783068418502808
1.547910213470459 0.5138060450553894 0.1925535947084427
1.3239575624465942 0.5382680892944336 0.8706176280975342
0.3060685098171234 0.9080933332443237 -0.7164596915245056
2.0078351497650146 0.20911215245723724 -0.7309224009513855
1.2315465211868286 0.3371051251888275 -0.6365422010421753
1.504104495048523 0.05053754150867462 -0.11507708579301834
-0.9882827997207642 -0.2287265658378601 0.03664104640483856
2.325434923171997 -0.29054200649261475 -0.5206257104873657
-1.4991331100463867 0.2867834270000458 -0.7129383683204651
0.05579661577939987 0.9399109482765198 0.11076530069112778
1.8079782724380493 -0.15192914009094238 -0.48688820004463196
-1.426148772239685 0.8456368446350098 -0.014945653267204762
2.377654790878296 0.07481127977371216 -0.12259533256292343
-1.4297146797180176 0.5384443402290344 -1.0672310590744019
1.2002017498016357 0.15065637230873108 0.46748143434524536
1.0277702808380127 -0.2827267050743103 0.4383004307746887
1.9069815874099731 0.15562133491039276 0.3030780255794525
-1.07511305809021 0.5421161651611328 -0.6656067967414856
-1.39078950881958 0.5639476776123047 -1.194778561592102
1.7087838649749756 0.7417649030685425 -0.4866461753845215
1.0146126747131348 0.7403952479362488 -0.2599601745605469
1.8214702606201172 -0.32039910554885864 0.2820357084274292
-1.27206552028656 0.04123890399932861 -1.188030481338501
1.3672339916229248 -0.07320763170719147 -0.13194924592971802
1.3837215900421143 0.40196600556373596 0.36698415875434875
-0.8424105644226074 -0.3464736044406891 -0.1889914721250534
0.1905832290649414 0.7436076998710632 -0.6868158578872681
-0.047174759209156036 0.8980684280395508 0.7891978621482849
-0.022799599915742874 0.506105899810791 0.04411208629608154
-0.3663184344768524 0.46567457914352417 -0.9405608177185059
1.8769251108169556 0.7431854605674744 0.6216692328453064
2.462634801864624 -0.41815799474716187 0.2264731377363205
0.5352044105529785 0.9433626532554626 -0.07374077290296555
-0.9652349352836609 0.23955729603767395 -0.1899387240409851
-2.0409016609191895 -0.07474365830421448 -0.08259674161672592
1.4430936574935913 0.4914475977420807 0.3965792655944824
-0.01389215886592865 0.5048055052757263 0.5257591605186462
1.3788706064224243 0.478819876909256 0.965295135974884
-1.664753794670105 0.23472879827022552 0.6367319822311401
1.6640530824661255 -0.39692696928977966 -0.20089314877986908
1.1370991468429565 0.045573338866233826 -0.9276030659675598
-0.5652402639389038 0.6668135523796082 0.8468130826950073
1.7002208232879639 -0.39673441648483276 -0.5304908156394958
2.2704238891601562 0.1433839648962021 -0.3085477948188782
1.5488064289093018 0.12764330208301544 0.757289707660675
-1.53596830368042 0.408632755279541 -0.07928376644849777
0.5937650799751282 -0.3824121654033661 -0.15787425637245178
-0.8890156745910645 -0.35083630681037903 0.9129623174667358
2.0440564155578613 -0.3648901879787445 -1.3537864685058594
-0.8364739418029785 -0.11959861218929291 -0.6725886464118958
0.901099443435669 -0.3688121736049652 0.06404690444469452
2.837413787841797 -0.25647789239883423 0.8845943808555603
1.419047236442566 0.11005513370037079 1.2947195768356323
1.0702506303787231 -0.4219685196876526 0.08327677845954895
-0.4724704623222351 0.12016157805919647 0.9741740822792053
0.8013525605201721 1.0188179016113281 0.15718026459217072
2.967851400375366 -0.3734111785888672 -0.3168390691280365
-2.280754804611206 0.6021665930747986 0.2561766505241394
0.6383981704711914 0.8911694884300232 0.5358404517173767
-1.4132146835327148 0.5746176242828369 -0.48508283495903015
0.833997905254364 -0.1282661110162735 0.2758346498012543
-1.2143386602401733 0.08736808598041534 0.09792403131723404
-1.4593563079833984 0.11693036556243896 -0.23646223545074463
-0.3929596543312073 0.4805384576320648 1.2929885387420654
0.9424948692321777 -0.057939112186431885 0.5788881778717041
-0.33696919679641724 -0.24519389867782593 -1.0868667364120483
1.084113597869873 0.25834858417510986 0.62869793176651
0.7662681937217712 0.6090445518493652 0.02380760759115219
0.488174706697464 0.9770219326019287 0.9819555878639221
1.4872097969055176 0.1295740008354187 -0.5977757573127747
1.3969014883041382 0.3408282995223999 -0.31545501947402954
-2.431182622909546 0.9242703914642334 -0.32378992438316345
0.496439665555954 1.0438427925109863 0.34111136198043823
2.7764856815338135 0.11966677010059357 -0.10732567310333252
2.1289587020874023 0.21197794377803802 0.15702466666698456
2.082308769226074 -0.05528968572616577 0.4963969588279724
-1.4493281841278076 -0.030701681971549988 -0.9041629433631897
-0.3768657445907593 0.3671388626098633 -0.6744700074195862
2.729499101638794 0.5780415534973145 -0.5374036431312561
2.4899654388427734 0.12030743062496185 -0.6571000814437866
-1.1561462879180908 -0.2484467476606369 0.33640971779823303
2.3387291431427 -0.3481367826461792 0.9949207901954651
-1.6567679643630981 -0.37763386964797974 -0.9885640740394592
0.18596044182777405 0.8172560334205627 0.4597070813179016
0.7950840592384338 0.27044251561164856 0.3548019826412201
-1.1248157024383545 0.9191399216651917 0.5392186641693115
1.9095704555511475 0.4785583019256592 -0.7110550999641418
-0.2998870015144348 0.23709271848201752 -0.3783278465270996
0.19747814536094666 0.42842909693717957 0.7923816442489624
0.891595184803009 0.24985797703266144 -0.7231312394142151
0.5339033007621765 -0.30712762475013733 0.12194064259529114
