ply
format ascii 1.0
element vertex 812
property float x
property float y
property float z
end_header
-1.5968759059906006 0.4407294988632202 1.51393461227417
2.5868682861328125 -0.13552309572696686 0.2674499750137329
1.4311001300811768 -0.5661730766296387 1.1076653003692627
0.5078167915344238 0.3315185308456421 -0.10803446918725967
-0.9568263292312622 0.518906831741333 -1.3247591257095337
1.8499977588653564 0.45924726128578186 -0.9748767018318176
-1.6119927167892456 0.9571029543876648 0.3210015296936035
-2.145578384399414 0.02075950801372528 0.5733543634414673
-1.4926822185516357 -0.57054603099823 -0.6149054169654846
1.1176841259002686 -0.2352229803800583 0.826998770236969
1.0075044631958008 0.1596081256866455 0.9795913696289062
-1.1927651166915894 -0.5581389665603638 -0.3923402726650238
-0.9000639319419861 1.0046619176864624 0.2392910122871399
-1.4338146448135376 0.945178747177124 0.4461037218570709
1.6512267589569092 -0.2712394893169403 -0.6281840205192566
-1.0582176446914673 1.0281615257263184 0.4973888397216797
2.479069709777832 -0.1478964388370514 0.48252132534980774
1.0342309474945068 -0.5925946235656738 -0.04636261612176895
0.6900568008422852 -0.5339978933334351 -0.26771247386932373
0.16741305589675903 0.8458414077758789 0.7535214424133301
-0.031993478536605835 0.7249256372451782 0.6785197257995605
2.297189474105835 -0.061134859919548035 0.4178576171398163
2.663304090499878 -0.1128973513841629 0.893219530582428
-2.1034867763519287 -0.05704537034034729 -0.2733738124370575
0.22774869203567505 0.014053240418434143 -0.11247056722640991
-1.5882794857025146 -0.13950206339359283 0.36836153268814087
-1.405798316001892 0.001386001706123352 0.6750563979148865
-2.9436147212982178 0.5757381916046143 0.11859097331762314
-2.638906955718994 0.48126715421676636 0.25004842877388
-1.1126933097839355 0.6127188205718994 -0.5699989199638367
-2.0267181396484375 0.38930732011795044 0.9562183618545532
1.9334431886672974 -0.05740883946418762 0.3361882269382477
2.076735258102417 0.4158891439437866 0.7094194889068604
0.10693452507257462 1.1083210706710815 0.22848282754421234
1.7109819650650024 -0.33727359771728516 0.024215102195739746
-0.9430973529815674 -0.5654820203781128 0.5772689580917358
-0.955925464630127 0.02625170350074768 -0.2265688180923462
-1.8977680206298828 0.35440024733543396 -0.9434444904327393
1.9064640998840332 0.17600956559181213 -0.8363082408905029
-0.9681733846664429 -0.12149763107299805 0.30831268429756165
-2.055372476577759 -0.18971256911754608 0.9418975114822388
-2.256154775619507 -0.5473604798316956 0.8490375876426697
1.1316636800765991 -0.5825302004814148 0.20372608304023743
-1.4293997287750244 -0.5775480270385742 0.5348828434944153
-0.84085613489151 0.0050778985023498535 0.9580267667770386
-1.781968355178833 0.30532875657081604 -0.11321358382701874
1.6983411312103271 -0.1567527949810028 -0.505184531211853
3.1183674335479736 0.07727919518947601 0.4347969889640808
-0.13862290978431702 0.7790870070457458 1.0436768531799316
2.522745132446289 0.060825496912002563 0.1228988766670227
-1.0850178003311157 -0.5425299406051636 0.04253016784787178
-1.2663593292236328 0.7776979207992554 0.9025697112083435
0.9121036529541016 -0.1873820275068283 0.2476939857006073
-1.664966106414795 -0.4826095700263977 0.5734366774559021
-2.7028143405914307 0.4641300439834595 0.7160047888755798
-0.734309196472168 -0.23024998605251312 -0.31804028153419495
-1.4273078441619873 -0.5688154101371765 0.3563549816608429
-1.3543801307678223 -0.3519839644432068 -1.3404309749603271
-1.5834424495697021 0.752324104309082 0.3474434018135071
-1.2657346725463867 -0.5887534022331238 -0.418876588344574
-2.4137449264526367 0.0931861400604248 0.7905557155609131
-1.8613097667694092 -0.08968067169189453 0.12978555262088776
1.350380778312683 -0.6200670599937439 0.08775527030229568
0.0647883266210556 0.5846160650253296 0.8248835802078247
-1.4342262744903564 -0.3226364254951477 -0.21369235217571259
-1.8223384618759155 0.3588712811470032 -0.8372489809989929
1.8907947540283203 -0.32687896490097046 0.7702491283416748
-2.367449998855591 0.6768006086349487 -0.7487696409225464
-1.6871564388275146 -0.3774144649505615 0.2079923003911972
2.0354511737823486 -0.3473207950592041 -1.1174300909042358
-1.8796870708465576 -0.00607830286026001 0.42008018493652344
-0.015543278306722641 0.027282655239105225 -0.2224258929491043
0.7036965489387512 0.6582459211349487 0.5648504495620728
-0.28573447465896606 -0.20290355384349823 -0.7267575860023499
2.057097911834717 0.01670822501182556 -0.8934552669525146
-2.3424761295318604 0.47859251499176025 -1.0645804405212402
2.600452423095703 -0.27091097831726074 -0.37214943766593933
1.8079686164855957 0.6787301301956177 0.008884916082024574
1.7668023109436035 -0.051626548171043396 -0.37977612018585205
-1.4378490447998047 0.5943821668624878 0.1567176729440689
-0.6620337963104248 -0.5523133277893066 -0.8099522590637207
1.2329885959625244 0.4088480770587921 0.2589942216873169
-1.155791163444519 -0.08883634209632874 -0.4835945665836334
2.2615468502044678 0.2885674238204956 -0.6837063431739807
-0.5485691428184509 -0.5394560694694519 1.0515810251235962
1.721108078956604 0.49969038367271423 0.37882354855537415
-1.5364404916763306 0.5037381649017334 -1.3429405689239502
-0.17331469058990479 -0.5456966161727905 -0.35748550295829773
-1.399642825126648 0.5696465969085693 -0.5639752149581909
2.2771313190460205 -0.5849344730377197 -0.13689222931861877
-1.7255492210388184 0.1929337978363037 -0.8142871260643005
-2.6926636695861816 -0.05325116217136383 -0.7957645654678345
-1.8824732303619385 -0.2279825359582901 -0.13141410052776337
1.5920047760009766 0.509601354598999 -0.7544155716896057
-1.5755267143249512 -0.06588193774223328 -0.7262134552001953
2.368558406829834 -0.5879582166671753 0.7499451637268066
-0.3844867944717407 0.881608247756958 1.4082638025283813
0.5847004652023315 0.7892130613327026 0.7318925261497498
0.6519516110420227 -0.13292460143566132 -0.3692604601383209
-1.1063610315322876 0.348422646522522 -0.7176814079284668
-2.0632030963897705 -0.40820789337158203 0.8836996555328369
0.5921325087547302 -0.10686706006526947 -0.14241144061088562
-1.430295467376709 -0.0012164264917373657 -0.7215926051139832
-1.6992814540863037 0.4655988812446594 1.3705142736434937
-0.4561518132686615 -0.5438566207885742 0.7411421537399292
1.8013361692428589 -0.19826702773571014 -0.5815259218215942
1.2494162321090698 0.8022079467773438 -0.015134512446820736
-1.1356106996536255 0.3180558681488037 -0.7165413498878479
-2.52388072013855 -0.5308162569999695 0.6153082847595215
2.989321231842041 -0.4902062714099884 0.1313050538301468
1.2450056076049805 -0.3363330662250519 -0.2510472238063812
0.5665360689163208 0.0821487307548523 -1.4510211944580078
-1.6296591758728027 -0.6586699485778809 1.2974746227264404
-0.26673623919487 1.0174013376235962 0.27165475487709045
1.0763221979141235 -0.15356159210205078 -0.28115004301071167
0.6709650158882141 -0.16518427431583405 -0.5188968777656555
-2.0113956928253174 0.37058520317077637 0.2081051915884018
-0.06722051650285721 -0.10187976062297821 0.11599772423505783
1.8765525817871094 0.4617979824542999 -0.25974521040916443
1.8999388217926025 0.10984256863594055 -0.2190156728029251
-0.5680103898048401 -0.5361511707305908 0.806460440158844
0.4720533490180969 0.3036358952522278 -0.8063713908195496
1.6198320388793945 -0.2828121483325958 -1.4072545766830444
-1.5795100927352905 0.11065730452537537 -0.6845843195915222
-2.3564536571502686 0.9400118589401245 0.17284834384918213
2.0761048793792725 -0.06861655414104462 -0.24933353066444397
-1.9234660863876343 -0.5723145604133606 0.6596832871437073
-2.128770589828491 -0.37541234493255615 -0.28359055519104004
2.2501604557037354 -0.5637052655220032 0.21850799024105072
-0.21732757985591888 0.4735431373119354 0.4310075640678406
2.2436437606811523 -0.5264231562614441 -0.11379803717136383
0.8629977703094482 0.5647017359733582 -0.37690091133117676
2.5436599254608154 -0.428447961807251 -0.8406345248222351
-1.926888346672058 0.7840327024459839 0.6794409155845642
-2.766341209411621 0.3204615116119385 0.14548549056053162
-1.5768630504608154 -0.016378775238990784 0.27390360832214355
-0.048525210469961166 0.11039488017559052 -0.5988519787788391
0.15107323229312897 -0.12808480858802795 0.6821430325508118
0.7925462126731873 -0.5354615449905396 -0.33915382623672485
0.5495625734329224 0.8640918731689453 0.45051783323287964
0.10897663235664368 -0.29952096939086914 1.068497657775879
-1.5702910423278809 -0.4603540897369385 1.2234759330749512
-2.0133275985717773 0.7527946829795837 -0.2945740818977356
0.48944297432899475 -0.011831596493721008 0.18657761812210083
-1.5630062818527222 0.9001532793045044 -0.008329601027071476
2.1785082817077637 -0.2862262725830078 0.08817686885595322
-2.244896173477173 0.06421943008899689 -0.6659306287765503
-0.8517968654632568 -0.21055980026721954 0.4497707188129425
2.2659430503845215 -0.584905207157135 -1.4516842365264893
-0.1602955460548401 1.0067988634109497 0.1492527276277542
2.278710126876831 -0.5263831615447998 0.10400401800870895
-1.477999210357666 0.37067216634750366 -1.1531684398651123
-2.216525077819824 0.317060261964798 -0.5321113467216492
-1.2786657810211182 -0.2362026572227478 0.9678301811218262
1.434732437133789 0.6550774574279785 -0.551399827003479
0.513195812702179 0.8032390475273132 0.2277946174144745
-0.6654951572418213 0.2261122763156891 -1.4188932180404663
-0.9365019798278809 -0.5755319595336914 0.6078136563301086
-2.0285449028015137 0.6873267889022827 -0.6957371830940247
-1.299117088317871 0.8884887099266052 -0.18103556334972382
2.738365888595581 0.12907622754573822 0.8165614008903503
0.23375961184501648 0.5145800709724426 -0.0838807001709938
0.010547783225774765 -0.47287777066230774 -1.3306052684783936
-0.46625301241874695 -0.5590047836303711 0.4215553402900696
-2.40749454498291 -0.024476170539855957 0.7818506956100464
-1.9039974212646484 -0.6444833278656006 0.612665593624115
-1.1098870038986206 -0.6381930112838745 -0.30043211579322815
1.4378764629364014 -0.23763054609298706 -0.14756840467453003
1.5802613496780396 -0.06454706192016602 0.4785054624080658
0.2347807139158249 0.39148789644241333 0.08936815708875656
1.405561923980713 0.489605188369751 0.0057923016138374805
-0.8134590983390808 -0.5487678647041321 -0.7794265151023865
2.0454819202423096 -0.4023171067237854 0.07462290674448013
-0.791404664516449 -0.2834619879722595 0.017126118764281273
2.369115114212036 0.05701710283756256 0.9789225459098816
-1.7439285516738892 0.20140843093395233 -0.608494222164154
2.897587299346924 -0.5494381189346313 0.28079256415367126
-0.6818573474884033 -0.09496301412582397 0.0021034851670265198
-0.409855455160141 1.0010864734649658 0.048087358474731445
0.13352152705192566 -0.07006929814815521 -0.7715529799461365
1.297064185142517 0.6657670736312866 0.5462390184402466
1.3511464595794678 0.5422533750534058 -1.0943018198013306
2.0843310356140137 -0.30716508626937866 0.4985741674900055
0.3017670214176178 -0.17423024773597717 0.8382996916770935
0.20709332823753357 0.15899468958377838 -0.861838698387146
0.8829138278961182 -0.5500789284706116 -0.8701239228248596
-2.2290921211242676 0.42821013927459717 0.10691825300455093
0.838111400604248 0.5243650078773499 -0.41090431809425354
-0.560122549533844 -0.5123767852783203 0.24306674301624298
1.261612057685852 -0.5618865489959717 -0.30416834354400635
-0.004397686570882797 -0.08548156917095184 -0.5556588172912598
1.7397668361663818 0.5365239381790161 -0.49229276180267334
-0.6831477880477905 0.7955926656723022 -0.13346527516841888
-2.568640947341919 -0.38152003288269043 0.9003854393959045
1.8490722179412842 -0.5754908323287964 0.2814241349697113
-1.9747217893600464 0.8448655605316162 -0.6885867118835449
-1.5085378885269165 0.29406148195266724 -0.26980602741241455
-0.8990329504013062 0.7332862019538879 1.217490553855896
-1.4723788499832153 -0.5702400207519531 0.5740987062454224
1.0147870779037476 0.17399200797080994 1.0369833707809448
-0.8586853742599487 -0.17661459743976593 1.393690824508667
-0.070702463388443 -0.5700554251670837 -0.3999885618686676
0.11235512793064117 0.503689706325531 0.19969135522842407
2.1897072792053223 -0.570784866809845 0.6503848433494568
-2.6379945278167725 -0.22221772372722626 0.5916221737861633
0.20151129364967346 -0.13049821555614471 -0.2785184681415558
-1.3919891119003296 -0.09871432185173035 0.6901798248291016
2.648510694503784 -0.5014832019805908 -0.9898433685302734
0.5652225613594055 -0.38304054737091064 -0.9031155705451965
1.7413874864578247 -0.5394057035446167 1.0163830518722534
-2.6290013790130615 -0.3526923954486847 0.793450653553009
0.9697875380516052 0.3112603425979614 0.49081793427467346
-1.8276076316833496 0.31301337480545044 0.8034988641738892
2.610680341720581 -0.34865623712539673 -1.1140574216842651
-1.5275241136550903 0.3297575116157532 -0.5059772729873657
1.4038794040679932 -0.5642411708831787 1.2441219091415405
2.0316362380981445 0.438607782125473 0.6720191836357117
2.6005539894104004 -0.06120678782463074 0.8266549706459045
2.226436138153076 -0.5471855401992798 0.05761810392141342
-0.510000467300415 0.15643972158432007 -1.3601150512695312
-2.4428417682647705 0.3768443465232849 0.5892434120178223
1.7862017154693604 -0.529355525970459 0.6094892024993896
1.541056752204895 -0.6089670062065125 -0.9254879951477051
-1.7016916275024414 -0.31499314308166504 -0.10620679706335068
1.4731227159500122 0.33348560333251953 1.4355340003967285
-0.20858152210712433 -0.14138785004615784 0.635259747505188
-2.083416700363159 -0.26510927081108093 -0.16624455153942108
-0.0067810118198394775 -0.6681528091430664 0.6655314564704895
1.4721944332122803 -0.3261507451534271 -0.8734027147293091
-1.9576879739761353 -0.5500606894493103 0.6360005736351013
-1.4501631259918213 0.5867933630943298 0.3660459816455841
1.0598820447921753 0.20749728381633759 -1.0512440204620361
0.2826569080352783 -0.5752549767494202 0.6036744713783264
1.7320691347122192 -0.1539643555879593 0.632500946521759
1.1406917572021484 -0.27866536378860474 -1.383126139640808
0.3958292305469513 -0.017512664198875427 1.3150676488876343
-2.2320780754089355 -0.2610943913459778 0.6697988510131836
-0.7821633219718933 -0.2268320471048355 -0.0871301218867302
-1.638314962387085 -0.19302982091903687 0.41515472531318665
-0.7979893684387207 0.865269660949707 0.5782968997955322
-1.1856259107589722 0.22563575208187103 -0.6600300073623657
1.9716302156448364 0.5274516940116882 0.0758204460144043
1.1293340921401978 -0.29987967014312744 0.46322327852249146
-1.4105663299560547 -0.37936925888061523 -1.3452469110488892
2.7745120525360107 -0.5797655582427979 1.074863076210022
1.6479575634002686 0.09334376454353333 0.48367035388946533
-2.01947283744812 0.5709364414215088 -1.4339663982391357
-0.028949450701475143 -0.3656938076019287 -0.40576428174972534
0.7715727686882019 0.44144406914711 0.4593825936317444
-1.2531253099441528 0.4836047291755676 -0.9630408883094788
0.7594708800315857 0.5938353538513184 0.4936308264732361
-2.7101190090179443 -0.09639482200145721 0.49604448676109314
-0.13919773697853088 0.3090262711048126 1.1700960397720337
1.848254680633545 0.6002108454704285 0.2837958037853241
-1.823243498802185 -0.526809811592102 -0.13626079261302948
2.0903210639953613 0.15351402759552002 0.6877661943435669
-0.0013502351939678192 -0.508551299571991 0.8178800344467163
-1.0959802865982056 0.46053773164749146 0.8347903490066528
1.1434367895126343 -0.5114465355873108 0.40589097142219543
1.910269856452942 0.4445430636405945 0.8672587871551514
0.3024737536907196 0.4281872510910034 -0.14307892322540283
2.0041937828063965 0.23278705775737762 -1.764983892440796
2.063426971435547 -0.2368318885564804 -0.45399999618530273
-2.223402261734009 0.4985094666481018 0.06572189182043076
-0.46172693371772766 -0.5981931686401367 -1.2562260627746582
-0.16783565282821655 -0.18149176239967346 1.294908046722412
-1.0564335584640503 0.0054402947425842285 1.3660112619400024
-0.7329340577125549 -0.584664523601532 0.47753018140792847
0.14710238575935364 -0.008662447333335876 0.569310188293457
1.5025298595428467 -0.5763381123542786 -0.6024210453033447
-0.7817290425300598 -0.23764263093471527 -0.7626546025276184
-0.3831954002380371 -0.5125361680984497 0.531768798828125
1.0049272775650024 -0.5452764630317688 0.39759838581085205
-2.029951333999634 -0.4206394553184509 0.21187274158000946
0.9565687775611877 -0.5744940638542175 -0.4202229380607605
-0.1461208611726761 -0.0950731486082077 0.7689945101737976
1.701529622077942 0.5613073706626892 -0.7254555821418762
2.0491392612457275 -0.03258389234542847 1.000679850578308
-1.4810912609100342 -0.4687817096710205 -0.26691707968711853
-1.0016549825668335 -0.13123871386051178 -0.17644892632961273
-0.8712592124938965 0.8321024179458618 -0.3863375186920166
0.8152484893798828 0.17577818036079407 0.37958526611328125
-0.6551618576049805 -0.019370123744010925 -1.345260500907898
1.703279972076416 -0.5960420370101929 0.4203281104564667
1.6562504768371582 -0.15772458910942078 -0.42124873399734497
0.7299472093582153 -0.11197918653488159 0.2699511647224426
-1.3103437423706055 0.5339667201042175 -0.21939058601856232
-0.06247032806277275 0.457894891500473 -0.634636640548706
1.5753860473632812 0.05396009981632233 0.42066124081611633
-2.475853204727173 0.03572472929954529 0.7741699814796448
-0.01213010773062706 -0.41817063093185425 0.46875861287117004
2.3993213176727295 0.13516777753829956 0.6192177534103394
0.2921293377876282 0.4084285497665405 -0.29556864500045776
0.39983469247817993 0.5448132753372192 1.2261725664138794
0.3490297198295593 -0.3653185963630676 0.033563148230314255
-2.6284596920013428 -0.04866454005241394 1.2857348918914795
-0.48071080446243286 0.7275387048721313 -0.04764251410961151
2.6034953594207764 -0.6034858226776123 0.037238407880067825
-1.9228788614273071 -0.08966661989688873 -0.9335035085678101
2.6081790924072266 -0.6058202385902405 -0.6281054019927979
1.56684410572052 -0.0889526903629303 0.4812789559364319
0.8057984709739685 0.1034555733203888 -0.12911038100719452
2.8462250232696533 0.16198691725730896 -0.45541149377822876
0.7717214226722717 0.2996055781841278 0.5078586339950562
-1.923439383506775 0.5741550326347351 -0.4482611417770386
1.1318336725234985 -0.3255516588687897 0.45678576827049255
-1.308782935142517 -0.10950301587581635 -1.2695512771606445
-2.689368963241577 -0.1922333836555481 -0.9791634678840637
1.3179818391799927 0.3436984419822693 0.5694171190261841
1.6172527074813843 -0.14167353510856628 1.0077362060546875
-1.020587682723999 -0.5688565373420715 -0.3355163335800171
1.521776795387268 0.5949298739433289 0.6282013058662415
-1.494858980178833 0.04247954487800598 0.5656795501708984
3.071385622024536 -0.13186396658420563 -0.1861591786146164
0.9274542331695557 0.23961618542671204 0.9895299673080444
2.3635058403015137 0.12090906500816345 0.43555188179016113
-2.2719249725341797 0.21134379506111145 0.4148178696632385
0.991329550743103 0.309088796377182 0.48093026876449585
-0.32323548197746277 0.17451384663581848 0.998000979423523
-0.364157110452652 0.639739453792572 -1.0048608779907227
-2.6464619636535645 -0.009437710046768188 -0.31696900725364685
0.9698938727378845 0.6930252909660339 -0.4006909430027008
1.395442008972168 0.10238352417945862 1.0815966129302979
-1.0447309017181396 0.07622160017490387 0.3348061740398407
-1.5801242589950562 -0.045104578137397766 0.3225269019603729
-0.725288987159729 -0.19371069967746735 0.8980027437210083
-0.097770094871521 0.7717477083206177 -0.9290297031402588
0.7902345657348633 -0.3439868092536926 -0.14151453971862793
2.035396099090576 0.5117934346199036 0.36027151346206665
-0.7699082493782043 0.35515516996383667 0.49743738770484924
-0.16447116434574127 1.082231044769287 -0.28525087237358093
-0.47204145789146423 -0.12259404361248016 0.2040369063615799
1.9005109071731567 -0.3113541305065155 -0.23026719689369202
-0.6921151876449585 0.6185477375984192 0.9238280653953552
-1.5816233158111572 -0.33247318863868713 -0.26156362891197205
-1.4031662940979004 0.6206796765327454 -0.23518827557563782
-0.6032171249389648 -0.4142497181892395 0.35405150055885315
-0.4826304316520691 0.2958865463733673 0.00996752455830574
0.5344905257225037 0.1610555648803711 0.47541701793670654
-1.377858281135559 -0.6085724830627441 -0.9441229104995728
0.7388120889663696 0.7219574451446533 0.2831042408943176
2.133647918701172 -0.31222423911094666 0.7809998989105225
-0.167744979262352 -0.16648900508880615 0.43782827258110046
0.27658477425575256 -0.2397557497024536 1.0672154426574707
1.8897711038589478 -0.5603970289230347 0.16397365927696228
-1.4057625532150269 -0.6049044728279114 -0.5074824094772339
-1.9677518606185913 -0.5826888084411621 1.0619621276855469
2.0338187217712402 -0.35264742374420166 0.4910745918750763
-0.6598306894302368 -0.5541380643844604 -0.1525980532169342
-1.5042386054992676 0.8194941282272339 0.4230593740940094
-1.59322988986969 0.3475629687309265 0.797318160533905
-1.1936066150665283 -0.6022068858146667 0.6565161347389221
-2.6523215770721436 -0.10568450391292572 0.3825559616088867
-0.7381772398948669 -0.5000205636024475 -0.5958466529846191
1.1912156343460083 -0.3753041625022888 1.434842586517334
-1.3188227415084839 0.3782700300216675 0.8709486126899719
3.19508957862854 -0.16256169974803925 -0.36862698197364807
1.0423545837402344 -0.24529151618480682 1.136216402053833
-1.438327431678772 -0.2037569135427475 -0.2523011267185211
2.7491304874420166 -0.3393920660018921 -0.5514357686042786
0.2025769054889679 -0.5233896374702454 0.8374232649803162
-0.5988450050354004 1.08643639087677 -0.42913010716438293
-1.1349328756332397 -0.5421003699302673 -0.30613580346107483
2.600338935852051 -0.35479748249053955 -0.17846854031085968
2.8181159496307373 -0.06934359669685364 0.2787350118160248
2.229377031326294 0.4798435866832733 1.2698450088500977
1.8499234914779663 -0.06528244912624359 0.41015687584877014
0.007358726114034653 0.5636090636253357 0.4366588592529297
1.358866810798645 -0.201335608959198 0.12217824906110764
2.551395893096924 -0.0990733951330185 1.2303880453109741
-1.3959406614303589 0.034342870116233826 -0.9906760454177856
1.9209966659545898 0.04742893576622009 0.8538699746131897
0.39729976654052734 1.0194138288497925 -0.17576563358306885
-2.158919334411621 0.9123731851577759 -0.02359098196029663
1.7806023359298706 0.5722246766090393 -0.10591684281826019
-1.6994166374206543 -0.16123303771018982 -0.8948472142219543
2.1429805755615234 0.45420610904693604 -0.5427154898643494
-0.21815723180770874 0.15613506734371185 1.1456785202026367
1.7960745096206665 0.06690533459186554 -0.5752339363098145
-2.0059475898742676 0.3825623393058777 0.8913846015930176
0.05145138129591942 1.1066299676895142 -0.46623075008392334
-0.3975420594215393 0.5376237034797668 -1.062445044517517
2.338674783706665 0.4043143391609192 0.7338104248046875
-0.2142159789800644 0.8514019250869751 -0.2737038731575012
0.06733909249305725 -0.38281381130218506 -0.2918732166290283
-0.19550937414169312 -0.5556565523147583 -0.5151472687721252
-0.8474371433258057 0.3199821710586548 0.7086824774742126
-0.6398075222969055 1.1104340553283691 -0.19973713159561157
-1.4847657680511475 -0.13189581036567688 -0.849023163318634
2.2190022468566895 0.4246889650821686 -0.7834424376487732
-1.9051976203918457 0.15051612257957458 -0.5362239480018616
-2.415820360183716 -0.5144456624984741 -1.1261378526687622
0.9607178568840027 1.0837209224700928 -0.38253700733184814
1.3023089170455933 0.009473204612731934 -0.6197031736373901
0.7129007577896118 0.9832906126976013 -0.4172687828540802
-0.6895661950111389 0.5432398319244385 0.6370426416397095
-1.671122670173645 0.03784778714179993 -1.0414564609527588
-1.2241132259368896 0.17551973462104797 0.0378170944750309
2.1851391792297363 -0.5711284875869751 0.6669714450836182
-1.8263994455337524 0.9130235314369202 0.04756052419543266
-1.4522929191589355 -0.438559353351593 0.576576828956604
1.3670849800109863 -0.12868258357048035 -1.2883763313293457
-2.048790454864502 -0.5010753870010376 0.2942587733268738
2.729597330093384 -0.5444483757019043 1.0345369577407837
0.7406616806983948 0.42248374223709106 0.8095333576202393
1.3387346267700195 0.235543891787529 0.08617935329675674
2.114445686340332 -0.5550371408462524 -0.03277729079127312
3.619014024734497 0.4285731315612793 -0.19120678305625916
-0.911384105682373 0.2109011858701706 0.41869622468948364
-0.7286047339439392 1.0179469585418701 0.24150927364826202
-1.1018226146697998 0.058692991733551025 0.37130895256996155
-0.653192400932312 -0.5783368349075317 1.2233593463897705
-0.6841980218887329 -0.5596948862075806 -1.0521279573440552
-2.0581297874450684 0.7669640779495239 0.4364980459213257
1.6620752811431885 -0.2571377754211426 -0.11103706806898117
-0.1934438794851303 0.9880443811416626 0.30102384090423584
-1.3404788970947266 0.15929853916168213 -0.2834128737449646
-0.1921411007642746 -0.32708120346069336 0.626579999923706
1.9997247457504272 0.26838219165802 0.22577664256095886
-1.5780048370361328 -0.4423568844795227 0.9413293600082397
1.0373283624649048 0.6953145265579224 0.7212163209915161
-0.11421097815036774 0.388530969619751 -0.5262189507484436
-2.3556511402130127 1.0103756189346313 0.3612101674079895
2.4020705223083496 -0.06391370296478271 -0.3733205497264862
0.11162520945072174 0.3888319134712219 1.275648832321167
1.890031099319458 -0.024203360080718994 0.48660019040107727
1.790347695350647 -0.5959771871566772 1.059444785118103
-0.755939245223999 -0.04053667187690735 0.617964506149292
1.01692795753479 -0.16222719848155975 -0.6582534313201904
-2.6492059230804443 -0.34265393018722534 0.22162416577339172
-0.5334237217903137 0.7281123995780945 -0.14492224156856537
1.6990959644317627 0.5752891898155212 0.2733507752418518
-0.82581627368927 0.04828421771526337 -1.1933070421218872
-1.9293756484985352 -0.33185434341430664 -0.2751345932483673
1.1514793634414673 -0.12422706186771393 0.3877829313278198
-0.4289942979812622 0.02124348282814026 -0.05186835303902626
0.24171005189418793 0.7211159467697144 0.1781725436449051
2.6967740058898926 -0.04687090218067169 -1.1168949604034424
0.5138110518455505 -0.5193594694137573 -0.7819868326187134
1.1190258264541626 0.7192453742027283 -0.39917489886283875
-1.5581388473510742 -0.3025248646736145 -0.8929423093795776
2.538968324661255 -0.27075713872909546 0.9096777439117432
-1.8147753477096558 0.34649884700775146 0.21395917236804962
1.1973373889923096 -0.6955140829086304 -1.2519352436065674
-0.390620619058609 -0.5430167317390442 0.5376916527748108
-1.0876551866531372 0.5905293822288513 0.2268662452697754
1.4271800518035889 -0.3948773741722107 0.4418313503265381
0.0873071551322937 0.8542281985282898 -0.9918249845504761
2.165109872817993 -0.44104504585266113 -0.34326523542404175
-1.9866621494293213 0.9487760663032532 -0.3765225410461426
-0.3823002278804779 0.043041691184043884 0.5511385202407837
-2.5966925621032715 0.6186316013336182 0.9006472826004028
0.735235333442688 0.3908764719963074 -0.1914077252149582
-0.952029824256897 0.4283594787120819 -0.7827610373497009
2.350727081298828 -0.3360656797885895 1.1453869342803955
-0.216745525598526 0.236917182803154 -0.24880735576152802
1.3978265523910522 -0.5534975528717041 0.4484858214855194
-1.536889672279358 0.35515928268432617 -0.3457779884338379
1.4715100526809692 0.2150076925754547 -1.3394798040390015
1.4145874977111816 -0.23008155822753906 0.23245973885059357
-1.4632859230041504 -0.38214337825775146 0.08213566988706589
-1.338646650314331 0.7545151710510254 -0.05482533574104309
2.7518463134765625 0.3021778464317322 0.9437496662139893
-1.626202940940857 0.23325224220752716 -0.36271166801452637
-2.2545554637908936 0.7983400225639343 0.049161721020936966
0.6652740836143494 0.29425448179244995 -0.24691921472549438
-1.6407809257507324 -0.23399417102336884 -0.5040422081947327
0.8551994562149048 -0.3982490599155426 0.6282606720924377
-0.7789964079856873 -0.5112199187278748 -1.0401066541671753
1.7012344598770142 -0.10223129391670227 -0.31229424476623535
0.034311845898628235 -0.6350584030151367 -0.1195472851395607
-2.5076851844787598 0.7322971820831299 -0.21288537979125977
0.3801107406616211 0.6313767433166504 0.20310069620609283
-0.135328009724617 0.9116921424865723 -0.06893738359212875
0.5958930850028992 -0.36719322204589844 0.9516493082046509
1.2330799102783203 0.744194746017456 -0.4430001974105835
-2.302978277206421 0.037371307611465454 0.9073177576065063
1.2161903381347656 -0.24129746854305267 -1.1170949935913086
0.13305196166038513 0.889175295829773 0.3336525559425354
0.02159709483385086 0.33419710397720337 -0.2538853585720062
-0.3987692594528198 0.2640354037284851 1.0566705465316772
0.12018455564975739 0.3368186950683594 1.6472609043121338
2.2093305587768555 0.4185282588005066 -0.09692338109016418
0.9654417634010315 0.6497829556465149 -0.523600697517395
1.8689736127853394 0.4163196384906769 -1.2468961477279663
-0.9199166893959045 -0.4160255789756775 -0.7046775817871094
-1.202760934829712 0.8885455131530762 -0.4839896261692047
-1.4598684310913086 -0.1439475119113922 1.0029034614562988
0.990898072719574 -0.20578673481941223 -0.3546253740787506
-2.408752918243408 0.8965280652046204 0.12159658223390579
-2.0604677200317383 -0.1640290468931198 0.30688977241516113
2.625577688217163 -0.07701461017131805 -1.0342237949371338
1.3961575031280518 -0.40906938910484314 -0.6674143075942993
-1.7986518144607544 0.2921968102455139 -1.2527186870574951
2.359792709350586 -0.1751796454191208 0.5702104568481445
0.6873828172683716 0.4872974753379822 1.4058473110198975
1.686662197113037 -0.3763282597064972 -0.4196401834487915
-0.5679802894592285 0.18930840492248535 -0.2619943618774414
1.036983847618103 -0.048254936933517456 0.36780914664268494
0.4003872871398926 -0.5933182239532471 0.16039955615997314
0.10418431460857391 -0.5338782668113708 0.09200961887836456
2.342559337615967 0.3770422637462616 -0.6773562431335449
-0.6561365127563477 0.5848809480667114 -0.7477195858955383
-1.4903818368911743 -0.12662380933761597 -0.9394434690475464
-0.7962563037872314 -0.2286182940006256 1.366827368736267
1.2781473398208618 0.5942002534866333 -0.031521134078502655
-0.9539153575897217 -0.4109801948070526 -0.1252257078886032
0.288291335105896 0.9374318718910217 -0.8165851831436157
0.5696835517883301 -0.017972171306610107 0.6558797955513
1.6791857481002808 -0.31211787462234497 0.23549187183380127
0.7958014607429504 0.30929481983184814 0.6816850304603577
-1.3509650230407715 0.3338789939880371 -1.3407924175262451
-2.0100858211517334 0.1687280386686325 0.03793550655245781
1.6824226379394531 0.23938263952732086 -0.15290936827659607
-0.7800900340080261 -0.5443263053894043 1.1542619466781616
0.5697749853134155 -0.3790021538734436 0.8177540302276611
1.6689759492874146 0.3483021855354309 -1.2172939777374268
-1.9740666151046753 -0.5139508247375488 0.9794495105743408
1.3918741941452026 -0.1739034354686737 0.37564823031425476
0.44017067551612854 0.85023432970047 1.2044706344604492
2.057048797607422 -0.10167363286018372 -0.6750295162200928
2.4312617778778076 0.29293057322502136 -0.08856037259101868
1.734959363937378 0.14430084824562073 0.5089194178581238
-1.3042248487472534 -0.0712103545665741 0.8648274540901184
-1.4378377199172974 0.14172905683517456 0.14549240469932556
2.473367214202881 -0.7859036922454834 -0.6381781697273254
0.0665852278470993 1.1758147478103638 -0.30657464265823364
0.33522796630859375 0.5999777913093567 -0.9251435399055481
-1.7606005668640137 0.9766755104064941 -0.5831148624420166
-0.5777495503425598 -0.39714714884757996 0.40843966603279114
1.1597932577133179 -0.34231844544410706 0.8099790811538696
0.7468165159225464 0.19779588282108307 0.6695152521133423
0.46211278438568115 0.959516704082489 -0.22558680176734924
0.9135960936546326 -0.04392026364803314 -0.44557705521583557
-0.17188383638858795 -0.38434839248657227 -0.06962113082408905
0.7652522325515747 -0.14652080833911896 -0.4460147023200989
-2.4621646404266357 -0.6119747161865234 0.524416983127594
-1.7672221660614014 -0.6782832145690918 1.2844939231872559
0.2562580108642578 0.9137338995933533 1.038124918937683
0.17893098294734955 -0.5069878697395325 -0.29227858781814575
0.38599687814712524 -0.5322296619415283 0.7853941917419434
-0.19934304058551788 -0.5892057418823242 -0.2340260148048401
0.806591272354126 -0.01339837908744812 0.6796600818634033
0.9670289158821106 0.8522443771362305 0.26682111620903015
-0.43017813563346863 0.5655322074890137 -0.536619246006012
2.829143762588501 0.21542319655418396 0.30781200528144836
1.0822997093200684 0.7593023777008057 0.5884726047515869
-1.4758750200271606 -0.5531003475189209 0.5636871457099915
2.1703546047210693 -0.3141540288925171 1.000823974609375
-1.3864516019821167 0.3595876097679138 1.125639796257019
1.962357759475708 -0.5416005849838257 0.45046088099479675
0.5650882124900818 0.8562631011009216 0.7209667563438416
-2.1469833850860596 -0.2554476261138916 1.225095510482788
0.7069931030273438 0.7475728392601013 0.5946474075317383
-0.3974069356918335 0.14046905934810638 -0.18255279958248138
2.2630398273468018 -0.10181961953639984 0.6577871441841125
1.793697714805603 0.17763493955135345 0.7930391430854797
1.0608279705047607 -0.1768585592508316 1.4778846502304077
-0.12279047071933746 0.442114919424057 1.0810139179229736
1.6434719562530518 0.7324479818344116 1.4755560159683228
1.1238975524902344 0.41241759061813354 -1.4354273080825806
2.26232647895813 -0.2367905229330063 -0.7043474316596985
-0.7338362336158752 -0.021958619356155396 -0.31995728611946106
-0.8678010702133179 0.3137508034706116 1.1144894361495972
-2.0507090091705322 -0.19665542244911194 0.3952444791793823
0.7232234477996826 0.6013318300247192 0.0016108783893287182
-1.5796258449554443 -0.38544100522994995 0.5300695896148682
-1.1399725675582886 -0.0910537838935852 -0.6803739666938782
1.7409430742263794 0.47676920890808105 -1.037162184715271
-0.5503460764884949 -0.3492465615272522 0.12127730250358582
-1.8471773862838745 -0.6717673540115356 -0.685833215713501
2.1464693546295166 -0.03452087938785553 -0.26392149925231934
-1.6473829746246338 0.07165871560573578 0.814317524433136
1.4385143518447876 0.004936888813972473 -0.3584650456905365
0.1537695825099945 0.86225825548172 0.3280678689479828
-0.17221133410930634 0.4706951975822449 1.0891892910003662
-1.1257551908493042 -0.490060031414032 0.9255090951919556
1.3409050703048706 -0.3418610692024231 0.32658013701438904
2.302199602127075 -0.18196746706962585 0.12276808172464371
-0.42049962282180786 0.26028376817703247 -0.9957112669944763
1.295619249343872 0.5385565757751465 0.43623456358909607
1.1121166944503784 -0.2298765331506729 -0.416717529296875
-0.4046705663204193 0.40007537603378296 0.23474931716918945
1.0665843486785889 -0.021295979619026184 -0.8531932234764099
-0.7989330291748047 -0.07705101370811462 -1.4142744541168213
-0.5407530665397644 -0.5386368632316589 1.0668407678604126
-1.6547125577926636 -0.5840929746627808 -0.9479259848594666
-1.887215495109558 0.6626273393630981 -0.19879204034805298
0.701141357421875 -0.10628925263881683 -0.3639138340950012
-2.281668186187744 0.012543216347694397 0.8970524072647095
-1.1535238027572632 0.3260249197483063 0.37535300850868225
2.161572217941284 0.1640300452709198 -0.3229202330112457
-0.09171918034553528 0.5319781303405762 -0.13025005161762238
-0.6782200932502747 0.701427698135376 1.1746381521224976
1.1883336305618286 0.2773173749446869 0.12907399237155914
1.6792502403259277 -0.08024902641773224 0.1808643490076065
1.376123309135437 -0.23969490826129913 0.07955493777990341
-0.8284751772880554 0.38372963666915894 -0.8441870808601379
-1.1873914003372192 0.3131115436553955 -0.5742967128753662
-0.509645402431488 -0.07019785046577454 -1.4163320064544678
1.6109728813171387 0.35113662481307983 0.5621140599250793
2.3298428058624268 -0.21043366193771362 -0.40703821182250977
-0.1754447966814041 0.13565583527088165 0.7485493421554565
1.9521150588989258 -0.6668437719345093 1.0109905004501343
-1.0848380327224731 -0.033044010400772095 -0.521249532699585
-1.8977711200714111 0.4250168204307556 0.3225676715373993
1.506943941116333 0.6967436671257019 -0.24595540761947632
0.24310390651226044 0.5106907486915588 0.9469123482704163
-1.4440010786056519 -0.5150724649429321 0.6719952821731567
1.9519612789154053 -0.4285621643066406 1.4290640354156494
1.3069884777069092 0.68226557970047 1.2765306234359741
0.9199619293212891 0.8360944986343384 0.3089514970779419
-1.5669901371002197 0.16283664107322693 0.7332352995872498
2.5963754653930664 -0.5003248453140259 -0.8093913793563843
-0.8841551542282104 -0.4338268041610718 1.0608052015304565
2.0327234268188477 0.1498894840478897 -1.3043264150619507
-0.9693861603736877 0.06788793206214905 0.07405171543359756
-1.459551215171814 -0.38849353790283203 -0.6187034845352173
1.374424934387207 0.4012957811355591 1.2505024671554565
-1.4597420692443848 -0.2727354168891907 0.09445000439882278
0.5464373826980591 -0.071793332695961 -0.009875697083771229
-1.3963327407836914 -0.5076767802238464 -0.4225846827030182
-1.2323622703552246 0.33219534158706665 -1.148768424987793
0.772749662399292 0.5671043395996094 -0.2252386212348938
-0.6321104168891907 -0.192796528339386 -1.2918819189071655
0.18751583993434906 0.6677597761154175 0.5768420696258545
-0.8277599215507507 0.8976989388465881 -0.5676500797271729
-0.8102720975875854 0.18718934059143066 -0.7869773507118225
-0.5093046426773071 -0.5818396806716919 -0.2393871694803238
2.2091128826141357 -0.17387932538986206 -0.3954695165157318
-1.3286488056182861 0.27569228410720825 0.7793110609054565
1.6032658815383911 0.3113856911659241 -0.34577393531799316
-0.29626891016960144 -0.5320505499839783 -0.5884770154953003
-0.9752684831619263 -0.38357964158058167 0.6504983901977539
-1.606853723526001 0.5457439422607422 -0.16423901915550232
0.4654553234577179 -0.17767168581485748 -0.489898681640625
-0.5465076565742493 0.1756310760974884 0.23924951255321503
-0.37252992391586304 0.21663355827331543 -0.7218413949012756
-0.5562029480934143 -0.42796188592910767 1.2583098411560059
2.333798885345459 0.03544282913208008 1.2088923454284668
-0.22111621499061584 -0.3902932405471802 0.6732680797576904
-1.7138921022415161 -0.44945430755615234 0.19874849915504456
-1.9549329280853271 -0.28707611560821533 0.20678430795669556
2.1573588848114014 -0.2741119861602783 0.4989127814769745
-0.7434017658233643 -0.5922768115997314 -1.1018685102462769
0.5086488127708435 -0.5429986715316772 -0.29149913787841797
1.9211376905441284 0.45377448201179504 1.4179174900054932
0.8583680391311646 0.278084933757782 0.012752682901918888
1.0756510496139526 0.6428989768028259 1.443747878074646
-0.37181514501571655 -0.09193377196788788 1.3756544589996338
0.5703970193862915 0.9688657522201538 0.4542909860610962
0.7872307896614075 -0.022325575351715088 1.025130271911621
1.0834567546844482 -0.6026721000671387 0.0011738520115613937
-1.7757441997528076 0.9073963165283203 0.24812056124210358
2.9110894203186035 0.16420353949069977 0.23848088085651398
2.470642566680908 0.01969216763973236 0.40738171339035034
2.083900213241577 0.5305291414260864 0.40518832206726074
-0.10129152983427048 -0.5882811546325684 0.6772390007972717
-0.2814875841140747 -0.13209131360054016 1.1378799676895142
0.14419174194335938 0.19141486287117004 -0.9301255345344543
-2.1570546627044678 0.199006125330925 -0.05262751132249832
-2.743187427520752 0.016636371612548828 -0.2106758952140808
2.068892002105713 -0.10818871855735779 0.6878940463066101
-1.1648894548416138 -0.4771770238876343 1.269580364227295
0.8285357356071472 0.19546090066432953 0.7715785503387451
-0.6170607805252075 0.34225553274154663 -0.6610870361328125
-2.661961555480957 0.4967727065086365 0.232444167137146
0.543728232383728 -0.5306987166404724 -0.3495587706565857
-0.40366265177726746 0.4060313105583191 0.10101918131113052
1.0134786367416382 -0.3017289340496063 0.52930748462677
-2.353210210800171 -0.0017186552286148071 0.2618534564971924
-1.270142674446106 -0.05468462407588959 -0.37107977271080017
2.065417528152466 0.05530950427055359 -0.45193755626678467
0.6896729469299316 0.6948213577270508 0.9546273946762085
0.06864027678966522 0.775138258934021 0.7705350518226624
0.13503023982048035 -0.32540157437324524 0.8876964449882507
-1.4179892539978027 0.5798839926719666 -0.9955328702926636
0.34957173466682434 0.180192232131958 0.42459532618522644
2.2196850776672363 -0.09908758103847504 1.2524628639221191
-0.3190883994102478 -0.5216752886772156 0.7222124934196472
0.6044222116470337 -0.27792078256607056 -0.3167702555656433
-1.0673620700836182 -0.02454333007335663 0.7769935727119446
2.6024844646453857 -0.10801498591899872 -0.1019468903541565
1.7263280153274536 -0.017973467707633972 0.656137228012085
2.466451644897461 -0.38542014360427856 -0.34310880303382874
1.750835657119751 0.1902691274881363 1.0397107601165771
0.026561394333839417 0.6798286437988281 1.298189640045166
1.0665593147277832 0.2130260020494461 1.5170502662658691
1.1627341508865356 -0.15749867260456085 0.8775083422660828
0.9081553220748901 0.11160093545913696 -0.5447680950164795
0.21875767409801483 1.0496594905853271 -0.12879450619220734
-1.0379465818405151 -0.006241321563720703 -0.31021538376808167
-2.6904654502868652 -0.25606077909469604 -0.06426789611577988
0.6744700074195862 0.09755271673202515 -0.6327134966850281
1.9328950643539429 -0.2906407117843628 -0.2409864366054535
1.6686186790466309 0.08955271542072296 1.3394715785980225
-0.16553209722042084 0.683857262134552 -0.1413763016462326
-1.0569015741348267 -0.15697002410888672 0.3338722884654999
-0.11780527234077454 0.6069157123565674 0.33008432388305664
-1.7688339948654175 -0.04224085807800293 0.16196325421333313
2.154613494873047 0.2579439878463745 -0.8410812020301819
2.398707866668701 -0.5906240344047546 0.18531623482704163
-0.2645609378814697 -0.07567119598388672 -0.7133578062057495
0.06397707015275955 0.7043156623840332 -0.4596922993659973
2.0996644496917725 0.17229318618774414 -0.1876516342163086
-0.9848482608795166 -0.1617336869239807 0.5240878462791443
-0.4366176724433899 0.25778907537460327 0.13885554671287537
-0.4335910379886627 -0.3637431263923645 0.1788163185119629
-0.17956292629241943 -0.6444108486175537 -0.9430830478668213
-1.7847177982330322 -0.5106219053268433 -0.4517517685890198
0.11212201416492462 0.11495859920978546 -1.395435094833374
1.8916046619415283 0.192550390958786 -0.7029269933700562
2.1689116954803467 -0.4200459122657776 -0.12240097671747208
1.690918207168579 -0.5581667423248291 0.41170233488082886
1.559850811958313 -0.5961629748344421 1.3634856939315796
-0.46389085054397583 0.08967368304729462 -1.0889874696731567
-2.42978572845459 -0.19047443568706512 0.27732524275779724
-2.929126262664795 -0.08090011775493622 -0.1930328756570816
1.2245367765426636 0.4780769944190979 -0.4848405122756958
1.1047413349151611 0.6242981553077698 -1.0453965663909912
-1.2861809730529785 -0.22627542912960052 0.007659537717700005
1.8571548461914062 -0.15690255165100098 0.43449854850769043
2.392808675765991 -0.07806575298309326 0.45817387104034424
-2.2353715896606445 0.09882669150829315 -1.1917604207992554
1.9465117454528809 -0.15782766044139862 0.29424619674682617
1.4607270956039429 0.041169360280036926 0.8712266683578491
-1.641364574432373 0.6075471639633179 0.08343154191970825
-1.9040297269821167 -0.512561559677124 0.5308743119239807
2.197538375854492 0.17438508570194244 0.32664939761161804
-2.1234333515167236 0.6410672068595886 0.048975564539432526
0.6963669657707214 0.019582971930503845 -0.14062698185443878
2.1575987339019775 -0.029057994484901428 0.7021752595901489
-0.024315256625413895 0.7781891822814941 -0.2652732729911804
-1.361480712890625 0.2948351502418518 0.5499265193939209
-1.0607050657272339 0.8979462385177612 -0.2386484295129776
2.5443274974823 -0.40133410692214966 1.211913824081421
1.9447572231292725 0.4292650818824768 0.7719066739082336
1.2365970611572266 -0.5045486092567444 1.0794150829315186
-1.142593502998352 0.5160889625549316 0.8494840860366821
1.1514308452606201 0.02802470326423645 0.5818179249763489
-0.044398605823516846 0.07812248170375824 -0.1877567023038864
2.8268961906433105 -0.6248155832290649 -0.6740012764930725
2.481548547744751 0.4024196267127991 0.8685067892074585
-0.46934017539024353 -0.24273638427257538 0.8714448809623718
-1.2434051036834717 0.371930867433548 -0.0958208218216896
0.788753092288971 -0.49425435066223145 0.19843167066574097
2.1759798526763916 0.295498251914978 0.18987958133220673
-2.1492533683776855 -0.46327048540115356 -0.07309326529502869
1.1462968587875366 -0.6132115721702576 0.07784608751535416
-0.8605361580848694 -0.1529497504234314 -0.22258320450782776
-2.7515156269073486 0.2968794107437134 -0.28397563099861145
-1.4297798871994019 0.7361500859260559 -0.21360011398792267
-0.4514288902282715 0.11169977486133575 -0.06598762422800064
2.024732828140259 0.16450729966163635 -0.8244889974594116
1.7608917951583862 -0.11900337040424347 -0.7311494946479797
-2.399604320526123 0.26554471254348755 -1.0991392135620117
0.8105972409248352 -0.14323222637176514 0.8148072957992554
-1.2696682214736938 0.5062460899353027 -1.0475441217422485
2.4927079677581787 -0.18183636665344238 -0.30475759506225586
-0.6724547147750854 -0.44147416949272156 1.3121768236160278
-1.0520330667495728 0.30523213744163513 -0.27807965874671936
0.6669280529022217 0.5074471235275269 -0.31294912099838257
-0.5909746885299683 0.13476453721523285 0.7416271567344666
0.058169033378362656 0.9229210019111633 0.5059928894042969
-0.2716173827648163 0.3375331461429596 -0.31561940908432007
2.4933462142944336 0.2946453392505646 0.731337308883667
-0.97267085313797 -0.3708028793334961 -0.5712642669677734
1.4480606317520142 0.0076264888048172 0.5208360552787781
-1.572095513343811 -0.038959428668022156 -1.332471251487732
1.583161473274231 -0.594650387763977 0.7577279210090637
0.0487154945731163 0.059507161378860474 -0.30491694808006287
0.684398353099823 0.8627507090568542 -0.8939865231513977
1.9093351364135742 -0.3481595516204834 -0.8810737729072571
-1.647426962852478 -0.13950997591018677 0.6594811081886292
1.4833953380584717 -0.1257743537425995 0.4930022358894348
1.947353720664978 -0.47196149826049805 -0.4583313763141632
0.011461980640888214 -0.3206688463687897 -0.24632184207439423
0.06169900298118591 0.06915026903152466 0.03881988301873207
1.160224437713623 0.4424426555633545 0.5459448099136353
1.5347012281417847 0.005295619368553162 1.4630217552185059
0.45802104473114014 -0.12256240844726562 -0.509528398513794
-2.013775587081909 0.8034559488296509 -0.12274662405252457
-2.1116347312927246 -0.37592005729675293 -0.7052233219146729
0.061849549412727356 -0.5109126567840576 -1.1591839790344238
0.7010639905929565 0.8271320462226868 0.0929713174700737
1.2610092163085938 0.15326733887195587 -1.085066556930542
-0.4471862018108368 -0.33192235231399536 0.16683106124401093
2.044752597808838 0.05507798492908478 -0.6439065933227539
0.831993043422699 0.8877516984939575 -0.6012995839118958
-0.7266731858253479 0.037545859813690186 -0.6980694532394409
0.11304384469985962 -0.23129135370254517 -0.44765275716781616
1.383780598640442 0.6161161065101624 -0.8007403016090393
1.5404947996139526 0.18433503806591034 -0.18368783593177795
2.095924139022827 -0.5134104490280151 -0.02662196010351181
-1.6479371786117554 0.33645665645599365 0.5925338268280029
0.634472668170929 1.046743392944336 -0.03760812431573868
-1.6600207090377808 0.4545670747756958 -0.5453376173973083
1.7209444046020508 0.42704346776008606 -0.8474469184875488
-0.18518629670143127 -0.490781307220459 -0.6986539959907532
-1.7495733499526978 0.3871229887008667 0.2122877985239029
-0.7520525455474854 -0.37103742361068726 0.7063192129135132
2.101280689239502 -0.138422891497612 0.6303273439407349
0.8230441808700562 -0.33630669116973877 -0.42020466923713684
0.34156155586242676 -0.08915853500366211 0.6089511513710022
2.0658528804779053 -0.2791416049003601 -0.03242072835564613
2.0026330947875977 -0.3740110397338867 -0.16777963936328888
-0.83134925365448 -0.6261032819747925 0.051222190260887146
1.2912909984588623 -0.5434379577636719 0.21984539926052094
-1.7127888202667236 0.06580354273319244 1.2788749933242798
-1.3885849714279175 -0.26225584745407104 0.5683525204658508
-0.3825894296169281 0.806445837020874 0.1260908544063568
-1.5957063436508179 0.47003257274627686 -0.06125716492533684
