ply
format ascii 1.0
element vertex 812
property float x
property float y
property float z
end_header
-0.23029236495494843 -0.7099775075912476 0.5802217721939087
0.6456390023231506 -0.676772952079773 0.3434896767139435
-0.26230528950691223 -0.32463544607162476 0.5147794485092163
-1.96703040599823 0.13180537521839142 -0.42271021008491516
-0.18175257742404938 -0.35081911087036133 0.8902704119682312
-0.8123070597648621 -0.3715561628341675 0.513853132724762
0.48205357789993286 -0.1832115203142166 -0.39563241600990295
-2.0325310230255127 -0.1628907471895218 -0.2714763581752777
-2.2577385902404785 -0.16347642242908478 0.5277472734451294
0.4741242229938507 -0.06630586087703705 0.10973391681909561
-1.7052401304244995 -0.05490298569202423 -0.4788978695869446
1.800475001335144 0.08542963862419128 0.9529969096183777
-0.37570205330848694 0.9085787534713745 -0.8087783455848694
-2.5944318771362305 -0.6452227830886841 -0.3377997875213623
-0.9476672410964966 0.49640560150146484 -0.07679162919521332
1.3498159646987915 -0.6624755859375 0.34340929985046387
-1.3409143686294556 -0.43940481543540955 -0.3677206039428711
1.4824392795562744 0.030745625495910645 0.08452920615673065
-1.5806589126586914 0.11895497143268585 1.0242561101913452
-1.2803666591644287 0.5228843688964844 -0.09463701397180557
0.05109121650457382 0.03737311065196991 -0.5491141676902771
0.3029637634754181 0.435243159532547 -0.9389976859092712
0.15475186705589294 -0.1648665815591812 -0.11184434592723846
1.2265433073043823 -0.20829948782920837 -1.0416806936264038
-1.038982629776001 0.4330004155635834 -0.6954452395439148
-0.3393748998641968 -0.5168874263763428 -0.6332960724830627
-1.2262098789215088 -0.6435933113098145 0.18961799144744873
0.7462754249572754 0.41082754731178284 -0.8853968977928162
1.7560709714889526 0.5431047081947327 -0.6887900233268738
2.160520076751709 0.4851302206516266 -0.8626328706741333
2.5620336532592773 -0.4143584370613098 1.1347483396530151
-0.7580754160881042 -0.024717971682548523 -0.8463800549507141
1.8807899951934814 -0.4487864375114441 -1.0346415042877197
-0.7843901515007019 0.24902409315109253 -0.8278568983078003
1.9985255002975464 0.35363197326660156 -1.3346754312515259
2.3214590549468994 -0.08940191566944122 0.20157796144485474
-0.7266590595245361 -0.3873114287853241 -0.48081615567207336
-2.0690560340881348 -0.056204721331596375 0.8483814597129822
-1.7981239557266235 0.4286794364452362 0.28454989194869995
-2.1678402423858643 0.669417679309845 0.6732468605041504
0.012241635471582413 -0.6579025983810425 -0.4175778031349182
0.2988296449184418 0.2937223017215729 -0.06977289170026779
0.22836539149284363 -0.16383150219917297 0.7414150834083557
0.8958367109298706 -0.18086287379264832 -0.10172712802886963
-1.0315653085708618 1.0856688022613525 0.5238266587257385
2.031418800354004 0.5427970886230469 -0.577700138092041
2.598834276199341 -0.4231565594673157 0.2689385712146759
-1.7035609483718872 0.5182508230209351 1.5846880674362183
-1.6091084480285645 -0.44789355993270874 -0.7410129308700562
3.1143252849578857 -0.2571603059768677 0.19934315979480743
-1.1584452390670776 1.1977307796478271 -0.7380464673042297
-2.0210351943969727 0.4904731214046478 0.02963593788444996
1.0112885236740112 0.5349586606025696 -0.6214857697486877
2.4461047649383545 -0.7065152525901794 -0.23217074573040009
-2.582864761352539 0.6809606552124023 -0.9836628437042236
-1.9026464223861694 -0.5370149612426758 -0.5522088408470154
1.0516130924224854 0.4825412631034851 1.3787288665771484
1.498865008354187 -0.5564146637916565 -0.645805835723877
-0.019840195775032043 0.14944443106651306 -0.8194414377212524
2.3277533054351807 0.03171633183956146 1.0399065017700195
0.5704449415206909 0.5868502855300903 -0.45491814613342285
-0.6256345510482788 -0.6301551461219788 0.047766122967004776
-1.7453051805496216 0.06986133754253387 1.4025304317474365
-0.7258042097091675 0.4227147698402405 -0.3761335611343384
-1.3906062841415405 0.06034989655017853 0.09465519338846207
1.912436842918396 -0.685142993927002 -0.5293715000152588
-2.0896170139312744 0.6919305920600891 0.20106059312820435
1.2876527309417725 -0.5124412775039673 -0.20736515522003174
0.5784909725189209 -0.71042400598526 0.09367235004901886
-1.8668314218521118 0.2063753604888916 0.137533500790596
-1.4392600059509277 0.9502495527267456 0.9318152070045471
-0.6167280673980713 -0.1655842661857605 0.7813814282417297
1.1235790252685547 -0.42110365629196167 0.33353638648986816
2.480351448059082 -0.6284690499305725 0.6200720071792603
-2.345813512802124 -0.36394715309143066 0.04466201364994049
0.8839905858039856 0.0667683333158493 0.4341001808643341
2.2646684646606445 0.19706791639328003 0.4626177251338959
-0.03121103346347809 -0.335233211517334 0.2084328681230545
-2.064115524291992 1.1291128396987915 -0.25293225049972534
2.0515310764312744 -0.40967100858688354 -1.391800045967102
-1.8047025203704834 -0.5292187929153442 1.221177577972412
-1.7949784994125366 1.034212350845337 -0.15023770928382874
-2.2332370281219482 1.0272216796875 -1.062590479850769
1.5703319311141968 -0.6935347318649292 0.9063438177108765
-2.470132827758789 -0.4945898652076721 0.24269354343414307
1.5190041065216064 0.5025397539138794 0.8328278064727783
-1.8003017902374268 -0.2114001214504242 1.0003513097763062
-0.9063903093338013 0.07021749019622803 -0.5922485589981079
-0.5850285291671753 0.7722880840301514 -0.30376917123794556
-2.049757957458496 0.15986691415309906 -1.1210435628890991
-0.5784181952476501 -0.03711971640586853 -1.3720427751541138
2.6234493255615234 -0.08178937435150146 0.4564879238605499
-2.743025302886963 1.1274387836456299 0.3841594159603119
2.226529359817505 0.1457778513431549 0.14528559148311615
-2.2802681922912598 0.25389567017555237 -0.04865492135286331
-1.9390236139297485 0.2321087270975113 0.06461215019226074
0.1682015359401703 -0.10130961239337921 1.9841309785842896
-1.332175612449646 0.38701510429382324 -1.0275033712387085
-1.056736707687378 0.5295094847679138 0.2094016671180725
-1.894383430480957 -0.06942911446094513 -0.09354338049888611
-2.197991371154785 0.28097134828567505 -0.998468279838562
-0.9724995493888855 0.839495062828064 -0.5274584293365479
-1.3893918991088867 0.6290072798728943 1.698265552520752
-2.1661343574523926 0.5760587453842163 -0.556837260723114
0.6304686665534973 -0.2949568033218384 0.6193140745162964
0.8790528178215027 0.6670573353767395 0.00028904923237860203
-0.257644385099411 0.08762536942958832 0.3604447543621063
-1.6874445676803589 -0.5629376769065857 -0.7794944047927856
1.180083155632019 0.9040099382400513 0.5721232295036316
-1.551870346069336 0.5649492740631104 0.31644874811172485
1.6134053468704224 -0.40834927558898926 -0.17522941529750824
-0.029145456850528717 -0.4750668406486511 0.9659020900726318
-1.2042263746261597 0.7303643822669983 0.4887100160121918
0.29203465580940247 -0.6219512224197388 1.128451943397522
-2.5560688972473145 -0.5505564212799072 -0.9423502683639526
1.8444797992706299 0.5337149500846863 -0.6466923356056213
-1.085255742073059 0.3777114748954773 -1.5413321256637573
-0.5591636896133423 0.6608086228370667 -0.10896133631467819
-2.4924707412719727 0.07663518190383911 0.8487449288368225
1.7977898120880127 0.005093857645988464 -0.1010114923119545
-1.1034817695617676 -0.15174202620983124 -0.6359192728996277
0.91733717918396 -0.3355884552001953 -0.9117622971534729
2.8180341720581055 -0.4564655125141144 1.2537174224853516
-1.309605360031128 1.2162212133407593 -0.8619416356086731
1.38717782497406 -0.26784759759902954 0.43447235226631165
-1.7657725811004639 0.31543439626693726 0.37764203548431396
-1.9331634044647217 0.3778737187385559 -1.486231803894043
1.9238407611846924 -0.18463285267353058 0.38733792304992676
-2.089550018310547 -0.5382529497146606 -0.48044952750205994
-1.9283959865570068 1.147646188735962 -0.02494996041059494
-1.2295230627059937 0.16385173797607422 -0.2269844263792038
-2.6814334392547607 1.011969804763794 -0.8246020078659058
-0.20579218864440918 0.08852045238018036 -0.731342077255249
-0.4526982009410858 -0.4682747721672058 -0.6830167770385742
-1.5515706539154053 -0.36430931091308594 0.21930265426635742
0.8772516250610352 0.04741218686103821 -1.4513815641403198
-1.9246270656585693 0.5375101566314697 -0.9486514925956726
0.900786817073822 -0.08040113747119904 -0.01374665554612875
0.6899656653404236 0.38604241609573364 -0.2825183868408203
2.1358277797698975 0.411213219165802 -1.3252006769180298
-3.0702271461486816 1.1310786008834839 0.01875196397304535
0.14010092616081238 -0.6622637510299683 -0.7917755246162415
2.695157766342163 -0.6864457130432129 -0.5561439990997314
1.2263195514678955 -0.5384433269500732 0.1633053869009018
1.4397330284118652 0.18411949276924133 -1.0341300964355469
1.8362605571746826 -0.5722545981407166 -1.574985146522522
-1.0984371900558472 0.08308100700378418 0.5914843082427979
-1.2230921983718872 -0.4266936182975769 -0.27753785252571106
-2.362739086151123 0.6330249309539795 0.2900075316429138
-2.0344653129577637 1.0418919324874878 0.7209208607673645
-0.18466347455978394 -0.4313719570636749 1.2045917510986328
2.0226123332977295 0.24902597069740295 0.7846171259880066
2.4651899337768555 -0.2967073321342468 1.0216344594955444
-2.610407829284668 0.028383836150169373 -0.9608381390571594
0.8735751509666443 0.07113964855670929 0.662641167640686
-0.7738617062568665 -0.25555509328842163 -0.6659618616104126
0.2946780025959015 -0.6993904709815979 0.420372873544693
0.08656160533428192 0.4548744857311249 -0.009485040791332722
0.8109537959098816 0.2913808226585388 0.5218552947044373
0.750238299369812 0.8323370814323425 -1.338966965675354
1.8779137134552002 -0.24923449754714966 -0.9016925096511841
-2.3766350746154785 0.8200212717056274 -0.550679087638855
1.1628936529159546 -0.6274185180664062 0.13020369410514832
-0.9092706441879272 -0.7000026106834412 -0.26307323575019836
1.5459378957748413 -0.4116289019584656 0.5459483861923218
-2.7837579250335693 0.6451094150543213 -0.19466577470302582
0.4270157217979431 0.9111360907554626 1.1839282512664795
-1.9023523330688477 0.28636816143989563 -0.14850106835365295
-0.8135644793510437 -0.01367679238319397 -0.8361025452613831
0.8824931979179382 0.7102277278900146 0.2306346297264099
1.1364883184432983 0.32787713408470154 -0.8725219964981079
-2.5405664443969727 0.9334250688552856 0.6087340116500854
2.3452823162078857 -0.18510384857654572 1.320656418800354
-0.07283730804920197 0.32646360993385315 -0.5055257081985474
1.9834777116775513 -0.42305728793144226 0.35473185777664185
1.47364342212677 0.33003753423690796 0.7261711359024048
2.810382604598999 -0.09725390374660492 -1.0635327100753784
-2.1699554920196533 0.20484644174575806 0.7797245383262634
-1.184960126876831 0.4983765482902527 0.71364426612854
2.5819907188415527 -0.5289709568023682 -0.675622284412384
0.6447334289550781 -0.46175146102905273 0.09192730486392975
-1.355088233947754 0.6469407081604004 -0.2888965606689453
-2.0300142765045166 0.48718079924583435 0.0831185132265091
-2.4117259979248047 -0.5013578534126282 -0.24538566172122955
-1.610973596572876 0.21831969916820526 0.5880813002586365
-1.651357650756836 1.1213066577911377 -0.7228388786315918
-1.3025106191635132 -0.35515251755714417 -0.576151430606842
-1.1799848079681396 0.23297466337680817 0.7431424856185913
2.680453062057495 0.4332588016986847 0.24918507039546967
-1.0016518831253052 0.39483094215393066 0.7155441641807556
-0.3734073042869568 0.0248270183801651 0.5912703275680542
-2.056046962738037 0.04157446324825287 -0.15367451310157776
-0.4864559471607208 0.12608398497104645 0.7347815036773682
-0.7006744742393494 0.1442846655845642 0.6235769391059875
-0.29324793815612793 0.22306014597415924 0.6061817407608032
-0.8667246699333191 0.04450388252735138 0.422482967376709
-0.21015872061252594 0.8007214069366455 0.09981555491685867
1.341392993927002 0.7859957814216614 -0.3414323627948761
-1.1290868520736694 0.3364000916481018 1.3241487741470337
1.028239130973816 0.7617765069007874 0.6936651468276978
0.26556092500686646 0.4854177236557007 0.6105895042419434
-1.9477349519729614 -0.536901593208313 1.1141706705093384
0.5276249051094055 0.046472951769828796 -0.10223677009344101
2.7896482944488525 -0.6929140090942383 0.0057542650029063225
-3.0232207775115967 0.5087053775787354 -0.04207168519496918
1.740923523902893 -0.6630042791366577 -0.4497966468334198
-2.17193865776062 -0.6222438812255859 1.2279515266418457
-1.7857078313827515 0.18535131216049194 -0.9387736320495605
1.174086332321167 0.3085836172103882 1.259850025177002
1.6013660430908203 -0.18320564925670624 -0.6785649657249451
-2.546872854232788 0.7095425128936768 0.40188881754875183
1.628227710723877 0.2186107486486435 0.7119501829147339
-1.9581756591796875 0.14607013761997223 -1.2327349185943604
-1.9321932792663574 0.2240602672100067 1.0046113729476929
-2.412123441696167 0.6586152911186218 -0.9307034611701965
-1.4796032905578613 -0.6379953622817993 0.43442872166633606
-3.4094583988189697 0.1801510900259018 1.0022783279418945
1.4929298162460327 0.25757157802581787 -1.7207423448562622
0.5184065699577332 0.866769015789032 -0.5226545929908752
1.1894828081130981 0.032686054706573486 0.6776052713394165
1.8122309446334839 0.08334067463874817 -1.1677439212799072
1.3926817178726196 -0.30137768387794495 1.1405086517333984
-1.1959553956985474 0.8166328072547913 1.3336634635925293
0.8027902245521545 0.69715416431427 -0.07707951217889786
-0.7160894274711609 0.7316172122955322 0.6221943497657776
1.9941037893295288 -0.6312885284423828 1.2691919803619385
2.383064031600952 -0.13325484097003937 -1.3261346817016602
1.1556744575500488 -0.63690185546875 -0.2105969786643982
-0.7564900517463684 -0.4132883548736572 -0.028708433732390404
0.27678442001342773 -0.6581887006759644 0.22158381342887878
-1.250394344329834 0.84366375207901 -1.385523796081543
-0.2357904016971588 1.1163110733032227 -0.2687520682811737
-0.12924504280090332 0.8831278085708618 0.7568366527557373
-0.02342352643609047 -0.46780869364738464 -0.5619182586669922
1.816830039024353 -0.4441644549369812 1.3451460599899292
2.33817195892334 0.2769997715950012 -0.16613660752773285
1.0569757223129272 0.4281291365623474 -1.251296877861023
0.0007702820003032684 0.5420471429824829 0.13186310231685638
0.6006028056144714 0.5612660646438599 -0.03701866790652275
-1.6727594137191772 0.29738497734069824 -0.049209415912628174
-2.6185967922210693 1.0083190202713013 1.584919810295105
-0.5756505727767944 0.991259753704071 0.9866545796394348
-1.6654006242752075 0.20404785871505737 0.6985085010528564
-1.393369197845459 1.063533067703247 -0.764847993850708
-1.9251505136489868 1.1120946407318115 -0.19307874143123627
-3.558589458465576 0.6324446797370911 -0.20347289741039276
2.154938220977783 -0.3430860936641693 -0.09364987909793854
-1.7556205987930298 -0.6518484950065613 0.7522629499435425
-1.4471272230148315 0.014601677656173706 0.13826709985733032
2.057324171066284 -0.2707558274269104 -0.9200893640518188
-2.3115031719207764 -0.7659124135971069 -0.7288184762001038
-1.9662535190582275 -0.07895167171955109 0.3594301640987396
1.2228082418441772 -0.6430790424346924 1.1932438611984253
1.379111409187317 -0.6227654218673706 -1.0064096450805664
-0.8504073023796082 0.0378032922744751 -1.1039198637008667
-1.5861506462097168 -0.08490288257598877 0.5380857586860657
-1.1144843101501465 0.35366716980934143 -1.3396295309066772
0.9104906916618347 0.6911069750785828 -1.4147677421569824
-0.8500784039497375 -0.4360959529876709 1.419593334197998
-2.9438588619232178 0.7806752920150757 0.673317551612854
-0.5505409240722656 -0.6466899514198303 1.0728360414505005
-1.6020525693893433 -0.5465677380561829 -1.2551261186599731
-1.182543158531189 -0.6687521934509277 -0.9932305812835693
-1.0812749862670898 0.17863620817661285 0.48806068301200867
-2.6749017238616943 0.40634050965309143 0.4121370017528534
-1.524693250656128 -0.2394292950630188 -0.022971931844949722
1.8976566791534424 -0.49220824241638184 -0.29812338948249817
-0.7414772510528564 -0.6708725094795227 1.0173197984695435
0.6569362878799438 -0.5093615055084229 -1.6651359796524048
-2.3240551948547363 -0.24037249386310577 0.41377609968185425
1.9848557710647583 -0.09675315022468567 -0.22132480144500732
0.031831491738557816 -0.14242853224277496 0.19023928046226501
0.12261749058961868 0.26962098479270935 0.0989147201180458
2.355457305908203 -0.018232598900794983 0.7621034979820251
0.7059610486030579 -0.6498424410820007 -1.0284401178359985
2.7506721019744873 -0.3367595076560974 -0.34271490573883057
1.5318830013275146 -0.07199312746524811 1.1069979667663574
0.5615538358688354 -0.42363297939300537 -0.6562979221343994
-2.03663969039917 0.6075727939605713 -0.08178886026144028
0.22922329604625702 -0.4474465847015381 0.8344264626502991
0.1762942522764206 1.065072774887085 -0.6244403719902039
-2.7714905738830566 -0.6095992922782898 -0.6449527144432068
-2.808331251144409 0.5169916152954102 -0.35418713092803955
0.3832768201828003 0.2714014947414398 -0.5942276120185852
1.8114793300628662 -0.22774074971675873 -0.24263523519039154
-2.464709520339966 0.9841688871383667 -0.17672611773014069
-0.8376607894897461 0.2766447067260742 0.26431354880332947
-1.126581072807312 0.2624121904373169 -0.6472303867340088
-2.7825920581817627 0.6215236186981201 0.5065150856971741
0.9582094550132751 -0.44514769315719604 0.29337799549102783
1.083436131477356 -0.3575023412704468 -0.36113783717155457
-1.9001061916351318 -0.06865401566028595 0.0685625746846199
0.9392873048782349 1.1118316650390625 0.3152737617492676
-1.2602686882019043 0.12368527054786682 1.3894593715667725
-2.0559098720550537 -0.18017160892486572 1.2966114282608032
2.0063819885253906 -0.3253228962421417 -0.11628507077693939
-1.403435468673706 1.0876935720443726 0.8106729388237
1.260632038116455 0.20662811398506165 -0.12332466244697571
0.3459111154079437 -0.63141930103302 -0.048847779631614685
1.8409227132797241 -0.63199782371521 0.019438423216342926
0.5130168795585632 0.7302820682525635 0.17573750019073486
2.9844491481781006 -0.7492513060569763 0.002475908026099205
-2.111968517303467 0.19553378224372864 0.21594804525375366
1.0042026042938232 -0.006746649742126465 -0.16826048493385315
2.2539429664611816 -0.5129218101501465 -0.8488685488700867
0.22118797898292542 -0.6490919589996338 -0.013341040350496769
-1.5374410152435303 0.4141600430011749 -1.3377684354782104
1.4689788818359375 0.756763756275177 0.565952718257904
-1.5002307891845703 -0.5175893306732178 0.8637840151786804
-1.2462908029556274 -0.6667660474777222 1.1141537427902222
0.4449358880519867 -0.02709093689918518 -0.9082449078559875
-1.4532328844070435 0.1459505558013916 -0.14276061952114105
-1.1693350076675415 0.5965115427970886 0.8804256916046143
-2.5864477157592773 0.07081499695777893 0.24585627019405365
-2.076427936553955 1.0799092054367065 -0.3373917043209076
0.213181272149086 -0.31211286783218384 -0.4837813675403595
-0.3051421046257019 -0.654873251914978 -0.6953184008598328
0.38495883345603943 1.1111679077148438 0.3328745663166046
-1.5564274787902832 0.7123010754585266 0.8971350789070129
-0.9189125299453735 1.0589488744735718 0.5746034979820251
-2.3231563568115234 0.2350151240825653 0.15320582687854767
0.04427321255207062 0.4858112931251526 -0.4144290089607239
-1.43781316280365 0.13721558451652527 -1.335707187652588
-3.0117640495300293 0.6492390632629395 0.6277493834495544
-1.1445571184158325 -0.6156456470489502 0.24225705862045288
-1.2680681943893433 1.2425867319107056 -0.4822506010532379
0.03516685962677002 -0.6364551186561584 -1.2917877435684204
0.026003390550613403 0.3583694100379944 -0.9687656760215759
-0.9009049534797668 -0.31506025791168213 0.2103651463985443
1.984135389328003 0.3119403123855591 0.3626769781112671
0.446725070476532 0.7164748311042786 -1.3087348937988281
-2.2271902561187744 0.3103949725627899 0.4135115444660187
0.919045627117157 0.36723029613494873 -0.17004118859767914
1.2919641733169556 -0.6652218103408813 -0.6274763345718384
0.9721168875694275 0.3073112964630127 0.4687440097332001
2.692202091217041 0.348862886428833 0.7113043665885925
-0.2014898955821991 -0.09129378199577332 1.8357160091400146
-1.3537917137145996 -0.31753700971603394 0.4447620213031769
-1.6903244256973267 -0.5316415429115295 0.732306718826294
0.20747189223766327 -0.6397411823272705 -0.1516503244638443
-1.81737220287323 0.13216210901737213 -0.060786399990320206
-1.2963887453079224 -0.20312409102916718 -1.003231406211853
-1.3912063837051392 1.1399003267288208 0.028140578418970108
-0.7203989028930664 -0.20612698793411255 0.9374587535858154
0.3430900573730469 1.1201010942459106 0.42625826597213745
-0.9768791794776917 -0.22852355241775513 -0.005392360966652632
0.8482261896133423 -0.17639295756816864 1.3229011297225952
1.424774408340454 0.12205670773983002 -0.5886578559875488
1.0132085084915161 0.04691362380981445 -0.809048056602478
-1.3873603343963623 0.20558933913707733 0.1719144582748413
-1.0721676349639893 -0.40488672256469727 1.6162633895874023
-0.18562790751457214 0.35791927576065063 1.517547369003296
-0.42769938707351685 0.8018000721931458 0.2539181411266327
0.7737653851509094 0.25613969564437866 -0.3573566675186157
-0.5229709148406982 -0.6410790681838989 -0.8046183586120605
-2.2113122940063477 0.09978324174880981 -0.09372081607580185
2.8339505195617676 -0.28583061695098877 -0.8318967223167419
-1.7864866256713867 0.2813747525215149 -0.14402607083320618
-0.7365105748176575 -0.3212820887565613 -0.7785474061965942
1.3314893245697021 -0.495194673538208 0.2058742791414261
0.4467735290527344 0.6929373741149902 -0.29587647318840027
2.923198938369751 -0.5612552165985107 0.14617836475372314
-1.4744397401809692 0.5658760070800781 -0.622345507144928
-1.520132303237915 -0.25228169560432434 0.3257487714290619
0.20890267193317413 0.14228633046150208 -0.708570122718811
-0.5434731841087341 -0.17313924431800842 -0.7720214128494263
-0.02705640345811844 0.38165754079818726 0.9771124720573425
2.981780767440796 0.30145248770713806 0.7454132437705994
-0.12312185019254684 -0.07716844975948334 0.9373148083686829
-2.13692569732666 -0.22824309766292572 -0.29817572236061096
1.3105146884918213 -0.057031482458114624 -0.5350642204284668
0.7217718362808228 -0.3929637670516968 1.7603904008865356
0.06985951960086823 -0.08335280418395996 1.1214245557785034
2.780770778656006 0.3214951157569885 0.9486216306686401
-2.038839101791382 -0.28509390354156494 0.9497846961021423
-2.6680145263671875 -0.3462212085723877 0.4404667317867279
-0.041326701641082764 0.7880271673202515 1.0785964727401733
-0.4405866265296936 0.4030883312225342 -0.5455570816993713
-1.2053412199020386 0.4179539084434509 0.2500660717487335
-1.4549918174743652 0.6241182684898376 1.0698046684265137
0.8626924157142639 0.8118797540664673 -0.5907779932022095
0.7548062801361084 0.9042583703994751 0.517776370048523
-2.2273778915405273 -0.3125985860824585 -0.3776247501373291
0.1194513589143753 -0.6293430328369141 -0.875239908695221
0.02356306090950966 -0.23625755310058594 -0.19146570563316345
-1.491471290588379 -0.32502663135528564 1.0793019533157349
1.4908146858215332 0.5900541543960571 -0.5923947095870972
-0.3727377951145172 0.05000962316989899 -0.5320731401443481
-2.060054063796997 -0.6501303315162659 -0.8461841940879822
-1.6216000318527222 0.7977081537246704 -0.6447953581809998
-0.5092632174491882 -0.1396179050207138 -1.3214917182922363
1.5539395809173584 0.25777506828308105 0.4112617075443268
-0.735372006893158 0.9906149506568909 0.4629499316215515
1.2833991050720215 0.11996069550514221 1.4913564920425415
-1.3876068592071533 -0.8239128589630127 0.8906114101409912
-0.8683740496635437 -0.7006497979164124 0.9241689443588257
1.8853410482406616 -0.7113887667655945 0.39075222611427307
-2.150844097137451 0.2892903983592987 -1.4764313697814941
-1.8000085353851318 0.7282513976097107 0.20211362838745117
-0.3856518864631653 1.058692455291748 -0.05924331396818161
-1.066908836364746 0.8914470672607422 -0.5673525929450989
-1.9907572269439697 0.37244707345962524 0.2085963636636734
-1.212037205696106 0.010714426636695862 0.6877292990684509
-1.8223273754119873 0.2612972855567932 0.3192996382713318
1.3035728931427002 -0.6000062823295593 1.224877119064331
0.37856152653694153 -0.6635358333587646 -0.20951123535633087
-0.8099724650382996 -0.36508703231811523 -0.04374423250555992
-1.6055731773376465 -0.5635281205177307 1.05955970287323
-2.6324164867401123 -0.3390966057777405 -0.49885764718055725
-2.2562856674194336 1.1368370056152344 0.5485485792160034
-0.08701294660568237 0.6618285179138184 0.5851582884788513
-1.7362959384918213 -0.6180753707885742 -0.7633549571037292
1.104048728942871 -0.401752233505249 0.49078404903411865
-2.063370704650879 -0.6337059736251831 -0.2570086419582367
0.7966182827949524 0.5863916873931885 0.6677517890930176
1.1668518781661987 0.03507967293262482 0.5127542018890381
1.9105777740478516 -0.11300051212310791 -0.31398680806159973
-1.1108944416046143 0.8407487869262695 1.6168262958526611
3.2083449363708496 -0.19287310540676117 0.5681077241897583
-1.665574073791504 -0.3055334687232971 -0.3190114200115204
-1.6760321855545044 0.02839958667755127 0.7112642526626587
0.5298197865486145 -0.6567198038101196 -0.031154323369264603
-2.52241587638855 -0.5824702978134155 1.0471446514129639
2.4026501178741455 0.06953047215938568 1.2450695037841797
-3.0218491554260254 -0.029226645827293396 0.8446486592292786
-0.8780513405799866 1.0366872549057007 -0.7075982689857483
-1.8069179058074951 -0.013895958662033081 -1.2032641172409058
-2.385791540145874 -0.05405829846858978 -0.3443200886249542
-1.9828630685806274 0.3825470209121704 -1.0471949577331543
-0.24437975883483887 -0.4131280183792114 -0.027542555704712868
0.8301641941070557 -0.13208550214767456 -0.3164648711681366
2.2697834968566895 0.4045177698135376 -0.4314599335193634
-1.1342965364456177 -0.3838886618614197 0.4634461998939514
1.5402289628982544 -0.45975667238235474 1.3576524257659912
-1.6242984533309937 -0.3940362334251404 -0.7305223941802979
-1.8735920190811157 0.5898579955101013 0.07073704898357391
-0.5159612894058228 -0.5114699006080627 1.2969040870666504
3.1902990341186523 -0.6091644763946533 -0.6289704442024231
-1.738623023033142 0.05336858332157135 1.8785203695297241
1.7593294382095337 0.6923885345458984 0.9814499020576477
0.9149566292762756 -0.4782896041870117 -0.9038394093513489
1.9358000755310059 -0.04895256459712982 -0.8928329348564148
1.0189709663391113 0.4454941749572754 -0.00047577806981280446
1.0328032970428467 -0.3911170959472656 1.0162700414657593
-1.6483510732650757 -0.3111516833305359 0.157243013381958
-0.7431928515434265 0.09669420123100281 -0.7518923282623291
-1.5365879535675049 0.38646945357322693 0.42158108949661255
-1.8920528888702393 0.6566438674926758 0.8695489168167114
-2.2467901706695557 0.5138606429100037 -0.1501815766096115
-2.6430587768554688 0.29373258352279663 -0.6358473896980286
-1.3023239374160767 -0.618395209312439 0.8236043453216553
-2.56158185005188 -0.019731521606445312 -0.5376206636428833
-1.9643995761871338 1.1119182109832764 -0.24521678686141968
-0.3041349947452545 -0.6336373090744019 -1.2402682304382324
-1.1461399793624878 1.1615279912948608 0.7136847972869873
-2.923494815826416 -0.36720240116119385 0.8893213272094727
0.028512421995401382 0.13038231432437897 -0.1704258918762207
0.3959776759147644 0.7396193742752075 -0.8051932454109192
-0.038352176547050476 -0.6183825731277466 -1.1111841201782227
0.9051418304443359 -0.4472748637199402 1.0866142511367798
1.5352116823196411 -0.6182432174682617 -0.2679436504840851
-1.398088812828064 -0.6882518529891968 0.25142723321914673
-1.5523648262023926 0.6202555298805237 0.5809580683708191
-2.1233699321746826 -0.6111271381378174 0.15946337580680847
-0.9574503898620605 0.4214255213737488 -0.9115939140319824
-1.0055574178695679 0.19907726347446442 -1.5166782140731812
1.5498155355453491 -0.19750383496284485 0.2941482663154602
-0.5396799445152283 -0.30004024505615234 0.6127864122390747
-0.8727874755859375 -0.6570927500724792 -0.13796573877334595
1.2468565702438354 -0.5986698865890503 0.9861928224563599
0.8573843240737915 0.80088871717453 0.798593282699585
1.3117163181304932 0.030269086360931396 -0.34899669885635376
0.6577160358428955 0.021202147006988525 0.5625407695770264
-1.925689935684204 0.4943099617958069 -0.012247579172253609
-0.7467395067214966 -0.14557667076587677 0.62416672706604
-1.5842288732528687 -0.6046076416969299 0.0255963746458292
2.3620824813842773 -0.03484952449798584 -0.12753713130950928
-0.24678373336791992 0.4773469865322113 0.5559321641921997
-2.3653879165649414 -0.11674842238426208 -0.5439666509628296
-1.3151249885559082 0.8639146685600281 0.43226030468940735
1.8151417970657349 -0.645956814289093 0.36354902386665344
1.9564063549041748 0.17158429324626923 0.5024316906929016
-2.5754826068878174 0.9965308308601379 0.21520370244979858
0.7337483167648315 0.9659726023674011 -0.4233417510986328
-0.0940626710653305 0.19943563640117645 -0.5490677356719971
1.4157092571258545 -0.09118480980396271 -1.3280771970748901
-1.8092354536056519 -0.48842716217041016 -0.8820465207099915
-2.2113213539123535 0.4973524808883667 -0.5251851081848145
-1.6002168655395508 -0.14819903671741486 -0.16045083105564117
-0.7217891812324524 -0.6305162906646729 0.3345734477043152
2.153440475463867 -0.6144084334373474 0.39080601930618286
-2.3142893314361572 -0.4618002772331238 -0.05108095705509186
-1.0790066719055176 -0.09576298296451569 0.41543838381767273
1.3018791675567627 0.3280388116836548 0.1135629266500473
3.0532755851745605 -0.05136990547180176 0.681316614151001
-1.9303207397460938 0.8083177208900452 0.755552351474762
-1.1850731372833252 -0.18522758781909943 0.5755859017372131
0.010141782462596893 0.4929972290992737 0.2857520282268524
-0.9024105072021484 -0.7020924687385559 -0.15733495354652405
-1.639755129814148 0.2919120788574219 -0.3364301025867462
-2.702436685562134 0.4605879783630371 0.9921716451644897
1.8090354204177856 0.27484890818595886 -1.3498620986938477
-2.1331143379211426 0.5520462393760681 1.4792665243148804
1.8110475540161133 1.0426485538482666 0.4575153589248657
-1.027966856956482 0.8792770504951477 0.7753205299377441
-2.0839312076568604 -0.0128517746925354 -0.1816960573196411
1.8391872644424438 0.32694709300994873 -0.602748453617096
-0.7822434902191162 -0.047460734844207764 1.1340510845184326
-2.095688581466675 0.5344786047935486 -0.5588156580924988
-0.7429183125495911 0.4407116174697876 1.4112704992294312
2.059082508087158 0.6752158999443054 -0.5039550065994263
1.4920964241027832 0.6856832504272461 0.01146295852959156
-2.2711966037750244 -0.4900231659412384 -0.46158406138420105
1.8186180591583252 -0.4626203179359436 0.028133010491728783
-2.933943748474121 -0.23995094001293182 0.7311926484107971
-1.543722152709961 0.9856998920440674 0.8526241183280945
-0.7659057378768921 0.8388665318489075 -0.49032366275787354
-2.723787546157837 -0.0681440532207489 0.7187329530715942
0.7216473817825317 -0.6575016975402832 0.8943180441856384
1.3343971967697144 -0.436349093914032 0.21001797914505005
2.7970306873321533 -0.45842283964157104 0.20259441435337067
0.6952723860740662 1.0595417022705078 0.22339536249637604
-1.4289488792419434 -0.7700389623641968 -0.6670123338699341
-0.5542808175086975 -0.15520904958248138 -0.3617096543312073
0.7624608278274536 -0.060411810874938965 -0.6948941349983215
-0.8687433004379272 0.6118879914283752 -0.09486490488052368
-1.9412380456924438 0.4883754849433899 -0.04763314872980118
-1.7448805570602417 -0.2749468684196472 0.25376012921333313
1.3886209726333618 -0.49715766310691833 -0.8009111285209656
1.4792717695236206 0.20546741783618927 0.6502822637557983
1.432204008102417 -0.3415377736091614 -1.1560579538345337
-1.3732554912567139 0.15365934371948242 0.4221576750278473
0.5081389546394348 1.0105689764022827 -0.4611024558544159
0.27034133672714233 0.9727006554603577 0.6864121556282043
-0.25020673871040344 1.0931200981140137 -0.37742266058921814
1.468038558959961 -0.3673737049102783 -0.25772494077682495
0.34781163930892944 -0.5779058933258057 1.1530512571334839
1.2871721982955933 -0.6753321886062622 0.8255251049995422
0.9038242101669312 0.7152872085571289 -0.283212810754776
-1.0828300714492798 0.12444989383220673 0.12615039944648743
-1.8314584493637085 -0.22310248017311096 -1.027117133140564
-1.2605031728744507 0.6879305243492126 1.5879565477371216
-0.9879860281944275 -0.2975148558616638 0.4528021514415741
-1.503208041191101 -0.4736412465572357 -1.184598684310913
1.8072261810302734 -0.14505986869335175 -0.4396122992038727
-0.592998743057251 0.23396331071853638 -0.6589155197143555
-0.34797316789627075 -0.2669804096221924 0.5103721022605896
1.3271275758743286 -0.015678614377975464 -0.027433190494775772
-0.7822827696800232 0.7678686380386353 -0.3376752734184265
0.5871911644935608 0.15420132875442505 -0.5718348026275635
0.9129117131233215 0.12760497629642487 0.5129889249801636
-2.2479660511016846 0.33072465658187866 -0.47793298959732056
-0.7967626452445984 0.47700488567352295 1.1091125011444092
1.076823353767395 0.2391349971294403 -1.6367088556289673
0.07055486738681793 1.0837762355804443 -0.7535911798477173
-1.117512583732605 -0.06401678919792175 0.15755099058151245
2.590812921524048 -0.893802285194397 0.5364692211151123
-0.345004677772522 0.7688971757888794 0.6650819182395935
1.4624111652374268 -0.20574522018432617 -0.6930578351020813
0.47309979796409607 0.6195693016052246 0.7793387174606323
1.6862674951553345 -0.6557871103286743 -0.13926443457603455
-0.7418621778488159 0.025846034288406372 0.49182605743408203
3.189027786254883 -0.0032151788473129272 0.045899149030447006
-0.2495000809431076 0.6909413933753967 0.19894175231456757
0.5854400396347046 -0.4432362914085388 0.2725677788257599
-0.6913578510284424 -0.2226240336894989 -0.4183921217918396
0.6715770959854126 0.5624234080314636 -0.15600907802581787
2.73834228515625 0.5248873829841614 -0.3078087270259857
-0.9265641570091248 -0.33970946073532104 -0.7551352977752686
1.8981496095657349 0.38149523735046387 -0.31469741463661194
-2.3206520080566406 0.5377855896949768 0.4637007415294647
-0.9222183227539062 0.5584351420402527 -0.08632773905992508
0.6553077101707458 0.9194671511650085 -0.547633171081543
-0.9442211389541626 1.2262786626815796 -0.2847336232662201
0.8318988084793091 -0.2842669188976288 1.28421151638031
-1.3275642395019531 0.2959778904914856 0.6306232213973999
-2.0434882640838623 0.917871356010437 0.7715814709663391
1.879272222518921 0.22056953608989716 0.35447070002555847
-0.7209795117378235 0.2055201381444931 -0.16617368161678314
0.6951307654380798 -0.4044431149959564 0.27498552203178406
-3.2450923919677734 -0.4895282983779907 -0.8160980939865112
-0.4658001661300659 0.2207491099834442 0.3019842505455017
1.3399633169174194 0.6680030226707458 -1.0343506336212158
0.9753237962722778 -0.6762917637825012 0.41708868741989136
1.3680726289749146 0.5679115056991577 -1.094862461090088
-1.5101921558380127 0.7106088995933533 -0.8205364346504211
-1.439649224281311 -0.6590666174888611 0.61240154504776
-1.8081324100494385 1.0680077075958252 1.0461559295654297
-2.187753200531006 0.9186992645263672 0.539887547492981
0.8671681880950928 -0.6901230216026306 -0.4474421441555023
0.6559514403343201 -0.44536152482032776 -0.016524219885468483
0.21145744621753693 0.488525390625 -1.1487632989883423
2.7345569133758545 0.21068298816680908 1.1562631130218506
1.2020397186279297 -0.7779725193977356 0.48386162519454956
-2.476142406463623 0.8795406818389893 -0.5025820732116699
-2.170306444168091 0.06964258849620819 0.4624936580657959
-1.7796976566314697 0.09563545882701874 -0.40154537558555603
0.6672700047492981 0.6045730113983154 -1.1830774545669556
3.1228983402252197 0.2629110813140869 -0.9435599446296692
-1.0048178434371948 -0.026017650961875916 -0.38562247157096863
-2.055851697921753 0.5643624663352966 0.06444820761680603
1.9074654579162598 0.43477556109428406 -0.10230280458927155
-1.1888158321380615 1.2344062328338623 -0.5922074913978577
-0.4782150685787201 0.8770346641540527 -1.5510480403900146
0.07440993934869766 0.17525580525398254 0.5901851654052734
-1.1951558589935303 0.2820768356323242 -0.6924972534179688
-1.7750601768493652 -0.7194420099258423 0.5678792595863342
0.4440252184867859 0.7562670707702637 0.6312996745109558
2.8494396209716797 0.26594722270965576 -0.29874280095100403
-1.793558120727539 -0.6261986494064331 0.5108412504196167
-0.5337483286857605 -0.6713125705718994 0.08848951011896133
-2.0734798908233643 -0.13191400468349457 0.36823663115501404
1.1284513473510742 0.7010757327079773 -1.3929495811462402
-1.3397767543792725 0.313378244638443 1.4017984867095947
0.9205944538116455 -0.07733362913131714 1.04496431350708
0.08355432003736496 -0.17983238399028778 -0.499161958694458
-1.2730036973953247 0.9246127009391785 0.4959757328033447
-1.0192394256591797 0.13596181571483612 -0.260734885931015
1.0162882804870605 -0.45753300189971924 -1.1508721113204956
-2.5699551105499268 -0.3575887680053711 0.2909412980079651
1.0471991300582886 -0.5497422218322754 0.676085352897644
1.9408073425292969 0.31792473793029785 0.2813788056373596
-0.05735312029719353 0.9191067218780518 0.8719473481178284
0.7236092686653137 -0.6626309156417847 0.8010409474372864
1.0542583465576172 0.05595676600933075 0.6719467043876648
-0.900115966796875 1.2439228296279907 0.44120654463768005
-0.3796641230583191 -0.34356728196144104 -0.44615641236305237
0.1839284598827362 -0.2863801121711731 0.959276020526886
1.1664223670959473 0.03542141616344452 -1.0306103229522705
-1.3519552946090698 0.23000292479991913 -1.4109883308410645
2.4188895225524902 0.22386477887630463 0.5325115919113159
-1.5433909893035889 0.643303632736206 0.9751980900764465
0.3215385675430298 0.3727625906467438 0.41984155774116516
-1.5957728624343872 0.29261788725852966 1.3660067319869995
-0.09123416990041733 0.8278326988220215 -0.9377490282058716
0.19183027744293213 -0.20765462517738342 0.7740035653114319
-0.9740726351737976 -0.5014791488647461 0.7013022899627686
1.5615808963775635 -0.6681951284408569 -0.567206859588623
0.24480053782463074 -0.39052146673202515 -1.7615818977355957
0.46046704053878784 -0.030627325177192688 1.2970242500305176
-2.386970281600952 0.5987540483474731 -0.7225502729415894
0.2764424979686737 -0.39074403047561646 -0.5118533372879028
1.3784998655319214 -0.6682380437850952 -0.18298929929733276
2.3921046257019043 -0.2993941307067871 -0.955907940864563
0.24007081985473633 0.6997348070144653 -0.06982240080833435
-2.12235164642334 -0.051774248480796814 -0.09659294039011002
-0.39467573165893555 -0.6278519630432129 0.38253724575042725
-2.4253718852996826 0.3200920820236206 -1.06456458568573
-1.0600906610488892 -0.3159235119819641 -0.8441343307495117
0.2503766417503357 -0.6433628797531128 -0.37793976068496704
2.561814069747925 0.3060276508331299 0.45817404985427856
-0.4217742383480072 0.2077065408229828 -0.634328305721283
-0.21845176815986633 0.25560903549194336 -0.5040615797042847
-2.3061394691467285 0.7437484860420227 0.4728242754936218
-0.016669970005750656 0.34658360481262207 1.4621295928955078
-2.1658432483673096 1.1173197031021118 -0.9080454707145691
-1.1632118225097656 -0.6083505749702454 -0.15171273052692413
0.9143176078796387 -0.26860806345939636 0.6085590124130249
-2.526440382003784 0.2625947594642639 -0.156091570854187
-2.2299604415893555 -0.581691324710846 0.40887272357940674
-2.627962827682495 0.64822918176651 0.3526933193206787
-1.2984737157821655 0.5189268589019775 0.3208255469799042
-1.1050244569778442 0.7638230323791504 -1.4536863565444946
2.1498844623565674 -0.6925036907196045 0.14661826193332672
-1.1324652433395386 0.7212340235710144 0.436379075050354
-0.6009597778320312 0.17451384663581848 0.39187315106391907
1.426456332206726 0.8424547910690308 0.20011994242668152
-2.4297451972961426 -0.1585676670074463 0.05244285240769386
2.284712791442871 -0.04085195064544678 -0.17391131818294525
0.5906193852424622 -0.10982337594032288 0.9809485673904419
-3.248142719268799 0.12281917035579681 1.2371551990509033
-2.797581672668457 0.8134322166442871 -1.0647914409637451
-2.292633295059204 0.25924554467201233 0.1322074830532074
0.5377886891365051 0.9733105897903442 -0.5140633583068848
1.6742403507232666 0.7256613373756409 -0.4536276161670685
0.3880627155303955 1.0005905628204346 -0.4936978816986084
-2.2323827743530273 -0.06974010169506073 -1.2034300565719604
-0.025148916989564896 0.5665427446365356 0.7162964344024658
0.660235583782196 1.0553593635559082 0.5725415349006653
2.4002089500427246 0.3974032402038574 -0.8758273124694824
1.8911772966384888 0.18785105645656586 -0.2820098102092743
1.1587274074554443 -0.5554165840148926 -0.7544965744018555
-1.5039891004562378 0.7766205668449402 0.3436473309993744
2.5241682529449463 -0.6250714659690857 -1.1066865921020508
1.5522215366363525 0.07766221463680267 0.07826459407806396
0.8943055272102356 0.1358688473701477 -0.9052106738090515
3.8798024654388428 -0.441728413105011 -1.0450011491775513
-1.7347244024276733 -0.3823354244232178 0.8400945663452148
-0.5715540647506714 0.6863076686859131 1.4460803270339966
-1.43900465965271 0.09184905886650085 1.0107057094573975
1.1235309839248657 0.8309773206710815 -0.0955287367105484
2.043308734893799 -0.21824271976947784 -1.115069031715393
1.9696327447891235 0.0175665020942688 -0.5339564085006714
1.9516551494598389 -0.38234591484069824 1.2996068000793457
-1.3899266719818115 -0.07640412449836731 -0.687764585018158
-1.4214413166046143 0.04874919354915619 0.3464503288269043
-1.9709652662277222 0.06809093058109283 0.11837316304445267
-1.840681552886963 -0.1723414808511734 0.2368452101945877
-1.7810137271881104 -0.7487004399299622 -0.855133593082428
-2.1211016178131104 0.9085018038749695 0.5670702457427979
2.261176347732544 0.4884752631187439 -1.3164252042770386
-1.0188329219818115 -0.219721719622612 -0.2576373219490051
0.42905929684638977 -0.17158719897270203 0.48324787616729736
-1.4356392621994019 0.8438547253608704 -0.6974658966064453
1.3242257833480835 -0.23514249920845032 -0.3981899917125702
-2.5295181274414062 0.43381792306900024 0.5829744935035706
-0.17697161436080933 0.6099066734313965 -0.07641379535198212
-0.44171303510665894 -0.055069610476493835 -1.7106419801712036
-1.1943532228469849 0.7815138101577759 -0.27923715114593506
2.342547655105591 0.018801555037498474 -1.240075945854187
-1.7749468088150024 1.18096125125885 0.03632977977395058
-1.9408355951309204 -0.19975027441978455 -0.33637920022010803
0.12555184960365295 -0.3525765538215637 0.15011699497699738
-0.618075966835022 -0.31548190116882324 0.568011462688446
-2.306760787963867 0.04007887840270996 1.1877326965332031
-0.932572066783905 1.0866141319274902 0.4692722260951996
-2.0535457134246826 0.15268227458000183 0.4885408878326416
-1.5775808095932007 0.6607496738433838 -1.5041275024414062
-1.9921190738677979 0.7179988622665405 -0.46042361855506897
3.0195400714874268 0.33631032705307007 -0.31126606464385986
-1.9505685567855835 0.023348942399024963 0.5693609714508057
-2.0169734954833984 -0.4785841107368469 -0.29618504643440247
2.1076786518096924 -0.32660484313964844 1.083197832107544
2.2788209915161133 -0.6522926092147827 0.09612098336219788
-0.8693172931671143 -0.3859638571739197 -0.15183214843273163
-1.4211395978927612 -0.6380733847618103 -1.1403013467788696
-1.7095868587493896 -0.027656778693199158 0.16358181834220886
0.7282158732414246 -0.6360546946525574 -0.8122225999832153
2.0141217708587646 -0.5449386835098267 -1.2234843969345093
-0.6061667203903198 -0.11372065544128418 -0.6990521550178528
-1.7980576753616333 -0.0944046676158905 1.0695788860321045
-1.206990122795105 0.9092276692390442 -0.361507385969162
0.3107994794845581 0.23331265151500702 0.2127094864845276
-1.7761555910110474 0.5874668955802917 -0.5547971129417419
-1.9449855089187622 -0.004405960440635681 0.3553491532802582
-0.4925554096698761 0.35679084062576294 1.0858149528503418
-2.364922523498535 0.44240933656692505 -0.19117489457130432
-2.7084171772003174 -0.2560715079307556 0.6614876985549927
-2.3729491233825684 -0.152181014418602 0.9465460777282715
-1.967441439628601 0.7004212141036987 -0.7844207882881165
-1.6544132232666016 0.9670487642288208 0.16855184733867645
-2.9773151874542236 0.5912587642669678 0.32578954100608826
-0.17550987005233765 -0.09732243418693542 0.8898678421974182
-1.4009342193603516 0.7302567958831787 0.4131415784358978
2.8048410415649414 0.13450148701667786 -0.7610730528831482
-0.6085683107376099 0.6627017259597778 1.02446711063385
-3.225250482559204 -0.8284247517585754 -0.09667366743087769
-0.49323123693466187 -0.04349510371685028 0.03800025209784508
-3.1146345138549805 -0.21783821284770966 -0.5443391799926758
1.1936898231506348 -0.4988163113594055 1.2191890478134155
-1.8361650705337524 0.4062359035015106 -0.712456226348877
-0.9363003969192505 1.0969635248184204 0.3106817901134491
-2.688216209411621 -0.5052006244659424 -0.6063222289085388
-0.258096307516098 -0.37879514694213867 -0.07145311683416367
-2.2393548488616943 -0.329402357339859 -0.5289449095726013
-0.7609678506851196 0.10310626029968262 0.06849146634340286
-1.643294095993042 0.9052279591560364 0.13991907238960266
-1.4035897254943848 1.0521352291107178 -0.5451434254646301
-1.7940192222595215 -0.44727393984794617 1.1850502490997314
-0.7322704792022705 -0.22540047764778137 -0.9307786822319031
2.888474464416504 -0.021574124693870544 0.03212296590209007
-1.970686912536621 0.09090657532215118 1.1747660636901855
0.9177393913269043 -0.025240257382392883 0.6064989566802979
0.3519517779350281 -0.22898702323436737 1.0734901428222656
-1.0490856170654297 -0.44519031047821045 0.5082066655158997
1.0102869272232056 -0.11689552664756775 0.4650346040725708
-1.5245693922042847 0.007028758525848389 0.0702189952135086
1.1043444871902466 -0.24350936710834503 0.7328978180885315
-2.9800634384155273 -0.012491852045059204 0.5162352323532104
-0.2624923586845398 -0.6731411218643188 0.2318648397922516
1.4583526849746704 -0.27944162487983704 -0.33040159940719604
-0.9777988195419312 0.3061767816543579 -1.2476863861083984
-2.403757333755493 -0.5040605664253235 0.9911677241325378
3.2813925743103027 -0.44707751274108887 0.20639899373054504
1.2569130659103394 -0.6871290802955627 -0.4310210943222046
1.907200574874878 0.0995541512966156 -0.4898323118686676
-2.2085351943969727 0.8310385942459106 0.23003478348255157
0.9763431549072266 -0.4795956313610077 -1.0322238206863403
0.8706727027893066 -0.22792208194732666 -0.7656548023223877
-1.87998628616333 -0.20589971542358398 0.4213770031929016
-0.8707460761070251 -0.2094755619764328 -1.2562154531478882
-1.8904941082000732 1.029111385345459 -1.079070806503296
-1.545888066291809 -0.06353326141834259 -1.4711202383041382
-1.6295713186264038 -0.5913962721824646 1.2574751377105713
0.7894479632377625 -0.612415611743927 -0.5441153049468994
-0.43252912163734436 -0.2148231565952301 1.312354326248169
-0.9595134854316711 0.4370677173137665 -1.5865229368209839
-1.852039098739624 0.12032043933868408 -1.5909810066223145
0.6745709180831909 0.9360993504524231 0.5258930325508118
1.0905115604400635 -0.15560844540596008 -0.8016458749771118
3.0224251747131348 0.27989518642425537 0.20724231004714966
-1.2298725843429565 -0.23847904801368713 -0.5931223034858704
-0.27518436312675476 -0.32951071858406067 -0.5636734962463379
0.9465526938438416 -0.18867482244968414 -0.5735223889350891
0.7303580641746521 -0.5037655830383301 -0.5349075794219971
-0.5429210662841797 0.19752494990825653 0.6683071255683899
1.4661858081817627 0.4065408706665039 -0.7252732515335083
-1.2942066192626953 1.0803108215332031 0.2925405204296112
1.0120420455932617 0.9450854659080505 0.7266096472740173
2.1209375858306885 0.6600557565689087 -0.7069887518882751
-2.7019596099853516 0.32704734802246094 -0.5872489809989929
-0.1129850223660469 0.8993055820465088 1.223939299583435
1.999142050743103 0.3075881004333496 -0.2425476461648941
-0.6128775477409363 0.4470544457435608 0.48863714933395386
1.867072582244873 -0.3031960725784302 -0.7820329070091248
2.0525591373443604 0.10859179496765137 -0.28293219208717346
-1.1111892461776733 0.7654399871826172 -1.445609450340271
-1.207200288772583 -0.5455652475357056 -0.14438293874263763
-0.5267695188522339 0.6130772233009338 0.25455552339553833
2.1127681732177734 -0.21162039041519165 1.0506696701049805
-1.4309366941452026 0.8228849768638611 0.970366895198822
1.7974529266357422 -0.6293084621429443 0.4178643226623535
