ply
format ascii 1.0
element vertex 811
property float x
property float y
property float z
end_header
-0.38484930992126465 0.01888829469680786 -0.3507901728153229
-0.39708685874938965 0.36264246702194214 0.023857925087213516
-0.23741140961647034 0.5408398509025574 0.6263829469680786
1.2188777923583984 0.41801369190216064 0.1563848853111267
1.1681290864944458 0.2561665177345276 0.2542908489704132
0.8092693090438843 0.22224809229373932 -0.14382724463939667
0.23839716613292694 0.6890048980712891 -0.12271907180547714
-1.2848840951919556 0.1565408706665039 0.08730945736169815
-1.7757352590560913 0.2048557847738266 -0.044013798236846924
-1.3111851215362549 0.6057848930358887 0.2978352904319763
0.009656131267547607 0.2863694429397583 -0.5386528968811035
-1.0978087186813354 0.17727597057819366 0.11305419355630875
-1.307586908340454 0.3437687158584595 0.16766466200351715
-0.05831778794527054 0.624821126461029 -0.10583219677209854
-0.8349331021308899 0.8408597111701965 0.06846867501735687
-0.6252734065055847 0.42403724789619446 -0.267056941986084
-0.26166772842407227 0.7154324650764465 -0.09052590280771255
-1.1268683671951294 0.7315345406532288 0.4906941056251526
-0.3052777647972107 0.03708338737487793 -0.4199464023113251
0.7186411023139954 0.3727068603038788 -0.45319247245788574
1.0622721910476685 0.7040430307388306 0.17488406598567963
-1.4661327600479126 0.18269877135753632 0.5753155946731567
1.4801442623138428 0.47544628381729126 0.4388760030269623
-2.2116010189056396 0.42958587408065796 0.7633723616600037
-2.379258394241333 0.3349685072898865 0.4643757939338684
-0.15209035575389862 0.685196042060852 0.020825784653425217
-1.0849072933197021 0.3193768858909607 -0.09193000197410583
-2.1202006340026855 0.299884170293808 0.4880886375904083
-1.1819262504577637 0.1609748750925064 -0.04664230719208717
0.22096922993659973 0.12207195162773132 0.11082439124584198
-1.4261233806610107 0.38726210594177246 0.021461263298988342
-1.2053383588790894 0.6832203269004822 -0.3255006670951843
0.9438508152961731 0.3550335764884949 0.10087992250919342
-0.2919656038284302 0.3919224143028259 -0.09109234809875488
1.7378473281860352 0.61972576379776 -0.37672680616378784
-0.21135076880455017 0.5875091552734375 -0.5354401469230652
0.8972347974777222 0.545397162437439 0.10009884834289551
-0.7093647122383118 0.7693355679512024 0.12431154400110245
1.0970423221588135 0.6760727167129517 -0.14705300331115723
-0.7756461501121521 0.1629357635974884 -0.4025048613548279
1.0446571111679077 0.3741651773452759 0.4469752907752991
0.17678187787532806 0.06191509962081909 0.4524882435798645
-0.2370389699935913 0.6207704544067383 -0.8919934034347534
2.5851426124572754 0.5417805910110474 -0.27340641617774963
0.5486189723014832 0.20136435329914093 0.13489669561386108
-0.04064800590276718 0.7393159866333008 0.11972568929195404
-0.5757994651794434 0.4874855875968933 0.46627017855644226
-0.5969391465187073 0.015730738639831543 0.4487156867980957
-1.76372492313385 0.4042535424232483 -0.006556667387485504
0.09303358197212219 0.7907477021217346 0.1544475257396698
-0.7366235852241516 0.05115419626235962 -0.13285455107688904
1.778450608253479 0.3423709273338318 0.4235408902168274
0.6239919662475586 0.718056321144104 -0.7275149822235107
0.05945197120308876 0.5317977666854858 -0.6463056206703186
0.04141080752015114 0.7965327501296997 0.33970165252685547
-1.6474857330322266 0.31089651584625244 0.2962155044078827
0.190888911485672 0.7756237983703613 -0.4120810627937317
-1.817117691040039 0.5042756795883179 0.3451937139034271
0.057027630507946014 0.25058886408805847 0.10848109424114227
-0.536015510559082 0.3975009620189667 0.13823524117469788
0.2685767114162445 0.6569814085960388 0.13891491293907166
-2.5876049995422363 0.170554518699646 0.2310253381729126
-1.1537883281707764 0.6450943350791931 -0.43510302901268005
-0.26566627621650696 0.02894476056098938 -1.5563278198242188
-1.3902100324630737 0.2651945650577545 -0.12465338408946991
-0.20762741565704346 0.1777956187725067 -0.46224918961524963
1.5948383808135986 0.6974450945854187 -0.025706464424729347
0.87514728307724 0.4973796606063843 -0.5992865562438965
-1.4508533477783203 0.47576451301574707 0.3261313736438751
-0.8587601780891418 0.4058195650577545 0.0325516052544117
-1.8472793102264404 0.19717802107334137 -0.5170356035232544
0.9639069437980652 0.36912134289741516 0.6499892473220825
-0.37342679500579834 0.5118485689163208 0.40721139311790466
-0.9629306793212891 0.6759064197540283 -0.6988177299499512
-0.875118613243103 0.4583245515823364 -0.18061643838882446
0.22443720698356628 0.662557065486908 0.549522876739502
-0.22666217386722565 0.34829139709472656 -0.19598324596881866
0.5623856782913208 0.7055114507675171 -0.32226526737213135
0.3934189975261688 0.1477421522140503 0.3010457754135132
1.0534353256225586 0.274918794631958 -0.07503053545951843
-1.4550721645355225 0.31368696689605713 -0.5164328217506409
0.0886000543832779 0.17669612169265747 0.29586261510849
-1.8762248754501343 0.5636097192764282 0.1915942132472992
-1.2575737237930298 0.7098309993743896 0.38550466299057007
-1.4045367240905762 0.10955497622489929 -0.17195168137550354
-1.766317367553711 0.6685266494750977 0.30020585656166077
-0.5644363760948181 0.6689275503158569 0.04312434047460556
-1.1313683986663818 0.11053135991096497 -0.38607656955718994
-0.7761263847351074 0.187131866812706 -0.7169020771980286
0.08947005867958069 0.12978973984718323 0.5072436332702637
-1.1256171464920044 0.23256181180477142 0.36829373240470886
0.8856629133224487 0.7305728197097778 0.09736599028110504
0.4811967611312866 0.16579851508140564 0.26891353726387024
0.9872967600822449 0.642801821231842 0.298359751701355
-0.48932480812072754 0.6757614612579346 -0.5585837960243225
0.32569241523742676 0.677346408367157 -0.3542482256889343
-1.0312460660934448 0.7066518664360046 0.5719252824783325
-0.16164664924144745 0.8004650473594666 0.35282739996910095
-2.07584285736084 0.5838853120803833 -0.3643836975097656
-1.0736037492752075 0.28519406914711 0.0577707439661026
-2.048846483230591 0.31654369831085205 0.011544245295226574
-1.806628942489624 0.17670664191246033 0.5272846221923828
-0.3962363004684448 0.6584246158599854 0.13262417912483215
-0.20685607194900513 0.8263641595840454 0.09033434838056564
-1.8291449546813965 0.4546990990638733 0.3935321569442749
-0.3743937015533447 0.305644154548645 -0.5183644890785217
-1.4735091924667358 0.12476414442062378 -0.4956544041633606
-0.39664965867996216 0.6989192962646484 -0.03839542344212532
-0.7646026611328125 0.32903194427490234 0.280998170375824
0.4865109324455261 0.6262101531028748 0.5205811262130737
0.5068208575248718 0.5255632400512695 0.5704066753387451
0.4217335879802704 0.24846503138542175 0.3055418133735657
-0.3565971553325653 0.36400914192199707 -0.6230179071426392
1.789819598197937 0.3837618827819824 -0.4238502085208893
-1.1877284049987793 0.3426453173160553 -0.09435689449310303
-1.1154860258102417 0.788827121257782 0.19089187681674957
-1.4912091493606567 0.15951630473136902 -0.09021950513124466
-0.9410850405693054 0.7052866816520691 -0.18972426652908325
-1.3195445537567139 0.7416375875473022 0.5760793685913086
0.870925784111023 0.314513236284256 0.6088269948959351
1.5955032110214233 0.52241450548172 -0.3305571675300598
0.08711667358875275 0.32907921075820923 -0.8254194259643555
1.484456181526184 0.341964989900589 0.49013522267341614
-0.5275108814239502 0.15500858426094055 -0.3197426199913025
1.1537221670150757 0.354340523481369 -0.6611863970756531
0.0074286088347435 0.31713128089904785 -0.48810550570487976
1.3271589279174805 0.4973708391189575 0.3360832929611206
1.0107028484344482 0.7463114261627197 -0.2537274658679962
1.2544180154800415 0.7185457944869995 0.16884538531303406
-0.1846577376127243 0.5551804900169373 0.44997966289520264
1.4450931549072266 0.44896236062049866 0.2191302329301834
0.3960915505886078 0.2738293409347534 0.5868434309959412
-0.2712475061416626 0.04527026414871216 -0.8042306900024414
-0.6257485747337341 0.6439701914787292 -0.07163938879966736
-0.7992865443229675 0.43682366609573364 -0.3706970512866974
1.7864104509353638 0.5428529381752014 0.2578466832637787
-0.15616604685783386 0.6556065678596497 -0.0667201355099678
-0.7799557447433472 0.567288875579834 -0.4390183389186859
-0.9387944340705872 0.7344332337379456 -0.14145715534687042
-1.070181131362915 0.36347681283950806 0.5112144947052002
-0.263617604970932 0.8044492602348328 0.40610983967781067
0.7245765328407288 0.608516275882721 -0.1640981137752533
0.5676987767219543 0.6236061453819275 0.1409437209367752
0.11569558829069138 0.008684217929840088 -0.24240940809249878
-0.9994058609008789 0.2588104009628296 -0.7415980100631714
-1.6866741180419922 0.2632618248462677 -0.16577386856079102
-1.6943176984786987 0.40205442905426025 -0.6355032920837402
0.6717143058776855 0.19806824624538422 0.1269187033176422
0.5528978705406189 0.3351963460445404 0.2950762212276459
-0.31191515922546387 0.08822023868560791 0.10145983099937439
1.2542099952697754 0.27225780487060547 0.270305871963501
0.1998443603515625 0.33742207288742065 0.09974779933691025
0.3243706226348877 0.6725683212280273 0.35651686787605286
-1.262181043624878 0.06061488389968872 0.6081704497337341
-0.04903826490044594 0.41466277837753296 -0.4657723605632782
0.8433982729911804 0.3707807958126068 -0.06074957922101021
0.3373306393623352 0.09277850389480591 -0.09065933525562286
-1.1825612783432007 0.4107673764228821 -0.15352240204811096
-1.358246922492981 0.14775696396827698 0.36197522282600403
0.796388566493988 0.29516661167144775 0.46736133098602295
-0.9865456819534302 0.02159702777862549 -0.32323992252349854
-0.3481222093105316 0.4610113799571991 0.15241165459156036
-0.40257108211517334 0.16536487638950348 -0.5766440033912659
-1.06650972366333 0.02886873483657837 0.603222131729126
-2.0924057960510254 0.6146203875541687 0.421536386013031
0.24752825498580933 0.7478319406509399 0.4628760814666748
-0.31384897232055664 0.07959753274917603 0.4034009575843811
-0.5860734581947327 0.23391938209533691 -0.16059963405132294
-1.7193702459335327 0.6297917366027832 0.3228507936000824
-0.13199244439601898 0.19853323698043823 -0.7792940139770508
-0.14135074615478516 0.7770164012908936 0.371568888425827
-0.638153076171875 0.014348477125167847 -0.06278473883867264
-0.5856648087501526 0.26246947050094604 -0.45959508419036865
-0.7904274463653564 0.18873944878578186 -0.19116410613059998
-0.28949791193008423 0.27080416679382324 0.6478235125541687
-1.0167808532714844 0.7829583883285522 0.5260503888130188
-1.2970390319824219 0.10363525152206421 0.17365843057632446
-0.397079199552536 0.45920294523239136 0.35908380150794983
0.4942820072174072 0.6821649074554443 -0.40276598930358887
0.6785087585449219 0.7578664422035217 -0.4819073975086212
-1.1642284393310547 0.5944851636886597 0.638725996017456
-1.298936367034912 0.73916095495224 -0.41457489132881165
-1.157320499420166 0.8139161467552185 0.1292727142572403
-0.10791613161563873 0.8095787167549133 -0.013939318247139454
-0.8370353579521179 0.3634873926639557 0.2709556221961975
-1.8995349407196045 0.518862783908844 0.33638471364974976
-0.4871653616428375 0.03299683332443237 0.34711965918540955
-0.3550114035606384 0.7954158782958984 -0.3254336714744568
-1.452663779258728 0.7126316428184509 -0.766423225402832
0.07927922904491425 0.47897961735725403 -0.6424620151519775
0.18696396052837372 0.11872325837612152 -0.3472957909107208
1.0480531454086304 0.6219732165336609 0.12883776426315308
0.8123683333396912 0.2665187120437622 -0.06285326182842255
-1.6463385820388794 0.5785432457923889 -0.0802326500415802
-1.2949219942092896 0.38062795996665955 -0.6139800548553467
-1.1317895650863647 0.5996983647346497 0.4733649492263794
0.35638290643692017 0.5031472444534302 0.33383336663246155
-0.5842469334602356 0.23763716220855713 0.40386566519737244
-0.9720597267150879 0.3025161623954773 -0.14939145743846893
-0.20095795392990112 0.7499657273292542 -0.1271274834871292
-1.2019628286361694 0.3021346926689148 0.5557281970977783
-1.748339295387268 0.665898859500885 0.4706852436065674
-0.1539091318845749 0.7848705649375916 -0.4786231219768524
-1.4897124767303467 0.12337690591812134 -0.014554501511156559
-0.9353734850883484 0.1619996577501297 0.040995627641677856
-0.7790226340293884 0.8160353899002075 -0.4574401378631592
-0.9600052833557129 0.28555232286453247 -0.41933557391166687
0.6307687759399414 0.255645215511322 0.023342154920101166
0.3230305016040802 0.1926688551902771 -0.4778894782066345
0.6318389177322388 0.23362615704536438 -0.19859471917152405
-1.4131214618682861 0.25709328055381775 -0.394819974899292
-0.2870340347290039 0.32681018114089966 -0.36356133222579956
0.1965617835521698 0.18246154487133026 0.1329866647720337
-1.5810760259628296 0.13471262156963348 0.14146466553211212
0.16444270312786102 0.601996898651123 0.38301146030426025
0.26776236295700073 0.779955267906189 0.27480337023735046
-0.815280020236969 0.7147828936576843 -0.7242950201034546
0.2931760549545288 0.6952183842658997 -0.05328052490949631
-1.2400527000427246 -0.0496310293674469 0.5462230443954468
-0.8972048759460449 0.8355209827423096 -0.2022797018289566
0.07214727997779846 0.1492370218038559 0.046980418264865875
-0.18341034650802612 0.636979341506958 0.31025949120521545
-1.2920492887496948 0.8406662940979004 0.08530481159687042
-0.5842037200927734 0.840492844581604 0.3714492917060852
2.248623847961426 0.4385794401168823 -0.08529110997915268
-0.5003234148025513 -0.07325565814971924 0.42164817452430725
-0.9808359742164612 0.41140419244766235 -0.25214216113090515
-1.0160539150238037 0.5900988578796387 -0.3064195215702057
0.35473522543907166 0.43719005584716797 0.46391862630844116
-0.6108150482177734 0.5025882720947266 -0.7794843912124634
0.07082106173038483 0.10212522745132446 -0.28443068265914917
-1.128581166267395 0.2574886977672577 -0.6286652684211731
-0.36598628759384155 0.18907682597637177 0.3678308129310608
0.49868735671043396 0.5187351107597351 0.05879392474889755
0.5883104205131531 0.32933861017227173 0.33765915036201477
-0.3042164146900177 0.801034688949585 0.19213084876537323
-1.3729300498962402 0.177818164229393 0.2840047776699066
0.24469375610351562 0.11993181705474854 0.46927517652511597
-1.4960497617721558 0.44371750950813293 0.5262267589569092
-0.8664068579673767 0.6894591450691223 -0.3522703945636749
0.23398089408874512 0.37875762581825256 0.13295717537403107
1.5465576648712158 0.3952348232269287 -0.6959213614463806
-0.627532958984375 0.042905718088150024 -0.3137826919555664
-0.29775917530059814 0.6046314239501953 0.15594926476478577
1.254142165184021 0.4698554277420044 0.4969635009765625
-0.19470420479774475 0.2826954126358032 -0.5205134749412537
-0.4922502338886261 0.15417522192001343 -0.4938993752002716
-0.6043000221252441 0.415061354637146 -0.5961315631866455
0.16579991579055786 0.3689730167388916 -0.6471614837646484
-1.1807283163070679 0.7031596899032593 -0.022672900930047035
-1.2911391258239746 0.18450625240802765 -0.5870095491409302
-1.1380395889282227 0.5441659688949585 0.3277639150619507
-0.04120652377605438 0.4818006753921509 0.10750068724155426
-0.6722180843353271 0.5565908551216125 0.05648891627788544
-0.6699026226997375 0.7439690828323364 0.6924983263015747
0.22602428495883942 0.7816235423088074 -0.3480563461780548
-0.756563663482666 0.4323524832725525 -0.4847000539302826
-0.019181974232196808 0.7111393213272095 -0.5854250192642212
0.29136836528778076 0.3597392737865448 0.38904598355293274
-0.5925937294960022 0.7181939482688904 -0.344391405582428
-0.5366258025169373 0.44300585985183716 0.39104899764060974
-0.5340129137039185 0.2262096405029297 -0.2542400360107422
-0.6967028379440308 0.44442445039749146 0.41204994916915894
-1.7226654291152954 0.19448471069335938 0.8512769341468811
-1.1238771677017212 0.4877541661262512 0.08937247842550278
1.0732431411743164 0.26416802406311035 -0.20431432127952576
-0.0051821209490299225 0.7882490158081055 -0.2008579522371292
0.005384344607591629 0.21670882403850555 0.2979869544506073
-0.3617352843284607 0.3169471025466919 -0.19412225484848022
-1.004667043685913 0.42232856154441833 -0.5620005130767822
-1.446512222290039 0.39858874678611755 0.4426909387111664
-1.7528154850006104 0.26897549629211426 0.5514501333236694
-0.19174960255622864 0.4725377559661865 -0.24756819009780884
-0.050846610218286514 0.6988309025764465 -0.10137183219194412
-0.23441293835639954 0.7821077704429626 -0.5089560151100159
1.291706919670105 0.7076033353805542 0.05563228204846382
-0.8560235500335693 0.4527968168258667 0.5945159196853638
0.21668682992458344 0.23307424783706665 -0.034164827316999435
-0.10309407114982605 0.4936008155345917 -0.054571785032749176
0.7592606544494629 0.7612258791923523 -0.2925945520401001
-0.8878052830696106 0.01781022548675537 -0.21277666091918945
-0.9058198928833008 0.6333513259887695 -0.5050073862075806
-0.7511950135231018 0.8433559536933899 0.0625191405415535
-0.42920517921447754 0.04628419876098633 0.6588775515556335
0.9471542835235596 0.5079152584075928 -0.6003818511962891
-1.725645661354065 0.565536618232727 0.3205361068248749
0.46308568120002747 0.5662884712219238 -0.31194424629211426
-1.3291558027267456 0.32866477966308594 -0.19870048761367798
-0.8417351841926575 0.3534296154975891 0.09382080286741257
-0.8355557918548584 0.03723737597465515 0.2272086888551712
0.14006567001342773 0.4328186511993408 -0.7670583724975586
0.02120266482234001 0.2493952363729477 -0.5170944333076477
1.1330862045288086 0.7198383808135986 -0.3732752799987793
0.8637230396270752 0.29364854097366333 0.014665856957435608
-0.3401756286621094 0.8121706247329712 0.347642719745636
-1.0625203847885132 -0.006608009338378906 0.07768649607896805
0.08370919525623322 0.636806309223175 0.006921606138348579
-0.5809552669525146 0.3012579083442688 -0.14698703587055206
-0.6036584377288818 0.11994026601314545 0.5938835740089417
-0.274483859539032 0.41959452629089355 -0.017038635909557343
-1.6456223726272583 0.3492339253425598 -0.022626442834734917
-0.531033456325531 0.7301808595657349 -0.5569980144500732
-1.3380768299102783 0.5232778191566467 -0.1807500123977661
-1.283362865447998 0.3770298957824707 0.4077101945877075
-0.629414975643158 0.1551554948091507 -0.1136784553527832
-0.6958017945289612 0.2924198508262634 0.36239656805992126
0.11899353563785553 0.7968083620071411 0.31530052423477173
-0.712986171245575 0.2111247330904007 0.55287104845047
1.1100246906280518 0.4786737859249115 -0.6308359503746033
-0.09851409494876862 0.7546083331108093 -0.12850476801395416
-2.496549606323242 0.18206380307674408 0.34408652782440186
-1.5119742155075073 0.29695481061935425 -0.07180502265691757
-1.9837281703948975 0.10004657506942749 0.3601135313510895
-1.5425931215286255 0.0036319494247436523 0.4351961314678192
-0.8081839680671692 0.2782309055328369 0.15140128135681152
-1.847503900527954 0.43729859590530396 -0.03346552327275276
0.5468202233314514 0.2349221408367157 0.061463337391614914
-1.5427703857421875 0.06413337588310242 0.41860949993133545
0.056832510977983475 0.1997758001089096 4.131440073251724e-05
-0.27668559551239014 0.7998430132865906 0.3258708119392395
-0.33338335156440735 0.052982181310653687 -0.3014918267726898
0.6340987086296082 0.30929118394851685 0.09760268777608871
-1.1360772848129272 0.6722519397735596 -0.5717872977256775
-0.11812366545200348 0.10981273651123047 0.7160685658454895
-1.5285751819610596 0.34207624197006226 0.4574902653694153
-0.0003650262951850891 0.008780419826507568 -0.24496537446975708
-0.2447226643562317 0.5981218814849854 -0.4096609055995941
0.894676923751831 0.3264598548412323 -0.19083358347415924
-1.2395845651626587 0.4340934157371521 0.5159473419189453
-0.23584643006324768 0.6249601244926453 0.6602849364280701
2.149461507797241 0.533664882183075 -0.3898324966430664
0.7183157205581665 0.2699153423309326 0.6406387090682983
0.914555013179779 0.6403629779815674 0.02138592302799225
0.4933169484138489 0.5555928945541382 0.14491744339466095
0.4697462022304535 0.14651229977607727 0.5441374778747559
-1.456916332244873 -0.004444241523742676 0.39682328701019287
-1.221327304840088 0.5394009351730347 -0.041318587958812714
-1.1705862283706665 0.2446289360523224 -0.5869824290275574
-1.0397210121154785 0.7858815789222717 -0.5381916761398315
-0.5930391550064087 0.3073054850101471 -0.22545839846134186
1.384552001953125 0.5327303409576416 0.290326327085495
0.21822413802146912 0.7655993103981018 0.21847274899482727
-0.6183381080627441 0.11595234274864197 0.6380541324615479
0.3853863775730133 0.8409664630889893 -0.040667563676834106
-0.7780966758728027 0.43870025873184204 -0.07478195428848267
-1.0277338027954102 0.1058695912361145 -0.5961583256721497
0.001584075391292572 0.3953888416290283 -0.39658284187316895
-0.8128534555435181 0.4566195011138916 -0.15248925983905792
1.1431008577346802 0.4522587060928345 -0.11085012555122375
0.920871913433075 0.690851628780365 -0.5384682416915894
-1.257895588874817 0.1439063847064972 0.5277655720710754
0.0010673664510250092 0.7404234409332275 -0.516738772392273
-1.211928367614746 0.7186291217803955 -0.10349585860967636
-0.1949203461408615 0.6127276420593262 0.3808891773223877
-1.0016745328903198 0.6220998764038086 0.03251802921295166
-0.009470649063587189 0.6528215408325195 0.12121052294969559
0.3416357934474945 0.6605796813964844 0.3855564296245575
-0.7599896788597107 0.17094247043132782 0.42741110920906067
1.01836097240448 0.39499449729919434 0.34186556935310364
-0.40531399846076965 0.15301576256752014 0.2811705768108368
-0.24396073818206787 0.7402808666229248 0.15518255531787872
-0.23435357213020325 0.5218576192855835 -0.04321955144405365
-0.7261137366294861 0.23482385277748108 -0.4212877154350281
-1.5420798063278198 0.34678661823272705 -0.08902707695960999
-1.3122063875198364 0.29449325799942017 -0.43743348121643066
0.09442348778247833 0.6863210797309875 -0.5654374957084656
1.5373656749725342 0.34297752380371094 0.4740562438964844
-0.7590401768684387 0.37267228960990906 0.5704168677330017
-0.43010544776916504 0.038558632135391235 0.5255188345909119
0.4704798460006714 0.3874521255493164 -0.21942870318889618
-0.8636744022369385 0.3937285244464874 0.2769513428211212
1.0570178031921387 0.3693932592868805 -0.07253667712211609
0.8966296315193176 0.6212759017944336 0.401731938123703
0.21734534204006195 0.7750822305679321 -0.24815085530281067
-0.550632894039154 0.761344850063324 0.6015931367874146
-0.1917455792427063 -0.049749135971069336 0.31020933389663696
-0.8175714612007141 0.09724029898643494 -0.19893424212932587
-1.0337048768997192 0.18474137783050537 -0.4737180769443512
0.027408108115196228 0.348596453666687 0.5812684893608093
-1.217240333557129 0.3818628787994385 0.3011208772659302
-2.1019415855407715 0.5626649260520935 0.43984633684158325
0.20805534720420837 0.42027419805526733 0.5513105392456055
-0.594717800617218 -0.021988511085510254 -0.5240079760551453
0.201927050948143 0.8450756072998047 -0.0034727947786450386
-1.1539973020553589 0.8131791949272156 0.12485793232917786
-0.18984301388263702 0.7434345483779907 -0.0018146121874451637
-1.5788359642028809 0.6157575845718384 0.5064405202865601
0.6001903414726257 0.7153745889663696 -0.48678019642829895
-1.03631591796875 0.4017642140388489 -0.16712582111358643
1.374910831451416 0.6158236861228943 -0.06632275879383087
0.44182702898979187 0.7482789754867554 0.14428050816059113
1.0672783851623535 0.3241250514984131 0.4196515679359436
0.0428466722369194 -0.021245062351226807 0.09318439662456512
-1.6660315990447998 0.33251190185546875 0.1967562437057495
-0.4876033365726471 0.5394187569618225 -0.32538315653800964
-0.015093643218278885 0.47091227769851685 0.4085533320903778
1.0552008152008057 0.651461660861969 -0.034648340195417404
-1.051325798034668 0.29402607679367065 0.04115588590502739
0.8541603088378906 0.539489209651947 -0.40388306975364685
0.4801468253135681 0.16260868310928345 0.1738646924495697
-0.23770315945148468 0.5930010676383972 0.5966293811798096
-0.5831874012947083 0.593136191368103 0.048020992428064346
1.6217156648635864 0.4937538206577301 -0.18414992094039917
-0.7371032238006592 -0.0222741961479187 -0.5392054915428162
-1.3598581552505493 0.6418340802192688 -0.43715381622314453
2.241743803024292 0.4589369297027588 -0.23703570663928986
-0.19701839983463287 0.7914849519729614 0.49836161732673645
-0.4316011369228363 0.5901797413825989 0.06378977745771408
0.503416121006012 0.27771294116973877 0.1883130669593811
-0.8244155049324036 0.17000706493854523 -0.09039299935102463
-0.9044577479362488 0.13859063386917114 0.15988841652870178
-0.2920834422111511 0.8265824317932129 0.161576047539711
-0.7846807241439819 0.2806471586227417 0.5884647369384766
-0.24790170788764954 0.7275714874267578 -0.5908872485160828
-1.708147644996643 0.43163108825683594 -0.38065850734710693
-0.42057573795318604 0.5364332795143127 0.4416522681713104
0.5448139905929565 0.5718795657157898 -0.17372339963912964
-2.077350616455078 0.5716467499732971 0.266788125038147
-1.484567403793335 0.7335906624794006 -0.4115791916847229
-0.5821463465690613 0.8306892514228821 -0.6199949383735657
-0.9953137040138245 0.2910081744194031 0.45877042412757874
-0.11638838052749634 0.3387927711009979 -0.6013455390930176
-0.36620402336120605 0.6449267864227295 0.14619357883930206
0.26880913972854614 0.5738170146942139 -0.6672549843788147
-0.388109028339386 0.48911961913108826 -0.2727682888507843
-0.5894157290458679 0.4202388525009155 -0.7268460988998413
0.04369479790329933 0.3410804271697998 -0.6407961845397949
0.2288203239440918 0.08237677812576294 -0.5463515520095825
-1.9290636777877808 0.334500253200531 0.4950147271156311
-1.1316654682159424 0.6831679344177246 0.6021652221679688
-1.28872549533844 0.7579889297485352 -0.24961531162261963
-0.8665640950202942 0.49867790937423706 -0.10059555619955063
-0.8537653088569641 0.5578004717826843 0.13447165489196777
1.1727055311203003 0.7046851515769958 -0.7259441614151001
-0.38536250591278076 0.370794415473938 0.526633620262146
-0.5531359314918518 0.20576922595500946 -0.5811353921890259
-0.6098352670669556 0.007828325033187866 -0.535712480545044
-0.8739327192306519 0.08042526245117188 -0.19890698790550232
0.4851928949356079 0.7082528471946716 -0.5285747051239014
0.3157197833061218 0.5260133743286133 0.3188285231590271
0.052454911172389984 0.04631131887435913 -0.4773523211479187
0.327698290348053 0.2855239510536194 -0.20885983109474182
-0.5886170268058777 0.5903345346450806 -0.09044219553470612
0.12205272167921066 0.7921807169914246 0.46267983317375183
-0.569797933101654 0.42444556951522827 -0.10841584950685501
-0.6132519841194153 0.6778522729873657 0.40434321761131287
-2.3295693397521973 0.14078375697135925 -0.5692759156227112
-0.13588081300258636 0.675216555595398 0.2455948442220688
0.11765690892934799 0.7111932039260864 -0.5536825060844421
-0.8002599477767944 0.42498013377189636 0.048903267830610275
-0.23811841011047363 0.802068829536438 -0.15983320772647858
-1.188057780265808 0.2811241149902344 -0.13004492223262787
-1.3159935474395752 0.49448251724243164 -0.5763645172119141
-0.37955453991889954 0.7651703953742981 -0.29743334650993347
1.4351818561553955 0.6370710134506226 -0.37071385979652405
1.7563059329986572 0.6300739645957947 -0.2537250816822052
-0.4289399981498718 0.6124479174613953 0.41269451379776
-0.8411006927490234 0.6657727360725403 -0.5583196878433228
-1.061584234237671 0.7595700621604919 -0.34688982367515564
-0.1481235921382904 0.459416925907135 -0.045422036200761795
0.4207912087440491 0.7872920036315918 -0.05947768688201904
0.8071451187133789 0.6077841520309448 -0.6903618574142456
-0.681214451789856 0.400030255317688 0.014705461449921131
0.42590174078941345 0.22593766450881958 0.5452955961227417
-2.091123104095459 0.29676729440689087 -0.34730643033981323
-0.6556195020675659 0.618046760559082 0.128217875957489
-0.5796347856521606 0.09326034784317017 -0.10200387984514236
0.6692718863487244 0.49656617641448975 -0.6556289196014404
-2.0300161838531494 0.5838127136230469 0.2142120897769928
-1.089324951171875 0.6894054412841797 -0.2506101727485657
-0.1994389295578003 0.8086674809455872 0.0026908526197075844
-0.8492636680603027 0.18757733702659607 0.47700339555740356
-2.0088694095611572 0.1721845269203186 -0.5034904479980469
-1.2208462953567505 0.21881577372550964 0.5416769981384277
-1.2203413248062134 0.17122939229011536 -0.09076929837465286
-1.331796407699585 0.2754954397678375 0.5371905565261841
1.6714861392974854 0.3277791738510132 0.4458032250404358
-0.24742858111858368 0.1517985463142395 -0.35717809200286865
-0.14453546702861786 0.7798552513122559 -0.530978798866272
-0.3657042980194092 0.5326751470565796 0.4005841910839081
-0.12396197021007538 0.7556832432746887 0.38983121514320374
0.8256825804710388 0.49522823095321655 -0.6621934175491333
0.10658591985702515 0.21861304342746735 -0.44980794191360474
-1.834387183189392 0.6634839773178101 0.23944061994552612
-0.8905537128448486 0.12135612964630127 0.03806203603744507
1.0494049787521362 0.2542577385902405 -0.1624925434589386
-0.7495625615119934 0.26138365268707275 0.2667042016983032
-0.5658215284347534 0.5983493328094482 -0.7558677792549133
-1.8383779525756836 0.6081371903419495 -0.3911980986595154
1.4060734510421753 0.35772114992141724 -0.3295523524284363
-1.1379683017730713 0.2932249903678894 0.04384782165288925
-1.8211463689804077 0.5439364910125732 -0.05831894278526306
-1.4022473096847534 0.7492379546165466 -0.3112996518611908
0.0180649496614933 0.3145536780357361 0.5643338561058044
1.1707733869552612 0.3384854793548584 -0.26862266659736633
-0.3753052353858948 0.6362440586090088 0.22756540775299072
0.6931807398796082 0.32379186153411865 -0.030362389981746674
-0.3365932106971741 0.35741811990737915 -0.501687228679657
0.7566931843757629 0.6130396127700806 0.4385285973548889
0.07780112326145172 0.19811517000198364 -0.7182818055152893
-1.378147006034851 0.8053669929504395 0.12591499090194702
-0.5665150880813599 0.15518957376480103 0.30855339765548706
0.21614277362823486 0.7555885314941406 0.1900889128446579
1.449459433555603 0.3035842776298523 0.07292375713586807
1.147320032119751 0.6324275135993958 0.5351561307907104
0.5902493000030518 0.6289535164833069 -0.22644267976284027
-1.3669997453689575 0.5610437393188477 -0.5305094122886658
0.014019940048456192 0.7707175016403198 0.20459845662117004
0.07675117254257202 0.5668805837631226 -0.1884947270154953
0.0323520302772522 0.6640094518661499 0.511243999004364
-0.007035158574581146 0.04358571767807007 -0.3156362473964691
-1.7036703824996948 0.5286235809326172 -0.10961534827947617
-0.1859031766653061 0.542637825012207 -0.5478528141975403
1.079729437828064 0.7115394473075867 0.2284555286169052
0.6799900531768799 0.1930060237646103 0.2779470980167389
-0.752120852470398 0.8028220534324646 -0.30978646874427795
0.8906844854354858 0.2106979787349701 0.007475709542632103
-1.310688853263855 0.5157442092895508 0.12432185560464859
-0.8400614857673645 0.42761456966400146 0.3646010160446167
-0.5751678943634033 0.20127661526203156 0.2125195562839508
-1.216841697692871 0.6372597217559814 0.52235347032547
-1.557417392730713 0.10479804873466492 -0.03857177868485451
0.47271376848220825 0.3964794874191284 0.04750186204910278
0.059958089143037796 0.707068145275116 -0.4092773497104645
-0.46700701117515564 0.7614805698394775 -0.35972002148628235
-0.10164356231689453 0.2834011912345886 0.009112970903515816
-0.7815335392951965 0.18652664124965668 -0.6809237599372864
-0.6963269114494324 0.45102232694625854 -0.36859366297721863
1.1894636154174805 0.6577659249305725 0.3447616994380951
-1.7687028646469116 0.556443989276886 0.4196200370788574
-0.40073347091674805 0.6483165621757507 -0.523402214050293
-0.7787004709243774 0.11883434653282166 -0.2737988829612732
-2.1616933345794678 0.5445818901062012 -0.23753659427165985
-0.6541019678115845 0.004583835601806641 -1.5381596088409424
-0.6211239695549011 0.6646629571914673 0.1782350093126297
0.4651563763618469 0.38518238067626953 -0.22962328791618347
-0.6781465411186218 0.274486780166626 -0.019337106496095657
0.591630756855011 0.31447461247444153 -0.35887956619262695
0.51068115234375 0.5868063569068909 -0.48959723114967346
-0.08233752846717834 0.5804958939552307 -0.5084145665168762
-0.2032434046268463 0.4287388324737549 -0.4443775713443756
-0.8966038227081299 0.31818726658821106 -0.1959933489561081
-2.1374704837799072 0.30405890941619873 0.4435660243034363
1.4601563215255737 0.509163498878479 0.009242488071322441
0.9636443853378296 0.6789158582687378 0.6508590579032898
1.4504692554473877 0.3143342137336731 0.030059564858675003
-0.4606366753578186 0.6180297136306763 0.25831204652786255
-1.6937748193740845 0.5199381709098816 -0.41429606080055237
-1.9499307870864868 0.38480520248413086 -0.09114375710487366
-1.104910969734192 0.1428738534450531 -0.483781099319458
0.6667003631591797 0.5895860195159912 -0.321157842874527
0.030778978019952774 0.815176248550415 -0.2784550189971924
0.758236289024353 0.5462785363197327 0.14133459329605103
-0.5555128455162048 0.7724160552024841 -0.1138041540980339
0.06476818025112152 0.7834281325340271 0.3739943206310272
0.6583746671676636 0.3511362373828888 -0.2007354497909546
-1.0968642234802246 0.6621874570846558 -0.6868618726730347
-0.09027564525604248 0.3688352704048157 0.48919790983200073
-0.8583280444145203 0.2775785028934479 0.1792348176240921
0.7610542178153992 0.19984959065914154 0.12439130246639252
0.19386708736419678 0.5098141431808472 0.23225247859954834
-0.8550556302070618 0.07388854026794434 -0.588970959186554
0.38798829913139343 0.33245521783828735 0.052022531628608704
0.40932369232177734 0.2897351384162903 0.24223743379116058
-1.2508320808410645 0.2380356341600418 -0.6204635500907898
-0.7415522336959839 0.38178586959838867 -0.0821167454123497
-0.48628801107406616 0.6384997367858887 -0.5210939645767212
-1.116620421409607 0.15579742193222046 -0.634985089302063
0.36428630352020264 0.2102186232805252 -0.5148729681968689
-0.6752210855484009 0.5809264183044434 0.3813965618610382
0.22796598076820374 0.41006338596343994 0.13871464133262634
0.9095274806022644 0.5494842529296875 -0.10997413098812103
-0.09069110453128815 0.7361825108528137 -0.6029093265533447
-0.21320673823356628 0.4566144347190857 -0.2682894766330719
0.6863861083984375 0.20303687453269958 0.012274831533432007
-0.9650232791900635 0.7352256178855896 -0.20607197284698486
-1.406002402305603 0.5742971897125244 -0.3902582824230194
-0.9780142903327942 0.2620410919189453 0.2562449872493744
-0.3564155101776123 0.8044787645339966 -0.25789177417755127
0.5793101191520691 0.34437674283981323 0.33698469400405884
-0.6148412823677063 0.555790364742279 -0.13629089295864105
0.8162961006164551 0.618056058883667 -0.45317208766937256
1.130994439125061 0.29987457394599915 -0.33151546120643616
-1.7731858491897583 0.09782275557518005 0.5001316666603088
-0.9707174301147461 0.7543144822120667 -0.3442184329032898
-0.0701833963394165 0.1357414424419403 -0.4058680534362793
-0.5079246163368225 0.5206164121627808 -0.5306306481361389
-0.23693662881851196 0.2684836983680725 0.4123144745826721
-0.7395099997520447 0.40126293897628784 0.3120061159133911
-1.7586734294891357 0.6294831037521362 -0.3829370439052582
0.08603934198617935 -0.031457602977752686 0.506401777267456
-0.5184287428855896 0.7362905144691467 -0.04297942668199539
-0.04547025263309479 0.20930027961730957 -0.1546049267053604
-0.3706059157848358 0.6149380207061768 0.36409449577331543
-0.1915397346019745 0.5128659009933472 -0.39276665449142456
-0.38788720965385437 0.4689791202545166 -0.7517712116241455
-0.5682206153869629 0.20297077298164368 0.04734117537736893
0.135679692029953 0.5929121971130371 0.4811171293258667
0.5239259004592896 0.5041210055351257 -0.21243198215961456
1.162690281867981 0.5839477777481079 0.20342405140399933
0.43123292922973633 0.578971266746521 -0.5434063076972961
-1.131661057472229 -0.016260862350463867 0.5189551115036011
0.2117769569158554 0.15166670083999634 0.009330091066658497
-1.1697337627410889 0.7431803345680237 0.18591666221618652
0.043698281049728394 0.7323235869407654 0.14761388301849365
0.007155522704124451 0.008950114250183105 0.22373540699481964
0.2879931628704071 0.3165024220943451 -0.42063891887664795
-0.5822107791900635 0.2359127253293991 -0.6138677000999451
-0.5400435328483582 0.23082514107227325 0.5621863603591919
-0.9859630465507507 0.08441552519798279 0.3347770869731903
-1.3194588422775269 0.522566020488739 -0.49736112356185913
-0.6512858271598816 0.8138963580131531 -0.4124148190021515
0.2347784787416458 0.4991803765296936 0.19752708077430725
-0.5372264981269836 0.5214530229568481 -0.1089741587638855
1.170191764831543 0.5794007778167725 0.27278652787208557
0.3327382504940033 0.6437696218490601 -0.4397277235984802
-1.030955195426941 0.4513605237007141 -0.680617094039917
-0.009830698370933533 0.6758468747138977 -0.5217649936676025
0.4455491602420807 0.7619677186012268 -0.2635616660118103
1.2202879190444946 0.5627765655517578 0.05827055871486664
-0.9194671511650085 0.10635368525981903 0.40271326899528503
0.7388515472412109 0.549015462398529 0.3750900626182556
-1.7444313764572144 0.07978695631027222 0.536615252494812
0.7837010025978088 0.48204347491264343 0.4713898003101349
0.6178465485572815 0.773070216178894 -0.1166418269276619
-0.5001631379127502 0.4575948119163513 0.15018519759178162
1.4633325338363647 0.2811242938041687 0.05731317028403282
-0.6405594348907471 0.17022860050201416 0.2812854051589966
-1.2070083618164062 0.2224036157131195 -0.3931729793548584
-0.45707911252975464 0.2357362061738968 0.18741987645626068
-0.020733855664730072 0.34402740001678467 0.3195558190345764
-0.843349814414978 0.8054026365280151 -0.5398576259613037
-0.5483788251876831 0.24902650713920593 -0.8048796653747559
-1.051689624786377 0.1438901126384735 0.1987156718969345
0.4797654449939728 0.21512293815612793 0.19555354118347168
-1.664427638053894 0.346462607383728 -0.05786951631307602
0.45150864124298096 0.436694860458374 -0.1495382934808731
-0.5540553331375122 0.7279949188232422 0.47511807084083557
-1.6214780807495117 0.6716402173042297 0.4123820960521698
-0.852983295917511 0.01861804723739624 -0.2862216830253601
0.4011222720146179 0.7291441559791565 0.6097617149353027
1.1120381355285645 0.27441084384918213 0.01004105992615223
0.7371522784233093 0.3235372304916382 -0.6784173846244812
-1.3593809604644775 0.7280678153038025 0.33276844024658203
-1.2478786706924438 0.31985971331596375 0.03619138523936272
-1.5668143033981323 0.2044859230518341 -0.14768275618553162
1.4793413877487183 0.3499644994735718 0.007146147079765797
-0.674449622631073 0.7561469078063965 -0.7748791575431824
1.4230157136917114 0.6960590481758118 0.11167962104082108
0.15336766839027405 0.4916272759437561 0.17866501212120056
0.43028321862220764 0.48158854246139526 -0.477746844291687
0.48529741168022156 0.3762054443359375 0.12334610521793365
-2.6041548252105713 0.33446991443634033 -0.21556031703948975
1.662790298461914 0.5995821356773376 -0.12216747552156448
-0.2805648744106293 0.24078567326068878 -0.426933616399765
0.7394111752510071 0.2643371522426605 -0.3277665376663208
-0.941644549369812 0.6651774048805237 0.00011576240649446845
-1.224014163017273 0.05336502194404602 0.14558054506778717
0.49040892720222473 0.3151334226131439 -0.5913588404655457
-1.1387441158294678 0.16080938279628754 0.21768495440483093
-2.0435216426849365 0.4193098545074463 -0.19603858888149261
-0.2373550832271576 0.3826397657394409 -0.8444548845291138
-0.12061707675457001 0.6405977010726929 0.08690033853054047
-1.2451581954956055 0.7186558842658997 0.07910539954900742
0.48718899488449097 0.16916406154632568 -0.622523307800293
0.914415717124939 0.32729268074035645 -0.06205165758728981
-0.8293704390525818 0.8020575046539307 -0.13976329565048218
-0.39865630865097046 0.20543025434017181 0.4967852532863617
0.6238797903060913 0.14576852321624756 0.04530321806669235
-0.19728650152683258 0.3542274236679077 -0.5233741998672485
-0.08507806807756424 0.48655927181243896 0.6793016791343689
0.8516351580619812 0.2343580573797226 0.07340982556343079
-1.4158066511154175 0.3276803493499756 -0.5373133420944214
-0.648059070110321 -0.0069580078125 0.08712434023618698
0.4290159046649933 0.6662093997001648 -0.1194814145565033
-0.7957297563552856 0.05599653720855713 0.0518723800778389
-0.33681395649909973 0.1687072217464447 0.3329191207885742
0.1316400170326233 0.34434032440185547 -0.28149694204330444
-0.227397620677948 0.5927003026008606 -0.14329774677753448
0.5439294576644897 0.4987560510635376 -0.5882775187492371
-0.7171774506568909 0.5723074674606323 0.2671051025390625
-0.858405351638794 0.8266529440879822 0.14840087294578552
-1.2773873805999756 0.33110684156417847 -0.09397637844085693
1.0452316999435425 0.7317618727684021 -0.10280340909957886
-0.8384552597999573 0.02141052484512329 0.22426332533359528
-1.921668529510498 0.18721109628677368 -0.3798590898513794
-0.41492271423339844 0.6089198589324951 -0.35010090470314026
-0.760087251663208 0.6465678215026855 0.1647641509771347
-0.1895214319229126 0.7251970767974854 -0.09136481583118439
1.533542275428772 0.6014354228973389 -0.522430419921875
0.8035331964492798 0.6710910201072693 0.3602171838283539
0.8025227189064026 0.4864483177661896 -0.49059003591537476
0.14410105347633362 0.46566253900527954 -0.3480296730995178
-0.02080979198217392 0.19897764921188354 -0.37638071179389954
-0.3623546063899994 0.6335412859916687 -0.15454408526420593
-0.05184002220630646 0.27791810035705566 0.5330119729042053
-1.500679850578308 0.4932269752025604 0.06994520127773285
0.6719147562980652 0.6056990623474121 0.08345665037631989
1.8102670907974243 0.33300456404685974 0.08591795712709427
-1.529059648513794 0.5024468898773193 0.12638653814792633
-0.41340336203575134 0.8756169676780701 0.3055708110332489
-1.1987111568450928 0.5617517232894897 -0.5519396662712097
0.23874250054359436 0.7881614565849304 0.20584769546985626
-2.0138494968414307 0.31724172830581665 0.3071480393409729
-1.1103007793426514 0.6631345748901367 -0.037969399243593216
0.22725068032741547 0.2274899184703827 -0.13544166088104248
-0.9142895936965942 0.5914525985717773 0.04360785335302353
2.0022449493408203 0.563732922077179 -0.10544958710670471
-1.3393044471740723 0.1808086633682251 0.14198584854602814
-0.6221737861633301 0.16595743596553802 -0.39711153507232666
-1.6704835891723633 0.39691436290740967 -0.5899430513381958
-0.18969054520130157 0.20462602376937866 -0.7704371213912964
-1.1272622346878052 0.6056461930274963 0.24635723233222961
0.49822211265563965 0.5901654958724976 -0.5727939605712891
-0.5620290040969849 0.03925043344497681 0.27243247628211975
0.1279732882976532 0.142934650182724 -0.47337257862091064
-0.5838437676429749 0.14027154445648193 -0.20118729770183563
-1.1681867837905884 0.7233868837356567 0.07774834334850311
-1.5042533874511719 0.3886127769947052 0.07575541734695435
-0.9679080843925476 0.03222095966339111 -0.4444085359573364
-1.0784114599227905 0.36693161725997925 0.08931514620780945
0.21369300782680511 0.1549026072025299 -0.45476993918418884
-0.043492838740348816 0.39685046672821045 0.5589613318443298
-0.9190969467163086 0.07535341382026672 0.514788031578064
-0.4135378301143646 0.7814844250679016 0.1268378347158432
0.2818412780761719 0.7981269955635071 0.022419679909944534
-0.7350958585739136 0.43938690423965454 -0.18697668612003326
0.36191898584365845 0.31238895654678345 0.32681864500045776
-1.7311323881149292 0.3706648349761963 -0.25176456570625305
-0.9504702091217041 -0.01281633973121643 0.3795759677886963
0.23981282114982605 0.14653697609901428 0.4408144950866699
0.24310843646526337 0.6640846729278564 -0.613277792930603
-0.05118199437856674 0.6121852397918701 0.4639362096786499
0.23713630437850952 0.782171368598938 0.1769394725561142
0.018295198678970337 0.0006762146949768066 0.2980233132839203
-0.8085248470306396 0.20168939232826233 0.03454231098294258
-0.4710023105144501 -0.0023717284202575684 0.5000719428062439
-0.6705008745193481 0.597504198551178 -0.6816402673721313
-0.38866516947746277 0.8295827507972717 0.2270631045103073
0.248206228017807 0.5125524997711182 0.1830471009016037
0.00506431981921196 0.1930052787065506 0.2390718311071396
0.7239635586738586 0.5514495372772217 0.4176490306854248
0.2821435332298279 0.33252978324890137 -0.16910460591316223
-1.1810108423233032 0.791526734828949 -0.436943918466568
2.2736551761627197 0.5111076235771179 -0.3169879913330078
-0.11581425368785858 0.1293751448392868 0.37214231491088867
0.39371487498283386 0.2566080093383789 0.19410653412342072
-0.13749273121356964 0.3372515141963959 -0.07134880125522614
-0.919708788394928 0.699681282043457 -0.5899415612220764
-1.7379252910614014 0.5005272626876831 0.3547515273094177
-0.46195775270462036 0.1593654900789261 0.0011179018765687943
-1.1828398704528809 0.41083985567092896 -0.6549072265625
-1.328372836112976 0.29943394660949707 -0.19366291165351868
-0.9487636685371399 0.2798641622066498 -0.6011147499084473
0.4539910554885864 0.4176887273788452 -0.43681982159614563
0.7809755206108093 0.647188663482666 0.02654438465833664
-0.02490740269422531 0.6132403612136841 -0.35109996795654297
-2.0288751125335693 0.5572532415390015 0.3173995316028595
-0.2752697169780731 0.2772675156593323 0.0665099173784256
0.26503676176071167 0.6548095345497131 -0.46031054854393005
1.2550913095474243 0.6033363342285156 -0.43474701046943665
-1.8377691507339478 0.625073254108429 0.5262464880943298
-0.640116274356842 0.5703204870223999 -0.08689285069704056
0.2948918044567108 0.21255768835544586 0.46587949991226196
-0.8229872584342957 0.3476475179195404 -0.3837275803089142
-1.419250249862671 0.6280068159103394 -0.6305499076843262
0.24775856733322144 0.23807360231876373 0.10064910352230072
-0.571670651435852 0.8019644021987915 0.09100611507892609
0.3240092396736145 0.2624247074127197 0.53879314661026
0.4627767503261566 0.6311802268028259 0.3295682370662689
0.6570742726325989 0.5732413530349731 0.5708840489387512
1.5870616436004639 0.3398551940917969 0.4106665253639221
1.0794153213500977 0.47683238983154297 0.3711795508861542
-1.6656731367111206 0.10563600063323975 0.21566841006278992
0.14056983590126038 0.030283331871032715 0.15076994895935059
-0.4047612249851227 0.029703080654144287 0.06835943460464478
1.4201704263687134 0.6812146902084351 -0.2059064507484436
-0.5797606706619263 0.30265212059020996 -0.30891215801239014
0.5443068742752075 0.39989709854125977 -0.30994707345962524
0.9149667620658875 0.23840205371379852 -0.25080278515815735
-0.8386564254760742 0.12872940301895142 -0.01230020634829998
-1.3436384201049805 -0.021938860416412354 0.39364495873451233
-0.13956493139266968 0.583903431892395 -0.6064753532409668
0.1571407914161682 0.07066065073013306 0.47908103466033936
-0.5758455991744995 0.7001392841339111 0.5417941808700562
-0.24276891350746155 0.823387086391449 0.16012360155582428
-2.7240042686462402 0.21376273036003113 -0.26780688762664795
-1.2358639240264893 -0.0747915506362915 0.5759502649307251
-0.6650201082229614 0.25571686029434204 0.2114696502685547
-0.9214843511581421 0.7452882528305054 0.39832237362861633
0.5745004415512085 0.18406330049037933 0.3850674033164978
-0.9623376131057739 0.016350984573364258 -0.021008390933275223
0.35378435254096985 0.7418626546859741 0.6184167265892029
-0.11468479782342911 0.530288577079773 0.2579464614391327
-0.28917381167411804 0.24346159398555756 -0.5906073451042175
-1.7451032400131226 0.08189982175827026 0.2566341161727905
0.053171556442976 0.14623302221298218 -0.30536317825317383
-1.0306612253189087 0.2639434337615967 0.07766611129045486
-1.1603000164031982 0.685072124004364 -0.10241217166185379
-0.17096853256225586 0.25347092747688293 -0.08445875346660614
-1.428540587425232 0.22150211036205292 -0.25919124484062195
-1.1764702796936035 0.6394498348236084 -0.6264095902442932
0.17272678017616272 0.1816532164812088 -0.2764855623245239
1.0186963081359863 0.33058369159698486 0.625881552696228
-1.8089628219604492 0.17001408338546753 -0.5140310525894165
-0.7898364663124084 0.2658078074455261 0.6201034784317017
-1.134467601776123 0.1981639415025711 -0.028027277439832687
0.3697195053100586 0.36353954672813416 -0.17604994773864746
-0.38301724195480347 0.25142592191696167 -0.6291846632957458
-0.9178584814071655 0.8316460847854614 -0.16136443614959717
-0.43779459595680237 0.06067590415477753 -0.4327896535396576
