ply
format ascii 1.0
element vertex 803
property float x
property float y
property float z
end_header
2.3602945804595947 -0.19682587683200836 -0.4898095428943634
1.2600526809692383 0.32340314984321594 -0.5442085266113281
-0.3654002547264099 0.3553404211997986 0.45137426257133484
0.6296519637107849 -0.2902294397354126 -0.7112391591072083
-0.8862862586975098 -0.2959619164466858 -0.5832857489585876
1.0995640754699707 -0.07849667966365814 0.6732257008552551
-0.10843108594417572 -0.32826343178749084 0.2429293990135193
2.2482597827911377 0.0490313321352005 0.5554444789886475
0.0785571038722992 -0.3476618528366089 -0.4155416488647461
1.5627312660217285 -0.08384041488170624 0.011046921834349632
-1.176806926727295 0.22184370458126068 -0.13679350912570953
-1.5215147733688354 0.17640824615955353 -0.4012141227722168
1.7799609899520874 -0.2292228490114212 -0.6606269478797913
0.39183947443962097 -0.35811296105384827 0.1717747151851654
1.1287323236465454 -0.4343108534812927 0.10809598118066788
-0.14485540986061096 -0.35728853940963745 -0.6574037671089172
-0.6796000599861145 -0.3326626718044281 -0.3945223093032837
2.163649797439575 0.26114892959594727 0.14186735451221466
-0.37905779480934143 0.08678664267063141 0.13918888568878174
-0.9547349214553833 -0.04769439995288849 -0.5568447709083557
0.9084672331809998 0.007804766297340393 0.10778084397315979
0.49542295932769775 -0.3594489097595215 -0.1460759937763214
1.3654212951660156 0.2852522134780884 -0.1573019027709961
-1.344387412071228 -0.380752831697464 0.3941701352596283
0.09197935461997986 0.3099331557750702 -0.7428353428840637
-0.7919514775276184 0.3433571755886078 0.3831356465816498
-0.8234031796455383 0.24070806801319122 -0.1077895238995552
-0.8397429585456848 -0.41389763355255127 0.49515315890312195
-1.019594430923462 -0.1530931442975998 -0.8526435494422913
-1.5155205726623535 0.19324669241905212 -0.3070756494998932
0.2722489833831787 0.5550746917724609 0.21953129768371582
-1.056467890739441 -0.1041780412197113 -0.25157931447029114
-0.47216448187828064 0.18243370950222015 -0.4526388347148895
-0.11896626651287079 0.45055586099624634 0.5223177671432495
1.333736538887024 -0.3166535198688507 0.2884815037250519
-0.2633207440376282 -0.1508515179157257 0.5119616389274597
-0.7079237103462219 -0.3073713779449463 0.0801253542304039
0.1344967484474182 0.469899445772171 0.14075171947479248
-2.4705357551574707 0.3611809015274048 -0.6980286240577698
0.583076000213623 0.37130895256996155 -0.35789284110069275
1.1353638172149658 0.23443061113357544 0.2925235629081726
-1.6671745777130127 0.2949979901313782 0.18803894519805908
0.8688308596611023 0.14231711626052856 0.71140456199646
1.0606406927108765 -0.03220856189727783 -0.11436620354652405
-1.0412746667861938 0.3552635908126831 -0.5557324886322021
-1.7193422317504883 0.29834139347076416 0.3032423257827759
-1.3310953378677368 0.4117741286754608 0.10037778317928314
1.1489101648330688 -0.27386072278022766 -0.05555376037955284
2.1230545043945312 0.3819105327129364 -0.5059130787849426
1.4303194284439087 0.41158151626586914 -0.28627917170524597
2.405672550201416 -0.1406126320362091 -0.13814231753349304
-0.9121224284172058 -0.009703502058982849 0.44571492075920105
1.03097665309906 0.1306259036064148 0.25075143575668335
-0.8089436292648315 0.5415898561477661 -0.07720300555229187
-0.45538419485092163 -0.2720707058906555 0.7030827403068542
-0.9104716181755066 0.20707827806472778 0.6332916021347046
1.4517319202423096 -0.24343577027320862 0.35419005155563354
0.3421096205711365 -0.20090380311012268 -0.26816073060035706
0.5106073617935181 -0.28343844413757324 0.6711397767066956
-0.00894014909863472 -0.10851854085922241 0.29349035024642944
0.5921169519424438 -0.22597160935401917 1.0054042339324951
-1.00161612033844 0.5104000568389893 0.28670740127563477
-1.3744176626205444 -0.021198153495788574 0.25218865275382996
0.5590673685073853 0.2198340892791748 0.5417433977127075
-1.2888284921646118 0.031467780470848083 0.7559893131256104
1.5386234521865845 0.24538995325565338 -0.5835488438606262
-0.8469730615615845 0.38899916410446167 0.7202487587928772
-0.9809684157371521 0.4340102970600128 0.11752789467573166
-0.8385726809501648 -0.26683682203292847 -0.3581269085407257
-1.0836575031280518 -0.3555414080619812 0.07836110144853592
-0.3522951900959015 0.07551437616348267 -0.14395348727703094
-1.2281923294067383 -0.3380488157272339 -0.5782063007354736
1.308030128479004 0.19539198279380798 0.0543060339987278
-1.0706367492675781 0.3168897330760956 0.026252420619130135
-0.19455617666244507 0.6852450966835022 -0.05861109867691994
1.8080270290374756 0.06063079833984375 0.38155877590179443
0.07901575416326523 -0.11279794573783875 0.06594117730855942
-0.962199330329895 0.398918092250824 -0.23373737931251526
1.464650273323059 0.3380015790462494 0.5849698185920715
-0.6035164594650269 -0.16638663411140442 -0.15424388647079468
-2.7901065349578857 -0.07719708979129791 -0.05846111476421356
0.6076357364654541 0.354895681142807 0.36574074625968933
0.30712541937828064 -0.05779677629470825 -0.1684526950120926
0.13693706691265106 0.6721731424331665 -0.04454369843006134
0.08923757076263428 0.34193095564842224 -0.1790427714586258
-0.9953324198722839 -0.3904564380645752 -0.2867463231086731
0.14314933121204376 -0.17633654177188873 0.20704950392246246
1.03831946849823 -0.03159937262535095 0.34142589569091797
-1.0709415674209595 -0.004023700952529907 0.18406042456626892
-0.5775554776191711 -0.2881619930267334 0.64029860496521
-1.039994478225708 0.1824314445257187 -0.33934178948402405
0.17694666981697083 -0.3444700241088867 -0.7491544485092163
-1.9683266878128052 -0.21833795309066772 -0.690219521522522
-0.6125995516777039 -0.26881343126296997 0.18598885834217072
0.8698856830596924 -0.23760394752025604 -0.973300576210022
-1.1711417436599731 0.6518332958221436 0.013723675161600113
-0.01901267096400261 0.007779613137245178 -0.06729811429977417
-0.6953037977218628 0.39732953906059265 0.759998619556427
1.4738414287567139 -0.3447580337524414 0.49856266379356384
-1.4567941427230835 0.28127801418304443 -0.41740620136260986
-0.03223050385713577 0.2152046412229538 -0.18471652269363403
-0.7622196674346924 -0.14283031225204468 0.44019612669944763
-1.0594819784164429 0.2812606394290924 0.4579387903213501
-0.15421438217163086 0.024655640125274658 0.3453144133090973
-0.8200021982192993 0.0341344028711319 0.07139907032251358
-1.891650676727295 -0.18919390439987183 0.3282104432582855
1.214389681816101 0.3433525264263153 0.5460872054100037
-2.3578872680664062 -0.024980589747428894 -0.2976933717727661
1.9899834394454956 -0.40399229526519775 0.07976238429546356
0.2842380404472351 -0.3116730749607086 -0.6989949941635132
-1.2495629787445068 -0.011913672089576721 -0.5359618663787842
-1.0590639114379883 0.11632780730724335 -0.8669376969337463
0.012359462678432465 0.04389373958110809 0.5638694763183594
-0.1934172511100769 -0.0710696280002594 -0.4816426932811737
1.5675551891326904 0.2989750802516937 0.6039949059486389
-0.18249182403087616 0.6932203769683838 0.1595393419265747
-1.0107007026672363 0.435487300157547 -0.21243436634540558
-0.3119618594646454 0.5578351020812988 0.29696884751319885
-0.6316738724708557 0.48198169469833374 0.5393233895301819
-0.9187875986099243 -0.03685794770717621 0.8675346374511719
-0.2273949682712555 -0.1515553891658783 0.06104874610900879
1.1804425716400146 -0.3853241205215454 0.31502482295036316
-1.5165302753448486 -0.05116508901119232 -0.379900723695755
-1.4093990325927734 -0.26719334721565247 0.25783470273017883
-1.3488794565200806 0.23373180627822876 0.843390703201294
-0.815809965133667 -0.06931033730506897 -0.6787686944007874
0.3056986331939697 -0.2474018633365631 -0.41118043661117554
0.47199851274490356 -0.3320082426071167 0.24193188548088074
0.20928658545017242 -0.09236082434654236 -0.017107663676142693
1.4773528575897217 -0.35140520334243774 -0.1680961698293686
0.17360559105873108 -0.29232075810432434 -0.508541464805603
0.06395570933818817 -0.3174424171447754 -0.25827500224113464
2.252558708190918 -0.11937884986400604 0.04896998777985573
-1.0222965478897095 0.2304821014404297 -0.5648600459098816
-0.8619110584259033 0.14758217334747314 0.6777757406234741
0.44207093119621277 -0.3358665108680725 -0.43967702984809875
0.7067314982414246 0.5352526307106018 0.38544756174087524
-1.268072247505188 0.2605474591255188 0.32511964440345764
0.8908332586288452 -0.33284586668014526 -0.19985024631023407
-0.6332672834396362 0.3866426944732666 0.35526514053344727
2.3213765621185303 0.05084112286567688 -0.4768500030040741
-0.9818971157073975 -0.33787789940834045 -0.13418704271316528
-0.4249584972858429 0.11822624504566193 -0.2915460765361786
1.5241385698318481 0.044000089168548584 0.3307124972343445
-0.28064218163490295 0.6072008013725281 0.22747419774532318
0.02642352133989334 0.5290757417678833 -0.592851996421814
0.7638247013092041 0.0932527631521225 0.19854968786239624
1.4186543226242065 0.23935982584953308 0.27475711703300476
-1.788935661315918 -0.1965038776397705 -0.16476057469844818
-1.302668809890747 -0.17359758913516998 0.6792411208152771
2.1649184226989746 -0.34068065881729126 0.7927850484848022
-0.18818077445030212 -0.20365580916404724 0.16245773434638977
-0.3424069285392761 -0.2868540585041046 -0.6813721060752869
-0.0002109631896018982 -0.020454704761505127 -0.8829530477523804
2.0922420024871826 -0.013712510466575623 0.3412269055843353
-0.4409928321838379 0.681143581867218 0.4972308278083801
-0.957161009311676 0.1826789826154709 0.8257708549499512
2.3883578777313232 -0.08499278128147125 -0.2597818076610565
0.4545377492904663 0.2966170310974121 0.09376237541437149
0.1993192732334137 0.3405810594558716 -0.08356206119060516
-0.6379026770591736 -0.1152966171503067 -0.00012698612408712506
-0.9560596942901611 -0.4378916621208191 -0.1549074649810791
0.483507364988327 -0.24056482315063477 -0.8530709147453308
1.955822229385376 -0.3193989396095276 0.2901591360569
-1.0928882360458374 -0.057088226079940796 0.7860439419746399
-0.6015762686729431 0.25143030285835266 -0.7064914107322693
2.2445154190063477 0.05561242625117302 -0.6649529933929443
-0.46981942653656006 0.49734026193618774 0.1926361620426178
-1.5942721366882324 0.2266288548707962 -0.36717599630355835
-0.995310366153717 -0.024346202611923218 0.31131333112716675
2.1314666271209717 0.3206459879875183 -0.0076169297099113464
0.5650491714477539 0.3319661021232605 -0.48751893639564514
0.42820048332214355 -0.31075921654701233 0.1265915483236313
-0.897698163986206 -0.0413975715637207 0.6975259184837341
0.2155524045228958 -0.14496341347694397 -0.930034875869751
-0.6913224458694458 -0.3574208617210388 -0.21983547508716583
-0.5636910200119019 0.28661689162254333 -0.6214589476585388
2.107123851776123 0.09736286848783493 0.9736837148666382
0.49748772382736206 -0.18009471893310547 -0.5696008801460266
2.1131491661071777 -0.023127630352973938 0.5396061539649963
-0.7771953344345093 0.15742868185043335 -0.5142092108726501
0.6213951706886292 0.5240744948387146 -0.2681572437286377
-0.46199023723602295 -0.1276223063468933 1.113284945487976
-1.536287546157837 -0.33645710349082947 -0.037261590361595154
1.0984902381896973 -0.33004748821258545 0.019253244623541832
-0.8236136436462402 -0.3148149251937866 0.44097599387168884
-0.2044903039932251 0.5906571745872498 -0.1470251977443695
-1.5127267837524414 -0.07096610963344574 -0.4231145977973938
-1.879204511642456 0.13879872858524323 -0.14086279273033142
1.38778817653656 -0.35244637727737427 -0.039390917867422104
1.1206121444702148 -0.3616824150085449 0.5342569947242737
3.217071056365967 -0.154070645570755 0.03004380874335766
-0.9333261251449585 0.35858750343322754 -0.2222956120967865
-1.19073486328125 0.49546992778778076 0.601632297039032
1.431043028831482 0.2801925241947174 -0.6023535132408142
-0.5230661034584045 0.07161636650562286 0.46590447425842285
1.4089428186416626 -0.1460370123386383 -0.12784962356090546
0.2831352651119232 0.5385041236877441 0.47102198004722595
0.04245738685131073 0.48406246304512024 -0.4691724181175232
-0.2882139980792999 -0.32818248867988586 0.115080326795578
2.4444053173065186 -0.33291351795196533 0.6402255892753601
-1.1649916172027588 -0.0017864704132080078 0.8927023410797119
-1.5083563327789307 -0.3645283877849579 -0.1609516441822052
2.734437942504883 -0.2614486813545227 0.4313099980354309
-1.7218385934829712 0.2647716999053955 0.15684598684310913
-0.08307833969593048 0.33837300539016724 0.7856005430221558
0.1664181798696518 -0.34822970628738403 0.28264880180358887
-0.429207980632782 0.46997034549713135 0.23095983266830444
-1.2457456588745117 -0.08175371587276459 0.33500346541404724
-0.6494091153144836 0.25956588983535767 0.6685357689857483
0.4565213918685913 0.2889280617237091 0.2612062692642212
2.04012131690979 0.2816285789012909 0.617804765701294
0.3116483986377716 -0.2983202636241913 -0.455660343170166
1.2220282554626465 -0.09935878217220306 0.01314946636557579
-0.09342893958091736 0.23679639399051666 -0.11958789825439453
0.9893256425857544 -0.33063918352127075 0.24148961901664734
-0.707453727722168 0.023150354623794556 -0.4162014424800873
-0.15195077657699585 0.2829410433769226 0.979094386100769
0.09761980921030045 -0.17806057631969452 0.29164358973503113
-0.3762079179286957 -0.3462609648704529 0.049186769872903824
0.69663405418396 0.3775531053543091 0.24836207926273346
2.578169345855713 -0.021423570811748505 -0.344316691160202
-0.8294548988342285 -0.08092620968818665 0.12492375075817108
-0.36907559633255005 0.3990466594696045 -0.6602251529693604
0.09399101138114929 0.16868363320827484 -0.4412783980369568
0.06177297979593277 -0.3366795778274536 -0.11869264394044876
2.2574431896209717 0.008354142308235168 0.10139426589012146
1.2373532056808472 -0.3123057186603546 -0.11714696139097214
-0.9999113082885742 -0.14357952773571014 0.006511316169053316
0.5475583672523499 0.1942782700061798 -0.7696141004562378
-0.8298622965812683 -0.3762998580932617 0.7866602540016174
1.1937402486801147 -0.08449855446815491 0.9208865165710449
1.4157600402832031 0.35140010714530945 0.4582185745239258
0.23553809523582458 0.16710714995861053 -0.1363821029663086
-1.4732623100280762 0.09437021613121033 0.1552928239107132
1.6978411674499512 -0.030275434255599976 -0.37718579173088074
-1.6461215019226074 0.41180679202079773 -0.2557239234447479
0.22566714882850647 -0.14228585362434387 -0.4284208118915558
0.1016596257686615 0.4360892176628113 -0.7372530102729797
0.1775507926940918 -0.2336982935667038 0.19007278978824615
-1.6261653900146484 0.5067960023880005 -0.03949732705950737
1.5621904134750366 -0.18084828555583954 0.5587441325187683
1.2733502388000488 -0.29732242226600647 -0.6684577465057373
0.1748456358909607 -0.48339009284973145 0.40453997254371643
-1.4113951921463013 -0.060263827443122864 -0.6679898500442505
0.6021144390106201 -0.28272029757499695 -0.36314406991004944
-0.21145668625831604 -0.03155340254306793 0.364577054977417
-1.4318668842315674 -0.05852794647216797 0.50370854139328
3.340954065322876 -0.1422421932220459 0.4568381905555725
-0.028517648577690125 0.5964214205741882 -0.4983690679073334
1.4065966606140137 -0.3161320388317108 0.4263801872730255
-0.8069887161254883 -0.08540558815002441 0.7635721564292908
-2.1498756408691406 0.08088548481464386 0.1896599978208542
0.9446091651916504 -0.07192890346050262 -0.3002035915851593
-0.32324981689453125 0.4058680832386017 -0.884885311126709
0.8640954494476318 0.39648038148880005 -0.15811122953891754
0.3734290599822998 0.5361545085906982 0.7245481014251709
-1.7104908227920532 0.264864057302475 -0.1667563021183014
0.2515197992324829 0.5450603365898132 -0.31532740592956543
-1.3016005754470825 0.10616424679756165 -0.02588953636586666
-1.1386363506317139 0.22374436259269714 0.12266063690185547
-0.6007614135742188 -0.39454251527786255 -0.3331123888492584
-1.2947909832000732 -0.40201812982559204 0.19517269730567932
0.773673951625824 0.3861696124076843 -0.584751546382904
1.1374051570892334 0.12943542003631592 0.6763496398925781
-0.257217139005661 -0.42659348249435425 -1.172114372253418
1.3654747009277344 0.19817152619361877 -0.6346527338027954
0.7164190411567688 0.15994982421398163 0.10561244189739227
-1.1534686088562012 -0.34610694646835327 0.39712101221084595
0.8722963929176331 -0.04298806190490723 -0.8100271224975586
1.4796115159988403 0.1457802951335907 0.8038777112960815
2.200373888015747 0.19619052112102509 -0.24456550180912018
-0.06837533414363861 -0.19483248889446259 -0.06451413035392761
-1.9148050546646118 0.00747893750667572 -0.4204983711242676
0.4369649589061737 -0.3242006301879883 0.38156044483184814
0.251240998506546 0.0788436084985733 -0.21004992723464966
-1.5117359161376953 -0.313314288854599 -0.8420604467391968
-2.746114730834961 -0.0385022908449173 -0.4867009222507477
-0.26337730884552 -0.13468313217163086 -0.4050699770450592
1.1613028049468994 -0.0008640140295028687 -0.5755144357681274
-0.45590174198150635 -0.2984159290790558 0.8924097418785095
0.8661943674087524 -0.4766507148742676 -0.22090433537960052
1.7776609659194946 -0.3008631765842438 0.47414204478263855
-0.3307349979877472 0.014197573065757751 -0.28771933913230896
2.6436028480529785 0.027646739035844803 -0.0470970943570137
0.5354392528533936 0.2740330696105957 -0.21853141486644745
1.8941662311553955 0.4144909679889679 -0.1303456425666809
-0.3891576826572418 0.3576587736606598 -0.33717435598373413
-0.43245911598205566 0.22505667805671692 -0.8946279287338257
1.357380747795105 -0.08538280427455902 -0.05338078364729881
-1.8639650344848633 0.13645757734775543 -0.3224852979183197
2.5751051902770996 -0.30187875032424927 -0.2591857314109802
0.6170424222946167 0.3554937243461609 0.8951207399368286
-2.30935001373291 -0.2655160129070282 -0.8223179578781128
-2.269317388534546 0.013661593198776245 -0.7240912914276123
-2.2277235984802246 0.2622944712638855 0.13992324471473694
-0.9282978773117065 -0.11602894961833954 -0.37878111004829407
-1.4929587841033936 -0.05916507542133331 -0.005712766665965319
-0.03444848954677582 -0.1433156132698059 -0.28919488191604614
0.05134662613272667 -0.30663564801216125 -0.5049179196357727
0.4928862750530243 0.15360909700393677 0.5220678448677063
2.618736982345581 -0.18341948091983795 0.4445302188396454
-1.159367322921753 0.4228593707084656 0.3222269117832184
-0.4105726480484009 0.1739959418773651 0.38543766736984253
-0.28776678442955017 -0.20787236094474792 0.07960625737905502
-1.8947408199310303 -0.017522841691970825 0.6650370359420776
-1.9055010080337524 0.09420974552631378 0.29120683670043945
0.269875705242157 0.6764190793037415 -0.06053959205746651
-0.6462817788124084 0.10046626627445221 -0.27077504992485046
0.16124027967453003 -0.3581182360649109 -0.9435097575187683
-0.18527597188949585 0.5646753311157227 -0.4036176800727844
0.01864982396364212 0.06689877808094025 -0.07890178263187408
1.1606277227401733 -0.05913114547729492 -0.760663628578186
0.6921510696411133 -0.09318912029266357 0.559105634689331
0.5692657232284546 0.5533390641212463 0.1922093629837036
-1.1433815956115723 -0.289700448513031 0.5764648914337158
-1.2939101457595825 -0.30635449290275574 0.899989902973175
1.2825758457183838 -0.1618507206439972 -0.28282368183135986
-1.3703281879425049 -0.05318473279476166 -0.4265907108783722
0.6990481615066528 0.32961979508399963 0.03278762474656105
0.26093778014183044 -0.3208211362361908 0.18258757889270782
-0.7549421191215515 0.25487178564071655 0.43348780274391174
-2.1055779457092285 -0.13472266495227814 0.8689858317375183
0.03760398179292679 0.01727636158466339 0.44948187470436096
0.5608757138252258 0.49652010202407837 -0.1859561949968338
-1.3182039260864258 0.1421426385641098 -0.38545382022857666
-0.15934959053993225 -0.2844216525554657 0.33195731043815613
0.9251226782798767 0.20340131223201752 -0.27181893587112427
-2.135655641555786 -0.16279618442058563 -0.6442912817001343
-2.3015658855438232 -0.1539677083492279 -0.49234169721603394
0.9525585174560547 -0.08509624004364014 0.593881368637085
1.3264875411987305 0.25338229537010193 0.33660459518432617
-0.7808582186698914 -0.24657991528511047 0.026376957073807716
0.8583463430404663 -0.24171628057956696 0.8858588933944702
1.2938039302825928 0.3650854229927063 -0.13165606558322906
-1.577756643295288 -0.2743922770023346 -0.6343348622322083
-1.6537038087844849 0.37277016043663025 -0.345579594373703
-0.1456778347492218 0.7367532253265381 1.2188764810562134
0.6008897423744202 -0.17193840444087982 -0.02935538999736309
-1.667089819908142 -0.3163299858570099 -0.7074785232543945
2.1166250705718994 0.319387823343277 -0.08632367849349976
0.3594813048839569 -0.0044224560260772705 0.22949327528476715
-0.19404682517051697 -0.19605763256549835 0.07958989590406418
-1.771250605583191 0.1984626054763794 0.17755034565925598
-0.29766207933425903 -0.08039499819278717 -0.4575067162513733
-1.4588011503219604 -0.019392624497413635 -0.36195334792137146
1.3206013441085815 -0.39017945528030396 0.6698966026306152
-0.17596067488193512 -0.4007617235183716 -0.2925453186035156
-1.095312476158142 0.5212852954864502 0.07287195324897766
-1.0057121515274048 0.5535095930099487 0.7109944224357605
0.04270382225513458 -0.0677991509437561 1.1488637924194336
-0.7084868550300598 0.2567386031150818 0.7385968565940857
1.955715298652649 0.038609012961387634 0.00040335857192985713
-0.8591621518135071 -0.06386765837669373 -0.5458596348762512
-1.3928589820861816 -0.11048723757266998 0.5023996233940125
0.888907253742218 -0.2930201292037964 0.1501041054725647
0.5316532850265503 0.15699118375778198 0.5149269104003906
-0.41655898094177246 -0.3210286796092987 -0.1402815878391266
1.2511762380599976 -0.11890207231044769 -0.16313596069812775
-1.3394958972930908 -0.12136617302894592 -0.34982532262802124
-1.134053111076355 0.4146859645843506 0.0788501501083374
0.5832611918449402 0.620349645614624 -0.14530324935913086
-1.35356867313385 0.12264986336231232 0.34798502922058105
-0.5843722224235535 0.21661314368247986 0.0342734158039093
-0.010013703256845474 0.09608432650566101 -0.41578030586242676
-1.224777102470398 0.5477776527404785 -0.2842274308204651
-1.581055760383606 -0.05061441659927368 -0.5411897897720337
-0.4506290853023529 -0.40576690435409546 0.0850999727845192
-0.33604517579078674 -0.39043885469436646 -0.35116565227508545
-1.9848870038986206 0.28864923119544983 0.24434295296669006
0.20995505154132843 0.22277148067951202 0.17271208763122559
0.9803374409675598 0.17762944102287292 -0.25495538115501404
-2.023481607437134 0.23283228278160095 -0.30104780197143555
1.2615965604782104 -0.2859092950820923 0.17339952290058136
-0.6791672110557556 0.30701062083244324 0.1656496673822403
0.017694931477308273 -0.3308144807815552 0.4349982440471649
-0.7335683107376099 0.060579702258110046 0.9168442487716675
-0.17082828283309937 -0.32363057136535645 0.1159692034125328
-1.0636128187179565 0.3092053532600403 -0.055869150906801224
-0.9749250411987305 -0.3529655337333679 -0.17147523164749146
-1.3954287767410278 -0.33471179008483887 -0.5334123969078064
-1.2067824602127075 0.41975802183151245 -0.7660561203956604
2.3975696563720703 0.20010226964950562 0.7220967411994934
0.39885181188583374 -0.3526756465435028 -0.23424610495567322
0.46608731150627136 0.47557806968688965 -0.30055680871009827
0.08130167424678802 0.1786423623561859 0.16532547771930695
-0.9154489636421204 -0.20257198810577393 0.1456225961446762
0.8313546180725098 -0.05501037836074829 -0.5146628022193909
-1.7085527181625366 0.44555556774139404 0.028760485351085663
-1.4009395837783813 -0.39369887113571167 0.755292534828186
1.12846040725708 0.31394755840301514 -0.15709532797336578
-1.6862120628356934 0.08699631690979004 0.10493456572294235
0.1913701295852661 0.4767470955848694 -0.5929861664772034
2.3128468990325928 -0.22218884527683258 0.5141053199768066
-1.3280178308486938 0.08236931264400482 0.07711828500032425
0.38419222831726074 -0.13020117580890656 0.5981185436248779
2.1978046894073486 0.049052782356739044 0.02083701826632023
1.8327393531799316 -0.3303814232349396 -0.28762632608413696
-0.9065030813217163 0.43536362051963806 -0.14107948541641235
-0.38023093342781067 -0.32091575860977173 -0.15887834131717682
-0.9626566171646118 -0.1366146355867386 -0.12518638372421265
0.4267193675041199 -0.22032780945301056 -0.06523152440786362
1.1404123306274414 -0.18226173520088196 0.478116899728775
0.31979426741600037 0.3229545056819916 -0.19409535825252533
0.7340874671936035 -0.3136124014854431 -0.2991690933704376
-0.7400071620941162 -0.39949971437454224 -0.1855809986591339
1.196998953819275 0.4239049255847931 0.42539873719215393
1.2034509181976318 -0.14122545719146729 -0.10175684094429016
0.12268759310245514 -0.31411707401275635 -0.978175938129425
1.0312693119049072 -0.3613719344139099 -0.4780881702899933
-1.6215124130249023 -0.3169286251068115 -0.49580156803131104
0.073007732629776 0.16461023688316345 0.9030094146728516
2.150465726852417 0.14180266857147217 0.40326154232025146
-2.020923137664795 -0.21205854415893555 -0.2789020240306854
-1.313852310180664 0.13908763229846954 -0.27218055725097656
0.5747143626213074 0.10660207271575928 -0.13138347864151
-0.0490625761449337 0.5476791262626648 -0.41587939858436584
-0.47175487875938416 0.056386277079582214 0.07282909005880356
-0.10189244896173477 -0.30647242069244385 0.12562471628189087
-0.9144716262817383 -0.368153840303421 0.4561862349510193
0.9391405582427979 0.2653542757034302 0.04303351789712906
0.5140577554702759 0.07773137092590332 -0.29730749130249023
0.8007676601409912 0.26064789295196533 0.0341416597366333
0.9964397549629211 0.18948206305503845 0.35942986607551575
0.9383604526519775 -0.08342403173446655 -0.05858747661113739
0.23547044396400452 0.278883159160614 0.4857766628265381
-2.2943050861358643 -0.13461267948150635 0.3910503387451172
-1.612913727760315 -0.35289108753204346 -0.5679572820663452
-1.1077526807785034 0.4451195001602173 -0.4807811379432678
-1.0729597806930542 -0.15979592502117157 0.5319643616676331
-1.8877644538879395 0.04886209964752197 -0.01604057103395462
1.617746114730835 -0.28133007884025574 0.1904895007610321
-1.4635534286499023 0.01990075409412384 -0.27285900712013245
-0.3848404586315155 0.5176852941513062 0.2978734076023102
-1.7997866868972778 -0.02107188105583191 -0.894302248954773
-1.3243993520736694 0.3965461850166321 -0.09833204001188278
-0.867435872554779 0.12522020936012268 -0.15690144896507263
0.046458542346954346 0.04133181273937225 0.2630369961261749
-0.5831729173660278 -0.33566272258758545 0.33067312836647034
-0.06897051632404327 0.29933086037635803 -0.4610046446323395
0.07091240584850311 -0.10344786942005157 1.1316457986831665
-0.018823739141225815 0.12349992990493774 0.16131408512592316
-0.7549602389335632 -0.3715074360370636 -0.14133621752262115
-0.3045242130756378 -0.13509099185466766 -0.12373479455709457
0.5529593229293823 0.24966341257095337 -0.1553296446800232
-1.5526965856552124 -0.2922343611717224 -0.4301859140396118
0.8622787594795227 -0.39217984676361084 0.2506175935268402
-1.558294415473938 0.07943293452262878 0.11268027871847153
0.6669774651527405 -0.00046065449714660645 0.8657524585723877
0.37153512239456177 0.47446149587631226 -0.5962909460067749
0.6812523603439331 0.5631542801856995 -0.0915878564119339
0.5374847650527954 -0.5275936722755432 -0.2815456688404083
1.4230735301971436 0.17248010635375977 -0.18963707983493805
0.4318152070045471 -0.31026679277420044 0.4062526822090149
-1.117234230041504 0.03462374210357666 -0.4793137013912201
1.3578014373779297 0.08458206057548523 -0.00807049497961998
-0.737662136554718 0.5019680261611938 0.22751294076442719
-0.9957730770111084 0.23979128897190094 -0.11663143336772919
-0.43589669466018677 0.5585222244262695 0.4516826272010803
-0.8785523176193237 -0.1012372076511383 -0.14860352873802185
-1.2928229570388794 0.3733412027359009 0.0883370190858841
-0.3328147530555725 0.41095995903015137 -0.37290310859680176
0.41596150398254395 -0.028729796409606934 -0.4952438175678253
-0.94465571641922 -0.07757873833179474 0.4141922891139984
1.4064404964447021 0.2942271828651428 0.5676259398460388
2.0912253856658936 -0.19758866727352142 0.16050750017166138
0.6681363582611084 -0.3007943034172058 -0.4712187647819519
-1.3425477743148804 -0.24815957248210907 -0.5383666157722473
0.4170050621032715 -0.199702650308609 0.009616906754672527
-0.3192242681980133 0.03284110128879547 -0.7233214378356934
-0.01623084396123886 0.49390649795532227 -0.5293962955474854
-1.1964068412780762 0.447016179561615 -0.06468741595745087
-1.069515585899353 -0.22188082337379456 1.2358393669128418
0.6894630193710327 -0.30714863538742065 0.2249075323343277
0.7176507711410522 0.16678372025489807 0.8889346718788147
0.3705289363861084 -0.33164554834365845 0.12371984124183655
-2.5741448402404785 0.26410210132598877 -0.2358086109161377
-1.6380594968795776 -0.33436307311058044 0.03248192369937897
-1.0894720554351807 0.15293075144290924 -0.5610529780387878
-1.3912758827209473 0.5504116415977478 -0.23301145434379578
2.0518391132354736 -0.2368384450674057 -0.08467978984117508
-1.1545699834823608 0.10691359639167786 -0.8514832258224487
1.8052549362182617 -0.022096097469329834 -0.1480422019958496
-0.9073818325996399 -0.08119669556617737 -0.13360737264156342
0.7543049454689026 0.2464819699525833 -0.7758442163467407
1.468975305557251 0.22158771753311157 -0.4584956467151642
-1.1582764387130737 -0.2889832854270935 -0.8536471128463745
-0.034139927476644516 0.20088331401348114 -0.6046168208122253
-0.7665922045707703 -0.36777937412261963 0.02111613191664219
-2.1809535026550293 -0.3329726457595825 0.12058889120817184
1.2841742038726807 0.0477624237537384 0.23199304938316345
0.3409745991230011 -0.1445065289735794 0.19378411769866943
-2.2853610515594482 0.23360419273376465 -0.7049470543861389
-1.2025145292282104 -0.23616167902946472 0.32488134503364563
0.6360775828361511 0.473757266998291 0.033236656337976456
-0.334128201007843 0.09372039139270782 0.42767661809921265
-0.9221139550209045 -0.31214678287506104 -0.3019498586654663
-1.2072441577911377 0.49849849939346313 -0.1951526552438736
0.4987684488296509 0.12245768308639526 -0.14657828211784363
0.40294772386550903 0.38985443115234375 -0.7542215585708618
-0.4923909604549408 -0.34629225730895996 -0.22683551907539368
-2.1272644996643066 0.14914467930793762 0.09649012237787247
-1.8472864627838135 -0.20127739012241364 -0.06269675493240356
-1.326586127281189 0.2835588753223419 0.002019291976466775
-1.7733674049377441 -0.01122148334980011 0.5992270112037659
1.2723497152328491 0.21435481309890747 -0.2750050127506256
1.881749153137207 -0.40801090002059937 0.23353704810142517
-1.7121360301971436 -0.0729062557220459 0.07312919944524765
-0.3700892925262451 -0.08512052893638611 0.35167196393013
1.0451370477676392 0.1238328367471695 -0.3540668189525604
0.7676517963409424 -0.3604791760444641 0.5756367444992065
0.33827221393585205 0.3057560920715332 -0.6003202795982361
-0.7875691056251526 -0.28378552198410034 0.5109304189682007
-0.6733347773551941 -0.07540975511074066 0.8040741086006165
-2.29668927192688 -0.2106102705001831 0.16111338138580322
-0.20420651137828827 0.1831994503736496 0.1435868740081787
0.2459852695465088 -0.18009769916534424 0.320476770401001
1.5352214574813843 -0.07234558463096619 0.2850457727909088
-1.8681975603103638 -0.25367212295532227 0.37033066153526306
-0.8092871308326721 -0.1709606647491455 0.36151161789894104
-0.4965331554412842 -0.31417885422706604 0.04747863486409187
-0.9004194140434265 0.5908702611923218 0.7235629558563232
0.5130757689476013 0.3316582143306732 0.823809027671814
0.184280127286911 -0.1899881213903427 0.7114657759666443
0.2536364197731018 0.5798578262329102 -0.013232026249170303
-1.3085064888000488 -0.3631952702999115 -0.017838213592767715
-0.1265142858028412 -0.2974315583705902 -0.28110262751579285
0.8414231538772583 -0.014880284667015076 0.5772493481636047
2.1627323627471924 -0.22321617603302002 -0.6571016311645508
-0.06206783279776573 -0.05840122699737549 -0.6794461607933044
-0.15273398160934448 -0.32534509897232056 0.6269546747207642
-0.6390293836593628 0.300039142370224 -0.16030311584472656
2.274038314819336 -0.15496596693992615 -0.5473557710647583
-0.09203457832336426 0.39914458990097046 0.1997915655374527
-0.059717368334531784 0.1601227968931198 -0.255170077085495
-0.4424439072608948 -0.21403495967388153 0.5772454738616943
0.32506370544433594 0.13363225758075714 0.6495615243911743
-0.17597877979278564 -0.1800500452518463 0.5583649277687073
-1.895432472229004 -0.33698076009750366 0.6532636880874634
0.04625933989882469 -0.27259522676467896 -0.6744115352630615
1.375886082649231 -0.11104506254196167 -0.7842495441436768
-1.704816222190857 -0.025697454810142517 0.3688567280769348
0.41237154603004456 0.10428997874259949 0.07336317747831345
0.5871077179908752 0.1476113200187683 -0.2831639349460602
-1.558936357498169 0.017579704523086548 -0.6529608964920044
-0.6118592619895935 0.11102752387523651 0.6763123273849487
2.093029022216797 -0.05173167586326599 0.3164171874523163
0.967927098274231 0.15476316213607788 0.22234579920768738
-0.2010907232761383 0.5178833603858948 -0.3541019558906555
1.7367684841156006 -0.3540930151939392 -0.7255051136016846
-1.9412440061569214 -0.08153678476810455 0.03741566464304924
1.559193730354309 0.007987037301063538 -0.06077216565608978
0.22540400922298431 -0.18630990386009216 -0.6576403975486755
0.118239626288414 0.19688105583190918 -0.44296929240226746
-0.49536097049713135 -0.25387299060821533 -0.9159917235374451
0.04946689307689667 0.24717731773853302 -0.49611106514930725
-1.5341061353683472 0.15211129188537598 0.9807927012443542
-1.7264376878738403 -0.0629836916923523 0.08361297100782394
0.5095998048782349 0.34731245040893555 0.123653344810009
-1.3502081632614136 0.4219094216823578 -0.1793062686920166
2.473714828491211 0.19416838884353638 0.32647889852523804
-0.6813309788703918 0.32478198409080505 0.16416077315807343
1.8568352460861206 -0.14679984748363495 0.20760199427604675
0.6162480115890503 0.4542492926120758 0.5863059163093567
-1.5550622940063477 -0.486142635345459 -0.34221184253692627
0.32775914669036865 0.3906569182872772 -0.41661709547042847
-0.5027698874473572 -0.09547340869903564 0.48513251543045044
0.639132559299469 -0.33770960569381714 -0.34643980860710144
1.3376004695892334 -0.14729028940200806 0.4076927900314331
0.4420565962791443 -0.013814553618431091 -0.6538205146789551
-1.305240273475647 -0.05009491741657257 -0.5313957333564758
1.6395257711410522 0.2184123545885086 0.8773564100265503
-1.8144288063049316 -0.21555885672569275 0.08758124709129333
-1.7569127082824707 0.494364857673645 -0.02601701207458973
0.5004488229751587 -0.163145050406456 0.5835675597190857
0.25023841857910156 -0.07389949262142181 0.2599477469921112
0.5673951506614685 -0.33837059140205383 -0.12137965112924576
-0.42093396186828613 -0.4184664487838745 -0.17023183405399323
0.7504281401634216 -0.008640915155410767 0.4357275366783142
-0.5639668107032776 -0.29280638694763184 -0.36577749252319336
1.369249701499939 -0.258304238319397 0.3673888146877289
0.8500471115112305 0.023859933018684387 0.3054802715778351
1.6254630088806152 0.2771826386451721 0.8053193092346191
1.1207358837127686 -0.031113803386688232 -0.029578378424048424
-1.9568012952804565 -0.3694431781768799 -0.20256659388542175
-0.4818500280380249 0.5454698204994202 -0.2480841428041458
0.5896309018135071 0.5681498050689697 0.31926771998405457
-0.392598032951355 -0.09413732588291168 0.348644495010376
0.08867327868938446 0.3870890140533447 0.11360955238342285
-2.2510130405426025 0.03239668905735016 -0.19854722917079926
-1.2736608982086182 -0.36709457635879517 -0.03823920339345932
-1.3629313707351685 0.38970932364463806 -0.34630268812179565
1.01682710647583 -0.05690588057041168 0.2434978187084198
1.3528677225112915 -0.2064475417137146 -0.9664111733436584
-0.436224102973938 0.22484853863716125 0.17085644602775574
-1.4529011249542236 -0.059064313769340515 0.6186802983283997
1.6710121631622314 0.31341591477394104 0.2508213222026825
-0.5467398762702942 -0.3190386891365051 0.048521049320697784
-1.0395830869674683 -0.3404897153377533 0.20789848268032074
1.2339414358139038 0.214209645986557 -0.4250562787055969
0.3756691813468933 -0.0720156878232956 -0.5176144242286682
1.339141607284546 -0.2775183618068695 0.09417878836393356
-0.2756400406360626 -0.28155529499053955 -0.49187880754470825
-0.07962782680988312 -0.3163411319255829 0.07149656116962433
0.9444624781608582 -0.11661367118358612 0.6160006523132324
1.5165369510650635 -0.09061586856842041 -0.25091278553009033
-1.8992644548416138 0.06057431548833847 -0.8427210450172424
-2.1388823986053467 0.10109071433544159 0.02663727104663849
1.689709186553955 -0.12597601115703583 0.35816827416419983
-0.8556718230247498 0.0138683021068573 0.8925374150276184
1.2607125043869019 0.32582658529281616 0.41917330026626587
-1.7314321994781494 0.19868409633636475 -0.3357837200164795
-1.3518701791763306 0.15984275937080383 -0.16193589568138123
1.526376485824585 0.14587974548339844 -0.36065778136253357
0.018307097256183624 -0.2148497849702835 -0.428122341632843
-0.5982251167297363 -0.39667385816574097 -0.4548950791358948
1.4065853357315063 -0.040370211005210876 0.20052753388881683
-1.516295313835144 0.38371574878692627 -0.1881801187992096
1.6040183305740356 -0.06348718702793121 -0.3748195767402649
-1.3808915615081787 -0.20108170807361603 0.4365745782852173
-0.0009464658796787262 -0.1732286959886551 -0.38661473989486694
-0.03819119930267334 -0.028796330094337463 0.7940468788146973
-1.6844598054885864 0.18054553866386414 -0.006269399076700211
0.364804208278656 0.5385351181030273 0.5559034943580627
-1.703465461730957 0.25564590096473694 0.918582022190094
0.9514524936676025 -0.10487838089466095 -0.18002992868423462
0.1906491369009018 0.5753873586654663 0.8173432350158691
-1.5835820436477661 -0.3155665397644043 -0.1732671558856964
-0.8452352285385132 -0.42812228202819824 -0.19768159091472626
-0.6562578082084656 0.6048519611358643 0.4506874978542328
-1.462523341178894 -0.3267364799976349 0.39804184436798096
-1.0881832838058472 -0.10105471312999725 0.13085216283798218
-0.45026668906211853 -0.34762895107269287 0.420449823141098
-0.3835028409957886 -0.04836927354335785 -0.2951766550540924
-0.603825569152832 0.17463214695453644 -0.31253090500831604
-0.6274208426475525 -0.34523147344589233 -0.9679335951805115
-0.32577311992645264 -0.19261400401592255 -0.6189166903495789
1.4792699813842773 0.45252901315689087 -0.14873206615447998
1.1352930068969727 0.00777861475944519 -0.22524861991405487
-0.36014845967292786 0.2829822301864624 -0.7064565420150757
1.0043599605560303 -0.06975933909416199 -0.023293612524867058
-1.2933104038238525 -0.2823216915130615 -0.5047739744186401
-0.43872547149658203 -0.1639975905418396 0.0008566686883568764
-2.3247010707855225 0.2485036849975586 0.4508521556854248
0.0762447789311409 -0.3398222327232361 0.39784660935401917
0.01191781833767891 -0.32608574628829956 1.2711375951766968
-1.38755464553833 -0.34175238013267517 0.2689064145088196
-1.2289988994598389 0.16139747202396393 -0.29580923914909363
-1.982202410697937 0.05035139620304108 0.8457015156745911
1.2595243453979492 0.19144810736179352 0.934947669506073
-1.583791732788086 -0.27071261405944824 0.7607569098472595
-0.2186092883348465 -0.06237447261810303 -0.6687203049659729
1.5247790813446045 -0.31853559613227844 -0.14656154811382294
0.01571064069867134 0.00015920400619506836 -0.14743661880493164
-1.3586715459823608 0.33017972111701965 -0.7282483577728271
-0.3995814323425293 0.2863558530807495 -0.4447852671146393
0.9948702454566956 -0.38349419832229614 0.14833307266235352
0.5921677350997925 -0.34108448028564453 -0.043327104300260544
-1.0335309505462646 0.07261857390403748 -0.054730940610170364
1.3740057945251465 -0.08025303483009338 0.37657469511032104
-0.12461388111114502 0.6453619003295898 0.3764697015285492
-0.7562413215637207 -0.3551558256149292 0.2587275505065918
0.9112852215766907 -0.17676730453968048 0.32060787081718445
0.6266300678253174 -0.3152797818183899 0.5367240905761719
-0.7970738410949707 -0.25058838725090027 -0.27427029609680176
1.8216209411621094 -0.033480435609817505 -0.03234827518463135
2.6491622924804688 0.1274656504392624 0.02903050184249878
-0.3158808946609497 0.0807277113199234 -0.5494577884674072
-0.4145585894584656 0.4856603741645813 -0.17080934345722198
-1.3087575435638428 0.22207388281822205 -0.31303462386131287
1.4338127374649048 -0.06087084114551544 0.20579618215560913
-1.5565378665924072 0.21925881505012512 0.4399535655975342
0.6198315024375916 0.43255341053009033 0.549726128578186
-0.0960378646850586 0.21097952127456665 0.8519912958145142
-0.30637428164482117 0.2678093910217285 -0.37674784660339355
0.35792413353919983 -0.19576823711395264 0.9283015131950378
-2.5781354904174805 0.38729169964790344 -0.07570536434650421
-1.0602638721466064 -0.10963307321071625 -0.30580294132232666
-0.14823707938194275 0.0843028724193573 -0.12263333052396774
-1.9991700649261475 0.4742184579372406 -0.19380080699920654
1.467508316040039 -0.2874290943145752 -0.7876248955726624
-0.17051056027412415 -0.13107135891914368 -0.7102462649345398
1.9643220901489258 -0.31611937284469604 -0.6898308992385864
0.045753225684165955 0.4866673946380615 0.4535209834575653
0.41988295316696167 -0.21946433186531067 0.7698021531105042
-0.19716210663318634 0.13201594352722168 1.0478922128677368
0.8796606659889221 -0.13052715361118317 0.06211739778518677
-0.7911869287490845 0.4859791398048401 0.590825617313385
-0.039810921996831894 0.11374682188034058 -0.018294574692845345
0.06420236825942993 0.27629661560058594 -0.367901086807251
-0.6934183239936829 -0.033451229333877563 0.8978932499885559
1.3081705570220947 -0.3593912720680237 -0.16749802231788635
0.024218525737524033 -0.22943170368671417 -0.6850006580352783
-1.4267929792404175 0.2914460599422455 -0.5558845400810242
-1.5600478649139404 0.4482106566429138 -0.011035040020942688
-1.278367519378662 0.43688878417015076 -0.053698934614658356
-1.7291619777679443 0.12865839898586273 -0.7675735950469971
-0.052466925233602524 -0.3093329071998596 -0.46387162804603577
0.23240768909454346 0.4626163840293884 0.11766485869884491
-0.3532656729221344 0.30234989523887634 -0.30548974871635437
1.1667470932006836 0.03528374433517456 0.7143663763999939
-0.5185583829879761 -0.32544344663619995 -0.3002834618091583
1.31731379032135 -0.3244805932044983 -0.05624786391854286
-1.069614052772522 -0.2101607620716095 0.7410527467727661
0.012050751596689224 0.551615834236145 -0.43008726835250854
-1.7512894868850708 -0.3741344213485718 0.0008048517629504204
1.6837248802185059 -0.11267705261707306 0.41525033116340637
1.969502568244934 -0.0792662650346756 0.3622681200504303
-0.353845477104187 0.07386277616024017 0.37368884682655334
1.1240038871765137 -0.04300646483898163 -0.16770276427268982
0.721916913986206 0.3795444965362549 -0.21644771099090576
-0.7547363638877869 0.1877148151397705 -0.198961541056633
0.03192786127328873 0.36428001523017883 0.19213953614234924
-1.2519184350967407 0.04632723331451416 -0.42703792452812195
1.0122175216674805 -0.18211093544960022 0.4566243290901184
-0.771985650062561 0.19302955269813538 0.2936861515045166
-1.7308521270751953 -0.06834429502487183 -0.1393795609474182
-0.04745784401893616 -0.19041654467582703 -0.1667892187833786
2.5784149169921875 0.23603898286819458 -0.7939596772193909
-0.21462145447731018 -0.05333667993545532 1.1342335939407349
-0.6616823673248291 -0.30608803033828735 0.03937804326415062
3.0657501220703125 -0.23763152956962585 0.1552230715751648
-1.5166746377944946 -0.33976709842681885 -0.44923198223114014
-0.11684873700141907 0.18084098398685455 -0.6202112436294556
-1.325181484222412 -0.36452415585517883 0.44837918877601624
-1.538119912147522 -0.01622787117958069 -0.8772715330123901
-1.282169222831726 -0.0582161545753479 -0.0913006141781807
-0.09405779838562012 -0.18015500903129578 -0.10299364477396011
-2.194932460784912 0.039509326219558716 1.0336557626724243
-0.7617847919464111 -0.1845056563615799 -0.7007651925086975
-0.7414928674697876 -0.09372508525848389 0.5809552073478699
0.9620135426521301 -0.2402406632900238 -0.5028002858161926
-0.9636024236679077 0.10979735851287842 0.32736441493034363
-0.49773409962654114 -0.21761420369148254 -0.8781598210334778
0.5499656796455383 0.2823505699634552 -0.3620896637439728
-0.27041423320770264 0.13691064715385437 -0.09935148060321808
0.4204646646976471 -0.30630025267601013 -0.026950078085064888
-1.0905158519744873 -0.3349251449108124 0.2855512201786041
0.6202243566513062 0.2345808893442154 0.02340073138475418
0.12499390542507172 -0.34158095717430115 0.09668837487697601
-0.6421263217926025 -0.33040210604667664 -0.4569871723651886
-0.7970407009124756 0.11937964707612991 0.9240612387657166
1.208423376083374 0.10213182121515274 0.5564530491828918
0.774813175201416 0.2628990411758423 0.4298973083496094
-0.0913461297750473 0.5653103590011597 0.5056212544441223
-2.564268112182617 -0.1065843403339386 0.43736153841018677
1.3156613111495972 0.13752885162830353 0.729629635810852
0.7472333312034607 0.22360119223594666 -0.35132548213005066
-0.9529801607131958 0.13689707219600677 0.4056541323661804
-1.1857664585113525 -0.3372938334941864 0.4914945065975189
-1.6790807247161865 0.12357793748378754 0.4568709135055542
-0.3347858488559723 0.662261962890625 0.2611609995365143
0.1790424883365631 -0.28257593512535095 -0.1608223021030426
0.36313557624816895 0.5477806329727173 0.11025287955999374
-2.204746961593628 0.01670299470424652 0.1749803125858307
-0.251936137676239 0.26455602049827576 0.01484836358577013
-2.129725933074951 -0.36469703912734985 0.15225009620189667
1.131547451019287 -0.2680429220199585 -0.859315812587738
-1.42787504196167 0.13520914316177368 -0.837195873260498
-0.7144452929496765 -0.3583701550960541 0.32231199741363525
-2.7524607181549072 0.1722729206085205 -0.10546164214611053
0.4970483183860779 -0.3136753439903259 0.17488324642181396
0.023889601230621338 0.006814554333686829 0.08630836009979248
-1.0032087564468384 -0.11030308902263641 0.2808867394924164
1.5755809545516968 0.16758155822753906 0.04680711030960083
-1.4508554935455322 -0.08462664484977722 -0.7780598402023315
0.12421196699142456 0.37182697653770447 -0.28439316153526306
-0.2531929612159729 -0.09184752404689789 0.3644391894340515
-1.1733684539794922 -0.198935404419899 0.3696902096271515
1.1569029092788696 -0.27159327268600464 -0.35811910033226013
-1.1358100175857544 0.5553325414657593 -0.12235352396965027
1.5251011848449707 0.005545660853385925 -0.691353440284729
0.12281809747219086 -0.20278526842594147 0.7078254818916321
0.07404469698667526 0.34369733929634094 0.9505009651184082
-0.8441817760467529 0.2566583454608917 -0.6788533329963684
-1.2273424863815308 0.046080365777015686 0.5751723051071167
-0.10819216072559357 -0.1450856626033783 0.2097221314907074
-1.1454843282699585 0.059078723192214966 -0.8542256355285645
1.3263081312179565 0.35586652159690857 -0.24349570274353027
1.046161413192749 0.2740286588668823 0.15226584672927856
-0.6488643884658813 -0.12353217601776123 0.18929439783096313
1.051424264907837 -0.10829323530197144 -0.4125293791294098
1.209978699684143 -0.35037386417388916 0.1244463101029396
2.169201374053955 0.2693084180355072 0.10551685094833374
1.5444111824035645 0.030071347951889038 0.4028463065624237
-2.254786968231201 0.04465208947658539 -0.3475554287433624
-1.9291554689407349 0.16166549921035767 0.044553905725479126
1.7169770002365112 0.19360852241516113 0.14736425876617432
-1.3462687730789185 0.09392432868480682 0.6345299482345581
-0.9483916163444519 0.07796160876750946 0.4867081344127655
1.120394229888916 0.412599116563797 0.4818211495876312
-0.3916773796081543 0.058364808559417725 -0.1592908352613449
0.506430447101593 -0.1435619294643402 -0.6704556345939636
1.403016209602356 -0.4053165912628174 0.45429572463035583
0.6238195896148682 -0.32236045598983765 -0.6362232565879822
-0.7738127112388611 0.0707806944847107 0.3948640525341034
0.701713502407074 0.4480908215045929 -0.0030417642556130886
0.9966107606887817 -0.060798704624176025 0.3115553855895996
1.618959903717041 -0.3138454556465149 -0.051572930067777634
0.7811709642410278 0.1719476580619812 0.9527140855789185
0.4501466155052185 -0.0279071182012558 -0.2327011227607727
-1.6594151258468628 0.018405020236968994 -0.1691572517156601
-1.4405251741409302 0.30411145091056824 -0.17079271376132965
