ply
format ascii 1.0
element vertex 814
property float x
property float y
property float z
end_header
1.9705296754837036 -0.6414645910263062 1.0726553201675415
1.3164949417114258 0.5949972867965698 0.9121549129486084
-1.2648465633392334 1.0157729387283325 0.03654807433485985
2.113553524017334 0.22944919764995575 -1.1995441913604736
2.3486011028289795 0.19346773624420166 0.11433407664299011
2.7615764141082764 -0.40247535705566406 0.17139339447021484
0.22794309258460999 -0.40152978897094727 0.00586739182472229
-1.5069596767425537 0.126748189330101 0.4074779450893402
-2.284442663192749 -0.3753870725631714 -0.6385018825531006
1.3401018381118774 -0.23854400217533112 -0.19050396978855133
2.814295530319214 -0.21770337224006653 -1.1306886672973633
2.665409803390503 -0.26351603865623474 -0.5351064801216125
-1.4769160747528076 -0.16844700276851654 0.6755197644233704
3.0429320335388184 -0.23842957615852356 0.09876852482557297
1.709023356437683 0.5757642388343811 -1.2110154628753662
-1.2856481075286865 -0.4718366265296936 1.139936089515686
0.2098897099494934 1.035362958908081 0.9190494418144226
-0.8821330666542053 1.0554090738296509 0.3968532681465149
0.6650397777557373 0.16306868195533752 1.1926953792572021
3.105746269226074 -0.13377468287944794 0.988910973072052
-0.7220248579978943 -0.40757253766059875 -0.7478633522987366
-1.4221693277359009 -0.1460200846195221 0.7574432492256165
1.1634879112243652 -0.3920361399650574 0.9258086085319519
-1.8004056215286255 0.9273325204849243 0.9586821794509888
-0.7766829133033752 0.36345115303993225 -1.195478916168213
2.479959487915039 0.04939985275268555 -0.7633931636810303
2.6028900146484375 -0.22946572303771973 -0.8791568875312805
2.1517698764801025 -0.41011959314346313 0.3411415219306946
2.5008914470672607 0.5233211517333984 -0.42838817834854126
-2.6732137203216553 -0.3613392114639282 -0.25416579842567444
1.3657270669937134 -0.11469441652297974 0.8386813998222351
2.1655635833740234 -0.2614762783050537 -0.06276993453502655
-1.851785659790039 0.014285288751125336 0.8213053345680237
1.5373326539993286 -0.3943656086921692 0.256109356880188
2.478576898574829 0.5548321008682251 -0.18375205993652344
-1.8587993383407593 -0.23804444074630737 -0.8668429851531982
-1.9879425764083862 -0.37556231021881104 -1.2450926303863525
-1.3525420427322388 -0.10877516865730286 -0.5193541049957275
-1.3489515781402588 0.9895181655883789 1.0282740592956543
-0.5094117522239685 1.088754415512085 0.3337196111679077
1.3696787357330322 0.1355873942375183 0.8641549348831177
-1.3596280813217163 0.03927886486053467 -0.8018139600753784
-1.577576994895935 0.9323376417160034 -0.9245898127555847
0.35663115978240967 -0.3461498022079468 1.1599137783050537
2.5360405445098877 -0.34755468368530273 -0.8681554794311523
2.469475746154785 -0.049181416630744934 -0.3311566114425659
2.7746543884277344 -0.4213242530822754 0.02979862689971924
-0.14968925714492798 0.09389278292655945 -1.2164742946624756
-2.7083020210266113 -0.12210142612457275 -0.9775944948196411
-1.5686143636703491 -0.6328762769699097 1.0479260683059692
-1.0189845561981201 0.5566691756248474 1.1445475816726685
-1.3545626401901245 0.18213361501693726 0.7181541323661804
-2.188852310180664 -0.41335248947143555 -1.0292984247207642
-1.4168024063110352 0.07044373452663422 -0.9277476072311401
1.489990234375 0.17660747468471527 -0.906237781047821
-1.5075507164001465 -0.1582847535610199 0.43248534202575684
-1.6634225845336914 0.09179402142763138 -0.8883707523345947
-2.7105507850646973 -0.03809094429016113 -0.4462941586971283
1.6916528940200806 0.4159233868122101 0.18632543087005615
0.16027812659740448 0.7739794850349426 1.1234705448150635
-1.1603678464889526 -0.31009000539779663 1.1788582801818848
1.3473663330078125 0.7372056245803833 -0.7115834355354309
-0.06942020356655121 -0.40235602855682373 0.8610684871673584
-2.629807949066162 0.5435747504234314 1.1663745641708374
3.123589515686035 -0.11487133800983429 0.5118026733398438
1.526285171508789 0.13854190707206726 1.0469416379928589
3.080608367919922 0.03525921702384949 -0.09743581712245941
-1.622811198234558 -0.239996537566185 0.9251943826675415
2.205183982849121 0.29870355129241943 0.23768281936645508
-1.8008286952972412 0.8896512985229492 1.0059980154037476
2.0944409370422363 0.37245166301727295 -1.2258700132369995
0.6601508259773254 0.9008051156997681 1.106855034828186
0.17088080942630768 0.8394119143486023 1.1183278560638428
1.7645231485366821 -0.15186291933059692 -0.22067825496196747
-0.4299093186855316 -0.4010598659515381 0.41459527611732483
-1.1202620267868042 -0.0867413729429245 0.8054105639457703
1.468123435974121 -0.11844442784786224 -0.4860920310020447
2.8244569301605225 0.4096311926841736 0.9359228610992432
0.6002903580665588 -0.001093447208404541 -1.2115639448165894
1.730283260345459 -0.33167320489883423 -1.2157469987869263
2.847292184829712 0.3902748227119446 -0.7292402386665344
2.7652645111083984 -0.3734244704246521 -0.3208078444004059
3.159522533416748 -0.0035193264484405518 0.5420864224433899
0.6446822881698608 -0.3131162226200104 -1.1598321199417114
1.2772537469863892 0.7246812582015991 -0.7257977724075317
-1.6456329822540283 -0.021334394812583923 -1.2301958799362183
2.473644495010376 0.5733951926231384 0.9946780800819397
1.078863501548767 0.6264551877975464 1.1789029836654663
2.500431537628174 -0.2694321870803833 0.19544410705566406
0.3118656277656555 0.019736215472221375 -1.2118632793426514
1.9271081686019897 0.258941113948822 -0.5158168077468872
-1.3704237937927246 0.49587228894233704 -1.23799729347229
2.1891114711761475 0.23426154255867004 1.165351152420044
-1.6280782222747803 0.19081467390060425 0.4217396676540375
-2.5665247440338135 0.6358827948570251 0.36854663491249084
-2.7119193077087402 0.0633452981710434 0.06559177488088608
2.9301187992095947 -0.31345227360725403 -0.8302156925201416
1.8033959865570068 -0.059636861085891724 0.3439658582210541
1.9044690132141113 -0.18905110657215118 -1.201449990272522
-0.8261243104934692 -0.025448590517044067 1.1708006858825684
1.5291072130203247 0.7093178629875183 0.33524152636528015
2.245435953140259 -0.33080804347991943 -0.5955727100372314
1.228011131286621 0.742561936378479 0.017526431009173393
0.22220851480960846 -0.39521074295043945 0.2878718674182892
0.2936164140701294 0.871624231338501 -1.1481819152832031
-2.5905513763427734 0.6316860914230347 0.7556880712509155
2.373671770095825 -0.1902359575033188 -1.018968105316162
-2.486589193344116 0.6519331932067871 -0.27273884415626526
-0.3297303020954132 0.08024667203426361 -1.2297098636627197
-1.6738569736480713 -0.3484957218170166 -1.2109756469726562
1.6558278799057007 0.31720906496047974 -0.738220751285553
1.2947345972061157 0.7318332195281982 -0.8571255803108215
0.6448318362236023 0.8645197153091431 0.4519072473049164
1.7338695526123047 -0.31001123785972595 -0.4211679697036743
-0.6561041474342346 -0.40512484312057495 0.5985791087150574
-2.5202836990356445 -0.39222121238708496 0.27041497826576233
2.110820770263672 0.443214476108551 0.8965851664543152
2.71826434135437 0.4630274474620819 -0.3174620568752289
2.5878100395202637 -0.4323294162750244 -0.2673739790916443
-1.7403912544250488 -0.5224708318710327 1.247183084487915
-1.6424822807312012 0.8649869561195374 -1.1183425188064575
-1.9123313426971436 0.7975264191627502 -1.1577668190002441
-1.4710410833358765 -0.39027029275894165 -0.27588436007499695
2.918170928955078 0.33931079506874084 -0.561252772808075
2.5781664848327637 0.52736896276474 -0.9434332847595215
-2.246152877807617 0.7005081176757812 0.600765585899353
2.291745901107788 0.14099568128585815 0.6963242292404175
2.0205647945404053 0.2786555886268616 -0.356132447719574
1.8077176809310913 -0.027402400970458984 -0.8204130530357361
-0.07407818734645844 0.18807289004325867 -1.2215420007705688
0.9087692499160767 0.7914672493934631 0.5583460330963135
1.9985476732254028 0.28336066007614136 -0.22305697202682495
0.0772596076130867 -0.40524184703826904 1.0680296421051025
-1.6112991571426392 0.9403049349784851 0.9971116185188293
2.885608196258545 -0.05833049118518829 -1.2180193662643433
-2.7019498348236084 0.22892051935195923 1.0616117715835571
-0.10087979584932327 1.0906274318695068 0.864029049873352
-2.175959825515747 0.7255866527557373 0.9675335884094238
1.580452799797058 -0.39285650849342346 0.7059914469718933
-2.291964054107666 -0.3739217221736908 -0.0529513917863369
1.2272416353225708 -0.045132532715797424 -0.8372611403465271
-0.4172307550907135 -0.09208881855010986 0.6073817610740662
-1.5253231525421143 0.9824557304382324 -0.009626171551644802
1.7406238317489624 -0.058570802211761475 -1.1511402130126953
-2.0608327388763428 -0.21754388511180878 -0.6872348189353943
2.2313640117645264 0.5661041736602783 -0.4082009494304657
1.9168678522109985 0.693127453327179 -1.0143060684204102
0.3794950246810913 -0.2397426813840866 1.1740878820419312
1.6750539541244507 -0.3181518316268921 0.7701184749603271
-0.18066006898880005 0.11051703244447708 -1.174950122833252
1.5325459241867065 0.2105468213558197 -0.43635058403015137
0.6106641888618469 0.34597763419151306 1.1981151103973389
-2.2859580516815186 -0.3744479715824127 -0.5740451216697693
-1.2690157890319824 -0.3807145357131958 0.2608622610569
-1.5488133430480957 -0.2842690050601959 -0.6827546954154968
-2.6427106857299805 0.5743346214294434 -1.1968624591827393
-1.8990787267684937 -0.5962454080581665 -1.1237645149230957
-0.11403726041316986 -0.38798853754997253 1.0183899402618408
-0.23165786266326904 -0.4062599539756775 -0.06824681907892227
-1.8719350099563599 -0.13640941679477692 -0.7962098717689514
1.6555590629577637 0.23390664160251617 -0.022366968914866447
-1.438891053199768 -0.08407241106033325 -0.009705232456326485
-1.8724184036254883 -0.5963528156280518 -0.8835475444793701
-2.7213375568389893 0.37059760093688965 -0.08610842376947403
2.802741289138794 -0.3864617943763733 0.9043064117431641
-2.7135729789733887 0.021867692470550537 1.015007495880127
-0.6275984048843384 1.0870399475097656 -0.6892773509025574
0.31146764755249023 0.989262580871582 -0.33065065741539
-0.6918464303016663 1.0536144971847534 0.8031835556030273
-2.692671537399292 -0.1855243444442749 1.0413691997528076
-2.702798366546631 -0.0895761251449585 -0.23054979741573334
-1.3555090427398682 0.2209114134311676 0.7925638556480408
0.12261064350605011 -0.39393699169158936 -0.3308456540107727
0.8894878029823303 0.2932162284851074 -1.250927209854126
-2.103073835372925 -0.37495291233062744 0.4591538906097412
1.7175991535186768 0.06324071437120438 -1.0733728408813477
1.5326482057571411 0.7180831432342529 1.0181342363357544
-1.8434897661209106 0.39209339022636414 1.250607967376709
0.304068386554718 0.10874475538730621 -1.2154030799865723
-2.5341925621032715 -0.37470391392707825 -0.2776646018028259
1.8460091352462769 -0.38963931798934937 0.4132712185382843
2.6402366161346436 0.13734519481658936 1.1465699672698975
2.3206074237823486 0.29136186838150024 -0.6091152429580688
0.0829690620303154 -0.3938694894313812 0.7306979894638062
-1.8370953798294067 0.004610538482666016 0.47967538237571716
1.3835493326187134 -0.13816028833389282 0.7788165211677551
-1.2966609001159668 -0.49138662219047546 -0.9800491333007812
-0.3351200819015503 -0.3474504351615906 1.1396641731262207
-2.538700580596924 0.09464817494153976 1.1698616743087769
-2.0500543117523193 0.7501319646835327 -1.179632306098938
1.7786484956741333 -0.532166600227356 1.1013966798782349
1.5055965185165405 0.27000242471694946 -0.6064435243606567
3.074937582015991 0.11620648205280304 -0.7102800011634827
2.5478758811950684 0.5251886248588562 -0.7140682935714722
-2.1809487342834473 -0.3703366816043854 -0.3258935511112213
-2.7352986335754395 0.5663197040557861 0.453104704618454
-2.7049052715301514 0.005646958947181702 0.9132189154624939
-1.1711903810501099 -0.11782839894294739 -0.5459954738616943
-2.0860729217529297 -0.38184845447540283 0.08189227432012558
-0.31740549206733704 0.5886750221252441 1.1438559293746948
-0.8375600576400757 -0.4102790653705597 -0.9411806464195251
1.7386658191680908 0.7004901170730591 0.9647841453552246
-0.45984598994255066 -0.39243441820144653 0.7855367660522461
-2.5598196983337402 0.6443390250205994 -0.5695632696151733
2.2055768966674805 0.09625251591205597 0.3067861497402191
0.04991243779659271 0.7554548978805542 -1.1386442184448242
1.0367101430892944 -0.4095292091369629 -0.11406292766332626
1.0327092409133911 0.5683495998382568 -1.1916311979293823
2.961256980895996 0.2769606411457062 0.13264670968055725
3.0877163410186768 -0.028586238622665405 -0.3783716559410095
1.6729918718338013 -0.013440296053886414 0.5813626050949097
-0.13329008221626282 -0.39741289615631104 0.7942602634429932
0.07142306864261627 1.093088150024414 0.886228621006012
1.8984510898590088 -0.25776976346969604 0.1534803807735443
-1.259714126586914 0.3101344406604767 0.6997227072715759
1.8629015684127808 0.15330104529857635 -0.7653154134750366
1.3005461692810059 0.003418460488319397 0.03273186832666397
1.7003339529037476 0.3421539068222046 -0.1309996247291565
-0.7984077334403992 -0.005949735641479492 1.1829930543899536
-0.21054288744926453 0.19983863830566406 -1.210213303565979
-0.14951783418655396 -0.13256622850894928 1.1672110557556152
2.2911934852600098 0.024126380681991577 -0.5198682546615601
2.0888495445251465 0.6046336889266968 -0.43244463205337524
2.39947509765625 -0.1955609768629074 -0.8732725381851196
-2.7165017127990723 0.06661561876535416 -0.11674295365810394
1.7143737077713013 -0.4562905728816986 -0.9915874600410461
1.5800323486328125 0.18076181411743164 -0.5816175937652588
2.2865121364593506 0.6514450907707214 0.8573878407478333
-2.0704994201660156 -0.189837247133255 -0.8686039447784424
2.4950926303863525 0.46886277198791504 1.130155324935913
-1.1268255710601807 -0.38393938541412354 0.36863163113594055
1.9859442710876465 -0.13471320271492004 -0.43449345231056213
1.70419442653656 0.6942006945610046 0.05032344162464142
1.883540153503418 0.4774375557899475 1.1576930284500122
0.8907861709594727 -0.38616740703582764 -0.3811149597167969
1.2135660648345947 -0.2410072237253189 -0.8842637538909912
-2.726731061935425 -0.12088209390640259 -0.03375857695937157
1.7984681129455566 -0.026368916034698486 0.4587392210960388
1.3117910623550415 -0.3935559391975403 0.9782294034957886
2.3916547298431396 0.2122984230518341 0.391552597284317
-0.07105282694101334 0.3860321640968323 1.1564204692840576
2.7191579341888428 0.280434787273407 1.1404439210891724
1.9499428272247314 -0.43554577231407166 -0.9231688380241394
1.4536256790161133 -0.17875011265277863 -0.046218954026699066
0.5046021342277527 0.9524230360984802 0.8614388704299927
1.1853535175323486 -0.40354815125465393 0.3585781753063202
-1.7283958196640015 0.051212750375270844 -0.3924171030521393
-0.7011993527412415 0.7346354722976685 1.1307703256607056
0.7793499827384949 0.5497786998748779 1.1577439308166504
1.921797275543213 0.3566315770149231 -0.8318622708320618
-0.7706395983695984 0.6870754957199097 1.1302721500396729
1.3441342115402222 -0.1741395741701126 -0.16572047770023346
1.444021463394165 0.0932699516415596 0.6525928378105164
-2.0298426151275635 -0.49313828349113464 0.9689499735832214
-1.4566572904586792 0.03929543495178223 0.8866956830024719
0.41492050886154175 0.9890216588973999 -0.8492138981819153
-0.5144711136817932 -0.39590901136398315 0.6413069367408752
2.3090851306915283 0.5996408462524414 -0.10959304124116898
1.5222619771957397 0.21987304091453552 -0.8919442296028137
2.0369887351989746 0.34652042388916016 -0.1450509876012802
3.0415868759155273 -0.13843761384487152 -0.7261936068534851
-0.9656054377555847 -0.16129717230796814 1.1692143678665161
-1.4617156982421875 -0.10727807879447937 0.892253041267395
0.6710734367370605 -0.3966345191001892 -0.5949565768241882
0.9024583697319031 -0.3807736039161682 1.0616880655288696
-0.4985039234161377 1.082411766052246 0.9507553577423096
0.4795178771018982 0.9426079392433167 -0.514205276966095
1.4881982803344727 0.697606086730957 0.04917053505778313
-0.5964509844779968 1.079087495803833 0.04148266464471817
-0.5389286279678345 -0.37436097860336304 -0.06077073514461517
2.5070128440856934 -0.4048071503639221 0.11345986276865005
1.7278164625167847 -0.39386019110679626 -0.06937561184167862
1.9094853401184082 -0.5461863875389099 -1.0305272340774536
2.726621627807617 0.513625979423523 0.9458078145980835
2.4450347423553467 0.5849571824073792 -1.1294772624969482
1.738725185394287 0.12028974294662476 -1.0127531290054321
2.916107416152954 -0.3312000036239624 -0.9559215307235718
-1.0913379192352295 0.08242278546094894 -0.8389671444892883
-1.7588748931884766 -0.41045069694519043 -0.950067937374115
0.47418883442878723 0.945576548576355 0.11428021639585495
-1.234246850013733 -0.3927246928215027 0.36826589703559875
-1.9944146871566772 0.8531195521354675 -0.28965893387794495
-2.3917319774627686 -0.3695273697376251 0.03964175656437874
-0.7391101121902466 -0.3973783254623413 0.5061667561531067
2.405149221420288 0.002991423010826111 -0.1940096765756607
-1.5656473636627197 -0.6233187317848206 -1.0501073598861694
-2.730731248855591 0.4625147581100464 0.5602854490280151
-0.6200122237205505 -0.04470805823802948 1.1718049049377441
-1.972211480140686 0.021062590181827545 -0.3637239933013916
-1.8256996870040894 -0.27083075046539307 0.30453431606292725
-1.3970144987106323 -0.1238924115896225 0.18973369896411896
2.524040937423706 -0.10394559800624847 -0.3374814987182617
0.2276291400194168 -0.25662535429000854 1.1717886924743652
2.0562081336975098 -0.4631619155406952 1.1515532732009888
1.1200169324874878 -0.09235478937625885 1.1875489950180054
-1.6019458770751953 -0.16091381013393402 0.692555844783783
1.2835363149642944 0.036071084439754486 0.18237146735191345
2.2204859256744385 -0.2689284682273865 -0.24820208549499512
1.162321925163269 -0.3966204822063446 -0.19076010584831238
-2.153001308441162 0.5076558589935303 1.2129707336425781
-2.720860481262207 0.17060282826423645 -0.290129691362381
2.2090938091278076 -0.5715407133102417 1.0368590354919434
1.7103321552276611 0.6841912269592285 -0.16471199691295624
2.4855740070343018 -0.13695020973682404 0.9347823858261108
-2.4807021617889404 -0.36870115995407104 0.420987993478775
1.3968515396118164 0.053405314683914185 -0.011386396363377571
0.2506462335586548 1.0474423170089722 -0.9982848763465881
3.1346161365509033 0.10754512995481491 0.5771434307098389
-2.7193565368652344 0.26009514927864075 -0.3761410117149353
-0.2879287600517273 -0.3868939280509949 -0.10066180676221848
2.120600938796997 -0.3977601230144501 -0.04612789303064346
1.7404518127441406 -0.4903372526168823 -1.0690810680389404
0.1531054675579071 1.046073079109192 0.3000105321407318
1.5474656820297241 0.724894642829895 0.3185661733150482
-0.8414279818534851 1.0306791067123413 1.0413954257965088
2.784327983856201 -0.41583359241485596 -0.7989948391914368
-1.3572896718978882 -0.21112331748008728 -0.9688626527786255
2.201237440109253 -0.2847387194633484 -0.3084256947040558
-1.1245810985565186 0.04697943478822708 -0.6759777665138245
-1.2208263874053955 -0.09438431262969971 0.8240397572517395
-1.7087346315383911 -0.3561699390411377 -1.2333166599273682
-2.721879243850708 0.3316623270511627 0.17162366211414337
2.10357928276062 0.40516120195388794 -1.2264817953109741
2.212869644165039 -0.056815654039382935 1.1334751844406128
2.3604624271392822 0.6256401538848877 -1.0253816843032837
-1.0568045377731323 1.0457289218902588 -0.42171159386634827
-1.802628755569458 -0.382097452878952 -0.3582773804664612
0.5505571365356445 -0.3754259943962097 0.6174806356430054
-2.121393918991089 0.730988621711731 0.8679251074790955
-1.4913184642791748 0.26352638006210327 0.17169643938541412
2.1183531284332275 0.2627072036266327 -0.15450802445411682
2.2218050956726074 0.12978442013263702 -0.8861044645309448
3.1030828952789307 -0.18045029044151306 0.521939754486084
1.2735953330993652 -0.4083961844444275 -0.12639985978603363
-1.922745943069458 -0.5016466975212097 1.2410451173782349
-1.4722354412078857 -0.10907693207263947 0.8584970235824585
-1.4404610395431519 0.10753437876701355 -0.7977532148361206
-2.088817834854126 0.8120850324630737 -0.3491540849208832
0.04278896749019623 -0.07769529521465302 -1.2256172895431519
0.5439500212669373 0.8919780254364014 0.6500311493873596
-0.5560809969902039 -0.3864736258983612 -0.09755569696426392
2.83978533744812 0.1894504278898239 1.1251548528671265
1.6680936813354492 0.18974006175994873 0.03346225619316101
2.1844165325164795 -0.18659628927707672 -0.3837656080722809
-1.6100249290466309 -0.13403114676475525 -0.8656338453292847
-2.740597724914551 0.556694507598877 -0.46680665016174316
-1.9467827081680298 -0.39864039421081543 0.8721380233764648
1.5486384630203247 -0.13172179460525513 -0.23175497353076935
2.6318960189819336 -0.4242445230484009 -0.8638679385185242
1.7573195695877075 0.689879834651947 -1.2222073078155518
2.4633073806762695 0.4980630576610565 -0.34786200523376465
1.5071033239364624 -0.11806066334247589 1.1741065979003906
2.211350440979004 0.6429312825202942 -1.1854097843170166
-2.7060000896453857 -0.07028259336948395 0.48176562786102295
2.828279972076416 0.37955063581466675 0.8648245930671692
1.0813875198364258 0.787653923034668 -0.7688634395599365
-2.616426944732666 -0.3640913963317871 -1.0833828449249268
-2.370311975479126 -0.37020277976989746 0.9227524995803833
-1.6049237251281738 0.5712053775787354 1.1472595930099487
2.186173915863037 -0.05150806903839111 -0.5546241998672485
1.577867865562439 0.21072623133659363 0.5955008864402771
0.7741497755050659 -0.018273204565048218 -1.228073000907898
2.90097975730896 0.3062218725681305 -1.164318561553955
-1.4069812297821045 0.8073505163192749 -1.1240266561508179
1.3884376287460327 0.021702900528907776 -0.9781085252761841
-1.034281849861145 0.9922692179679871 1.0730669498443604
-1.6130794286727905 -0.39056074619293213 -0.07583588361740112
-1.2872533798217773 1.0426431894302368 -0.4551313817501068
0.41002777218818665 -0.39349767565727234 -0.7818922996520996
-0.6584159135818481 1.060966968536377 0.7830511927604675
-1.437913417816162 -0.32231783866882324 -0.7209396362304688
2.8561928272247314 -0.3665429651737213 0.6070277094841003
-1.5172488689422607 0.16478067636489868 0.345682829618454
2.60648775100708 0.4400675296783447 0.8967257738113403
-2.0463621616363525 0.3114877939224243 1.2325056791305542
2.2639224529266357 -0.17800459265708923 -0.6090089678764343
0.45263779163360596 0.9475367069244385 -0.4163782000541687
1.6575616598129272 -0.48939940333366394 0.9718491435050964
1.6885963678359985 -0.12204408645629883 -0.22940263152122498
0.4743083715438843 -0.35379886627197266 0.8578517436981201
-0.8997035026550293 0.16969990730285645 1.1798421144485474
0.7312477231025696 0.8652023077011108 -0.2660299241542816
1.1795974969863892 0.5046085119247437 1.1922365427017212
-0.8610307574272156 -0.39934277534484863 0.6453548669815063
-2.084916114807129 0.7712350487709045 0.898154616355896
-2.275235652923584 0.6324840784072876 -1.225808024406433
1.8401576280593872 0.41933050751686096 -0.7598235607147217
-1.376982569694519 0.49075835943222046 -1.252282977104187
-2.7054097652435303 0.05416150391101837 0.6865930557250977
1.2117605209350586 0.740534782409668 0.8673561811447144
-1.1806490421295166 0.9968435764312744 0.8491705656051636
-2.1866440773010254 -0.10464635491371155 1.1823986768722534
-0.2776011824607849 0.46085798740386963 -1.1752727031707764
-1.1182851791381836 1.0517820119857788 -0.6150578856468201
0.132230743765831 1.0488128662109375 1.0159424543380737
2.3747687339782715 0.12049087136983871 1.156302571296692
-2.6797757148742676 0.4832586646080017 -1.2501916885375977
-2.3351354598999023 0.421242356300354 -1.2703888416290283
1.8198028802871704 0.7097859978675842 -0.48302313685417175
1.469506859779358 0.2875351309776306 1.0474082231521606
-0.5240083336830139 -0.4070879817008972 -0.8239548802375793
-0.15486858785152435 1.071699619293213 1.0734235048294067
2.016439199447632 0.34252816438674927 -0.7177589535713196
2.395839214324951 0.2921549677848816 -0.4438766837120056
-2.083000421524048 -0.5069403648376465 -0.945243775844574
-1.3944038152694702 -0.5309094190597534 1.2023754119873047
-1.1975700855255127 0.1566779911518097 0.3545117974281311
0.1649305522441864 1.033143401145935 0.19084036350250244
-1.4931249618530273 -0.3841034770011902 -0.22194042801856995
0.083726666867733 -0.2849615812301636 0.7811044454574585
2.5778110027313232 0.5481524467468262 -0.12602458894252777
1.1301546096801758 0.5816223621368408 -1.1802921295166016
2.9151206016540527 0.3387870192527771 -0.6655704975128174
-1.3109885454177856 1.0072693824768066 0.34514573216438293
2.0285305976867676 -0.39977842569351196 0.004620510619133711
0.15730047225952148 1.0349907875061035 0.4000439941883087
1.5271247625350952 0.6737247705459595 0.8067072629928589
2.3041017055511475 -0.38875460624694824 0.6197983026504517
1.540696620941162 0.653424859046936 0.5325797200202942
-2.2458977699279785 -0.11741428077220917 -1.2120873928070068
-0.6776556372642517 -0.38752248883247375 0.22735145688056946
1.6907684803009033 -0.25128090381622314 -0.9360736608505249
0.8431687951087952 0.5410899519920349 -1.1985539197921753
0.09621338546276093 1.0350481271743774 1.108298897743225
1.5084439516067505 -0.3171892762184143 -0.9298695921897888
0.35721737146377563 0.5176541805267334 1.1668773889541626
1.5525498390197754 -0.1011020690202713 -0.5571948885917664
-1.4901975393295288 0.7675559520721436 1.097192645072937
2.9012086391448975 0.34905922412872314 0.07723519951105118
2.3091061115264893 -0.4094683527946472 0.052982181310653687
-0.07427515089511871 -0.4024437963962555 0.47990620136260986
-2.719151735305786 0.21914587914943695 -0.045063234865665436
0.939764678478241 0.01392035186290741 1.1955398321151733
-1.614036202430725 0.20862749218940735 -0.7863760590553284
-2.418304443359375 0.6650800704956055 0.41260793805122375
1.4084135293960571 0.1343802660703659 -0.7556433081626892
-1.07112717628479 -0.22936636209487915 -0.28652888536453247
1.3579014539718628 -0.1596546620130539 -0.08093896508216858
0.006872650235891342 -0.37325045466423035 -0.440086305141449
-1.7867456674575806 -0.3824470341205597 0.4643138647079468
0.5460417866706848 0.9546501040458679 -1.0394874811172485
1.6313813924789429 0.23748286068439484 0.6896731853485107
0.7060141563415527 0.8846646547317505 -0.21055756509304047
1.8684903383255005 0.10228203237056732 -0.7761602401733398
-2.2763047218322754 -0.37362778186798096 0.2927294373512268
-1.3970746994018555 -0.38603007793426514 0.2305266112089157
1.7561472654342651 -0.1662822961807251 -0.7706719040870667
-1.076297402381897 -0.3094436824321747 0.05480297654867172
-2.5553219318389893 0.6222800016403198 -0.6472775936126709
2.377488613128662 -0.07077310979366302 0.7613331079483032
0.5517207980155945 -0.39928746223449707 -0.5262806415557861
2.045656204223633 0.6589637398719788 0.14956140518188477
2.0738933086395264 0.20529377460479736 -0.4377951920032501
-0.8567410111427307 -0.2860907316207886 0.33046215772628784
-2.6136045455932617 -0.35437440872192383 0.6341243386268616
-1.4169390201568604 0.5990852117538452 -1.2271990776062012
-1.6148194074630737 0.1169319897890091 -0.6946139931678772
-1.5463261604309082 0.4278704524040222 -1.2775760889053345
-2.349522829055786 -0.39188405871391296 -0.7845228314399719
-1.3798365592956543 -0.3790348768234253 0.6336795687675476
-2.734238624572754 0.5775750875473022 0.44249552488327026
-0.8630746006965637 -0.4006567597389221 -1.0768237113952637
1.5395113229751587 -0.14578773081302643 -0.8202371597290039
2.4452497959136963 -0.3334665298461914 1.1406255960464478
1.973050594329834 0.4148019552230835 -0.3870522081851959
1.5072016716003418 -0.38996368646621704 0.708263635635376
-2.2262003421783447 -0.3722277879714966 -1.1465338468551636
1.5679993629455566 -0.19987988471984863 -0.8558393120765686
-2.0494489669799805 -0.37166547775268555 0.5872155427932739
-2.408076047897339 0.6640387773513794 1.0266704559326172
1.786827802658081 -0.05765445530414581 1.1833019256591797
-0.7455348968505859 -0.39497706294059753 -0.6466394662857056
-0.8377756476402283 1.0695323944091797 -0.1793368011713028
-1.0819752216339111 0.31742000579833984 -1.2139663696289062
-0.633326530456543 1.0752358436584473 0.387796014547348
-2.713282585144043 0.03984585404396057 0.02084416151046753
2.5107953548431396 -0.13806430995464325 -1.1915630102157593
-2.3290953636169434 0.4547366499900818 -1.25853431224823
-0.1601487100124359 0.631475031375885 -1.1410644054412842
3.0930793285369873 -0.012282177805900574 -0.3125015199184418
2.2550270557403564 0.6309162378311157 -1.1029274463653564
1.0514721870422363 -0.38223880529403687 -1.1048698425292969
1.220329761505127 -0.3081015944480896 1.1875948905944824
0.29943740367889404 0.45527970790863037 1.1788594722747803
1.8274757862091064 -0.3979681730270386 0.11910329759120941
-2.2518508434295654 0.5942057371139526 -1.2464666366577148
-1.5291295051574707 0.9492912292480469 0.9175621271133423
1.810402274131775 0.4015440344810486 -0.4214206039905548
0.6279955506324768 0.8888024687767029 0.7273249626159668
-1.1252715587615967 -0.37054240703582764 -0.14245611429214478
2.1827921867370605 -0.1720193773508072 -1.1251338720321655
0.03886127844452858 1.0569040775299072 -0.2812352478504181
0.7374465465545654 0.5614641904830933 -1.1903563737869263
0.04801535978913307 0.6009109020233154 -1.154360294342041
-1.7592270374298096 -0.07799291610717773 -0.8860899806022644
1.708869218826294 0.723625659942627 -0.5750899314880371
-1.190504789352417 -0.39077693223953247 1.1317147016525269
2.1672539710998535 0.34025663137435913 0.9035302996635437
1.247562289237976 -0.3964051604270935 -0.7670320868492126
-2.696017026901245 -0.052986472845077515 0.35022231936454773
1.9320564270019531 0.25394123792648315 0.9284256100654602
-0.6692262291908264 0.0022885799407958984 0.734880268573761
-0.31870797276496887 -0.3744814991950989 -1.1713255643844604
1.4931201934814453 -0.3963950276374817 -0.519968569278717
2.0688488483428955 -0.0209600031375885 0.8628868460655212
-2.058966636657715 -0.25735530257225037 -0.5643354654312134
1.6459298133850098 0.15022379159927368 -0.6516309976577759
1.3582721948623657 0.09315922856330872 -1.1887047290802002
-2.0429434776306152 0.22322750091552734 -1.2698462009429932
-1.0490448474884033 0.869123101234436 -1.0654593706130981
2.1765010356903076 0.5904791355133057 1.1687614917755127
-1.205834150314331 -0.17880386114120483 0.4712682366371155
2.2678163051605225 0.16356711089611053 -0.0015829865587875247
0.7922367453575134 0.846451997756958 0.3249804973602295
2.2055139541625977 -0.4048253893852234 -0.16913379728794098
1.463403582572937 -0.39938676357269287 -0.572451114654541
-1.5003187656402588 0.9849557280540466 0.2229626625776291
0.19453412294387817 -0.40145641565322876 -0.7200594544410706
-0.81307452917099 -0.3926900029182434 -0.6755264401435852
-0.41152089834213257 0.036712341010570526 1.1645156145095825
-1.7583454847335815 -0.29421907663345337 0.8491443991661072
-1.7234522104263306 0.8978506922721863 -1.013697862625122
-1.7747516632080078 0.3791578412055969 -1.2609463930130005
1.5103541612625122 -0.20646469295024872 -0.22189131379127502
-0.7384276986122131 0.8780587315559387 -1.047373652458191
0.3907851278781891 -0.13139095902442932 -1.1919653415679932
-0.35393625497817993 -0.43503451347351074 -1.0811896324157715
-1.360190510749817 -0.18883858621120453 -0.33496198058128357
1.863442301750183 0.2780727744102478 -0.31569498777389526
1.700168251991272 0.3668951988220215 1.1469255685806274
-0.5412548184394836 1.0885043144226074 0.4628137946128845
0.7914199233055115 0.8563794493675232 0.17549240589141846
-0.8757916688919067 0.09899044036865234 1.1931806802749634
-2.107132911682129 -0.34906548261642456 1.039629340171814
1.8416770696640015 0.028837546706199646 -0.8346086144447327
-0.3724420368671417 -0.4003077447414398 0.29034656286239624
3.1069157123565674 0.09065891057252884 0.8315069079399109
1.6335421800613403 -0.40135177969932556 0.21859799325466156
-2.3680479526519775 -0.37471434473991394 -0.30879396200180054
1.5037790536880493 0.21849587559700012 -0.7600235939025879
2.324045419692993 -0.044283151626586914 1.151750922203064
-1.5040448904037476 0.19710880517959595 0.7533311247825623
-2.7048306465148926 0.04175885021686554 1.0779995918273926
-0.7298679351806641 -0.38946253061294556 1.1153547763824463
2.733004093170166 0.46022114157676697 -0.9341705441474915
1.7280093431472778 -0.05335341393947601 0.9216271638870239
0.8113458156585693 0.21995769441127777 -1.2090717554092407
-2.486210346221924 0.6211161017417908 -0.9918846487998962
0.969847559928894 -0.40032631158828735 0.7207489609718323
-0.3428618907928467 1.0953279733657837 0.27374500036239624
-1.3322513103485107 -0.19226716458797455 1.2332720756530762
2.2199161052703857 -0.2695024609565735 0.5785405039787292
-0.5930727124214172 1.096213698387146 0.18517597019672394
-2.5631353855133057 0.6528379917144775 0.3723507821559906
2.6290276050567627 0.5135664343833923 -0.4912753999233246
0.13039162755012512 -0.40564295649528503 -0.31417152285575867
-0.5618910789489746 1.072147011756897 1.0186607837677002
1.7191935777664185 -0.19604651629924774 -0.22808079421520233
2.6267502307891846 -0.21396899223327637 -0.8393696546554565
-0.43575167655944824 -0.40219902992248535 -0.942958414554596
-0.1753336489200592 0.40209946036338806 -1.1757705211639404
1.5647526979446411 0.30524179339408875 0.800166130065918
-2.2414214611053467 0.6874693632125854 0.2765832841396332
1.7881097793579102 -0.17856915295124054 1.1376556158065796
0.2883809804916382 1.0064036846160889 0.7603132128715515
1.4917186498641968 0.17129485309123993 1.012809157371521
0.5564683079719543 -0.06618431210517883 -1.2039741277694702
-1.7161896228790283 -0.10847312211990356 0.539186954498291
0.29172950983047485 -0.17793455719947815 1.174963355064392
-1.5771905183792114 -0.2376764565706253 -0.995732307434082
-0.7104242444038391 -0.3998865783214569 -0.4476100206375122
1.6738530397415161 -0.07980835437774658 1.1860637664794922
1.5620332956314087 0.7198762893676758 -0.6060670614242554
-2.190563678741455 -0.2742376923561096 0.8113129138946533
-0.2290952056646347 -0.3649226427078247 -0.29775625467300415
1.5249091386795044 0.3787156939506531 -0.2233320027589798
2.939749002456665 0.29072660207748413 0.9939126968383789
0.009512387216091156 -0.3770458698272705 0.3646656274795532
-0.9633147120475769 0.5179339051246643 -1.175355076789856
1.5067157745361328 -0.026698485016822815 -0.834679365158081
0.8723114728927612 0.5540276765823364 1.163209080696106
0.47913190722465515 0.5969361066818237 1.144301176071167
-1.871912956237793 -0.114468052983284 0.8656352162361145
-2.7340149879455566 0.5652644634246826 0.991418182849884
2.5159265995025635 0.04977235198020935 0.614963173866272
1.2706722021102905 0.6984320282936096 0.5224377512931824
1.4207234382629395 -0.19730231165885925 -0.688692569732666
1.7907298803329468 -0.417780339717865 1.1245794296264648
-0.500525176525116 1.0711398124694824 0.7794767022132874
2.336930274963379 -0.11037369072437286 0.7670968174934387
2.0125417709350586 -0.19708579778671265 1.1545867919921875
-0.9703676700592041 -0.37839704751968384 -0.35241612792015076
-0.06868119537830353 0.19888664782047272 1.1554795503616333
-2.7089858055114746 0.00467546284198761 -0.7708926796913147
-1.5798169374465942 0.2298744022846222 0.42772987484931946
-1.240708589553833 -0.21503254771232605 -0.7018499374389648
-1.3459904193878174 0.2084934413433075 1.2203744649887085
2.377210855484009 0.259680837392807 0.8534603118896484
1.4009864330291748 0.6641400456428528 0.7502184510231018
0.5940097570419312 0.8839439153671265 0.5183192491531372
-1.5590816736221313 -0.5752922296524048 1.243371605873108
1.9387094974517822 0.2474440336227417 -0.06794361770153046
2.0875496864318848 0.6418842077255249 -0.9928105473518372
0.03907126560807228 0.07283041626214981 -1.215530276298523
0.11306601762771606 1.1085125207901 1.0434907674789429
-1.9871093034744263 -0.36693185567855835 0.8772473931312561
-1.4230459928512573 0.20342165231704712 0.6806092262268066
1.0031579732894897 -0.4046536386013031 -0.23823651671409607
1.3816956281661987 0.2225978970527649 0.8695394396781921
-0.8573764562606812 1.0045661926269531 1.0946674346923828
-2.5025007724761963 -0.359200119972229 0.9391395449638367
-1.5295395851135254 -0.10422421991825104 0.8661468029022217
-0.25583407282829285 0.7098108530044556 -1.1317417621612549
-0.46212494373321533 0.6994280219078064 1.134122610092163
3.093994379043579 -0.20399552583694458 0.7939556241035461
0.7370454668998718 0.8747779130935669 -0.015313656069338322
0.9318808913230896 0.8188372254371643 -0.7828468680381775
1.3031517267227173 -0.09137237071990967 -1.1956844329833984
1.889809250831604 -0.5617830157279968 -1.0762701034545898
-0.6267609000205994 -0.16281068325042725 -1.210407018661499
-2.198990821838379 -0.3814130425453186 -0.17493674159049988
-1.519917607307434 0.03321881592273712 -1.2210125923156738
-1.8143991231918335 -0.016823962330818176 -0.9172728657722473
-1.8700021505355835 0.07957562804222107 0.7905163168907166
1.471147894859314 0.13188600540161133 -0.5192245841026306
-0.21426011621952057 1.088675618171692 -0.3228953182697296
-1.871652603149414 -0.5477709770202637 1.25666081905365
2.2124009132385254 -0.2960801124572754 -1.0988565683364868
1.0343130826950073 -0.3866279721260071 0.9639849066734314
-0.3577742278575897 -0.018713757395744324 -1.2137614488601685
-0.9607527852058411 0.10896012932062149 -1.2052885293960571
2.2289750576019287 0.644668698310852 0.14101634919643402
-2.31143856048584 0.09577833116054535 1.180532455444336
-0.7802489399909973 1.0608406066894531 0.9506572484970093
-1.9599781036376953 -0.17640307545661926 0.6945563554763794
1.822028398513794 0.2122308909893036 -0.32862940430641174
0.8802310228347778 -0.4029008150100708 -0.5484490394592285
-1.7989920377731323 -0.5397636294364929 0.869001567363739
2.057783365249634 -0.033922865986824036 -0.8112803101539612
-0.3000572621822357 -0.39763277769088745 0.5931841731071472
2.871751546859741 -0.3441981077194214 1.0597072839736938
-0.050286754965782166 0.9398311376571655 1.1126643419265747
-2.0279934406280518 -0.3889559805393219 0.06986738741397858
2.6014177799224854 0.08070012181997299 1.1445232629776
2.010061025619507 -0.0574636310338974 0.28856319189071655
-2.503654718399048 0.4549398422241211 -1.2562159299850464
-2.0007059574127197 -0.05448852479457855 0.740130603313446
2.7664480209350586 -0.41035014390945435 0.32573065161705017
-1.4669690132141113 0.7934749126434326 -1.1406629085540771
1.8046008348464966 0.44939377903938293 -1.2094346284866333
-0.9916730523109436 1.0816038846969604 -0.5866596698760986
-1.137884497642517 -0.1250276416540146 -0.9301304817199707
1.8777799606323242 0.505410373210907 -1.230674147605896
2.0157859325408936 -0.40581855177879333 -0.6900340914726257
1.7956409454345703 0.3694971799850464 -0.038663752377033234
1.0470547676086426 -0.38864070177078247 -1.04204261302948
1.5421009063720703 0.13366082310676575 0.1379232406616211
1.4568681716918945 0.1421012282371521 0.5964475274085999
1.3474149703979492 -0.1462315022945404 0.3418841063976288
0.5879210829734802 -0.4085353910923004 0.9976087212562561
1.1550933122634888 -0.3986172676086426 1.104166865348816
-1.435904622077942 0.1792910248041153 0.5349602103233337
1.8243377208709717 0.6835634112358093 0.9421648383140564
2.4263429641723633 0.5409208536148071 -0.4168211817741394
1.9521677494049072 0.04531041532754898 -0.754652202129364
-2.720571517944336 0.2014436274766922 -0.004589035175740719
2.1290321350097656 -0.38634324073791504 -1.2019274234771729
-2.494239091873169 -0.36396533250808716 0.14445184171199799
-0.5516367554664612 1.099218726158142 0.05738335847854614
-0.6042936444282532 0.21529147028923035 1.167879581451416
-0.48528099060058594 0.01707974076271057 1.1673617362976074
1.6157976388931274 0.03103730082511902 -1.1875627040863037
-2.6909594535827637 -0.18213075399398804 -0.8511132597923279
1.488555908203125 -0.07815699279308319 0.47357046604156494
2.105644941329956 -0.19624067842960358 0.08209121972322464
-1.8429691791534424 -0.37724149227142334 -0.09669361263513565
0.8957918882369995 -0.368940532207489 1.1638991832733154
-0.41976192593574524 0.9137677550315857 1.1104878187179565
1.8010666370391846 0.29451966285705566 0.2946220934391022
1.8608335256576538 0.19538414478302002 -0.17206020653247833
1.55221426486969 0.3533993661403656 0.2538917362689972
-2.727928876876831 0.47984254360198975 -0.6113327741622925
1.8856602907180786 0.16381214559078217 -0.3559364676475525
0.7705666422843933 -0.3944186866283417 -1.054840326309204
0.7014064788818359 0.86966872215271 0.6841712594032288
2.1209616661071777 0.2871384024620056 0.019233573228120804
-1.7320839166641235 0.30036741495132446 1.2666491270065308
-0.4067917466163635 -0.3535624146461487 0.2738063633441925
-2.717782735824585 0.11166729778051376 -1.015798568725586
1.6248490810394287 -0.19169674813747406 0.32853755354881287
1.9078247547149658 0.45627346634864807 1.2021526098251343
0.750859797000885 0.9041181206703186 -1.0948578119277954
-1.7139753103256226 0.05955676734447479 0.05515044555068016
-1.2869279384613037 -0.12787050008773804 -0.5141736268997192
-0.7267155051231384 -0.08890599012374878 -1.211668848991394
0.4979555308818817 0.9624062776565552 -0.7080296277999878
1.4075883626937866 0.1380842626094818 -0.8179188966751099
1.4959228038787842 0.3265678286552429 0.14542227983474731
0.874049186706543 0.20188364386558533 -1.2300617694854736
1.702911138534546 -0.09927539527416229 0.971961498260498
-1.3070099353790283 0.29968082904815674 -1.2613037824630737
-1.0058039426803589 0.033025048673152924 0.7033370733261108
-1.4840466976165771 0.08351115882396698 0.419480562210083
2.390355348587036 0.17056408524513245 0.31723761558532715
-1.5292918682098389 -0.044878050684928894 0.987583339214325
1.4210870265960693 0.4010281264781952 0.3585323691368103
0.3558620512485504 0.9766782522201538 0.7139562964439392
-1.5860657691955566 -0.4727068841457367 1.2107868194580078
2.1672616004943848 0.14237412810325623 -0.5487328767776489
-1.8866220712661743 0.8930782079696655 0.216039776802063
2.2013471126556396 0.5613882541656494 -1.2188055515289307
1.861876368522644 -0.034826308488845825 -0.27670592069625854
-2.0237369537353516 -0.38429969549179077 -0.01603821851313114
-0.9069148898124695 -0.395083487033844 0.8369454145431519
2.107483148574829 0.3314916491508484 -0.40396150946617126
1.8065621852874756 0.2235381156206131 0.9330701231956482
1.299144983291626 -0.38560789823532104 0.22054141759872437
1.8877840042114258 0.3216952383518219 0.210699662566185
2.5337467193603516 0.046429358422756195 -0.5613725781440735
-1.866523027420044 -0.17087498307228088 0.5149505734443665
-1.49729323387146 -0.09802021086215973 0.3850000500679016
2.1055850982666016 0.22801083326339722 -0.019535070285201073
-0.9892264008522034 0.454212486743927 1.154905080795288
-0.4072989225387573 0.4848156273365021 -1.1766332387924194
-0.5164886116981506 -0.3950130343437195 -0.10797953605651855
-0.8292797803878784 1.0610674619674683 -0.9003815054893494
-1.21578049659729 0.1017594039440155 0.7822930216789246
1.5698373317718506 0.05158631503582001 0.06262905895709991
1.678985834121704 -0.051525458693504333 0.1969698667526245
2.5529825687408447 0.48848757147789 -1.2012898921966553
-1.8666541576385498 0.09066877514123917 -0.8208245038986206
1.7348675727844238 0.0906984955072403 0.37531065940856934
2.2781431674957275 -0.2333935797214508 -0.4528302550315857
0.5579991340637207 0.9163296222686768 0.37041786313056946
1.6338735818862915 0.44111233949661255 -0.14843204617500305
2.444937229156494 0.16233623027801514 0.70560622215271
1.596572756767273 -0.04078410565853119 -0.6001132726669312
0.4379200041294098 0.9602308869361877 -0.18309424817562103
1.8263859748840332 0.03816801309585571 0.6468529105186462
1.8760290145874023 0.2754497826099396 -0.2707487940788269
-0.436101496219635 -0.015530332922935486 1.1692497730255127
1.198315143585205 0.07352104038000107 1.1940560340881348
1.1715573072433472 -0.4093126356601715 -0.20834307372570038
0.7652300596237183 0.5878644585609436 1.1578972339630127
2.520603895187378 -0.24394522607326508 0.1754181683063507
-0.9502500891685486 0.15438972413539886 1.1815507411956787
-0.4779691696166992 1.0956906080245972 -0.02292783558368683
-2.6100664138793945 -0.36524349451065063 0.1050201803445816
1.8720225095748901 -0.5775696039199829 0.8526200652122498
-1.0301847457885742 -0.37873202562332153 0.9343615770339966
0.03519613295793533 0.2524305582046509 -1.2162238359451294
2.573084592819214 -0.037125200033187866 -0.6702298521995544
1.6210163831710815 0.11287486553192139 0.14431849122047424
-0.9069923758506775 -0.4126160740852356 -1.0778038501739502
1.786760926246643 0.25333330035209656 0.46639180183410645
2.8730831146240234 -0.35694870352745056 0.5892659425735474
1.372755765914917 -0.39518851041793823 -0.36463189125061035
-1.0755552053451538 -0.10247862339019775 -0.6717886328697205
2.4407095909118652 -0.3325234651565552 -0.8458801507949829
-2.3119068145751953 0.4573795795440674 -1.2527514696121216
0.8601327538490295 0.2169337272644043 -1.2223505973815918
0.3554776906967163 -0.39083465933799744 0.022500010207295418
-1.958450436592102 0.8672032356262207 0.09076528251171112
-0.6059345602989197 1.070125937461853 0.132354274392128
-1.0588256120681763 -0.006690584123134613 -0.39414575695991516
2.0381996631622314 -0.6052678227424622 0.909335196018219
-0.9434951543807983 -0.11600396037101746 0.7728713750839233
-0.24799084663391113 -0.4002343416213989 -0.5068885087966919
0.9609414935112 0.8220585584640503 -0.8984995484352112
-1.4508540630340576 -0.367020845413208 -0.5328547358512878
-1.9165802001953125 0.8696892261505127 -0.9702967405319214
1.5819859504699707 0.7094884514808655 0.47707870602607727
1.8070930242538452 -0.15570136904716492 0.6067383289337158
2.4048540592193604 -0.23331813514232635 0.8878486752510071
-1.2775455713272095 -0.4035058617591858 -0.37504976987838745
-1.1252390146255493 -0.016811922192573547 -0.13968342542648315
2.529505729675293 0.006255596876144409 0.629841685295105
-1.6438376903533936 -0.5904334187507629 -1.2933646440505981
-1.7709095478057861 -0.27258360385894775 1.233394980430603
2.3736073970794678 0.3179163932800293 0.7455760836601257
-2.710223436355591 0.11631260812282562 0.09605884552001953
-0.6773808598518372 0.6934882998466492 1.131042242050171
2.5290403366088867 -0.25223416090011597 -0.7420755624771118
2.065995454788208 0.07076733559370041 -0.957600474357605
-1.1536592245101929 1.0293619632720947 0.9483252167701721
-0.4472822844982147 0.7486526966094971 1.1301357746124268
1.4245744943618774 0.6706975102424622 -0.009549736976623535
1.5243427753448486 0.38751667737960815 -0.6241490840911865
-0.43099138140678406 -0.39385271072387695 0.47494301199913025
-1.1603604555130005 -0.38624632358551025 -0.29061588644981384
2.037801504135132 -0.44716551899909973 -1.2295218706130981
-0.729442834854126 1.0182446241378784 1.0825691223144531
0.48365429043769836 0.9381804466247559 -0.4058288037776947
2.0212650299072266 -0.02762521803379059 -0.05678118020296097
0.2493344098329544 -0.37214699387550354 0.6335423588752747
1.9767063856124878 -0.3518281579017639 0.4700591564178467
-2.709078073501587 0.0935555174946785 0.33917614817619324
-1.8525582551956177 -0.3871934711933136 -0.38930606842041016
-1.978700041770935 -0.3822268843650818 -0.8607808947563171
-0.6056932806968689 1.0632497072219849 0.8102707862854004
-0.9516832828521729 -0.09706392884254456 0.7233213186264038
0.14398066699504852 -0.3907809555530548 0.48936226963996887
0.3843495845794678 -0.40076079964637756 0.3279956579208374
-2.2594428062438965 0.010147109627723694 -1.2318559885025024
-0.2695271074771881 -0.03863707184791565 1.1725034713745117
1.8952897787094116 -0.06833644211292267 -1.0761966705322266
2.5345940589904785 0.08892311900854111 0.6736238598823547
-1.6926870346069336 0.9447720050811768 -0.44352731108665466
-1.9978622198104858 0.39589422941207886 -1.260729432106018
1.545721411705017 -0.40312498807907104 -0.7316546440124512
0.658583402633667 0.8840418457984924 0.2279844731092453
1.3769334554672241 -0.08951188623905182 0.7103660702705383
-2.336984634399414 -0.22941042482852936 -1.1761921644210815
-2.071214199066162 -0.44924303889274597 -0.8456833958625793
