ply
format ascii 1.0
element vertex 813
property float x
property float y
property float z
end_header
-0.48819684982299805 0.3138207197189331 -0.3599030375480652
1.1412136554718018 -0.46632689237594604 0.08379381895065308
0.1732129454612732 0.9716231822967529 0.6189179420471191
-0.35475724935531616 -0.481183260679245 1.3705095052719116
0.4007762670516968 1.2640883922576904 0.0658893883228302
-0.9568854570388794 0.06463031470775604 0.8461507558822632
-0.2847454845905304 0.49822086095809937 0.5492045879364014
-1.3496575355529785 0.1029956191778183 0.1478242129087448
0.7813733816146851 0.6732513308525085 -0.7468106746673584
0.922531247138977 0.1836223602294922 -0.15988647937774658
1.5843696594238281 0.10432419180870056 -0.8960220217704773
1.890878677368164 0.5805824995040894 -0.702145516872406
1.5950748920440674 -0.5263615250587463 -0.022028062492609024
-1.7058203220367432 0.589738130569458 -0.9267061352729797
0.9408022165298462 0.2650211453437805 -0.8478431701660156
-0.5428816080093384 0.4518778324127197 1.8279904127120972
-2.1786839962005615 1.1436753273010254 -0.15333415567874908
1.5472385883331299 0.11404204368591309 0.681347131729126
-0.17044635117053986 -0.49279433488845825 -0.08774882555007935
2.0387301445007324 0.5660387873649597 1.676939606666565
-2.152615547180176 0.4044570028781891 -0.6642060279846191
-2.2023377418518066 1.0129495859146118 -0.16411326825618744
-0.027016904205083847 0.7213767170906067 0.5338729023933411
-1.4274574518203735 -0.17200784385204315 -0.6574662923812866
1.678114652633667 -0.06555747985839844 1.6347744464874268
-2.2077796459198 0.7036186456680298 0.6274688839912415
1.9877533912658691 0.3059260845184326 1.172612190246582
1.8311617374420166 -0.03354105353355408 -0.32851025462150574
0.7704733610153198 0.11325402557849884 0.26141732931137085
2.2987091541290283 0.49977701902389526 -0.04625528305768967
3.045837163925171 0.6085237264633179 -0.018470628187060356
-0.7034314870834351 0.6000940799713135 1.163623571395874
-1.7700986862182617 -0.5663737058639526 1.0941927433013916
2.40742826461792 -0.3599792718887329 -1.0653653144836426
-1.6143423318862915 0.955604076385498 0.9733829498291016
-0.7322834134101868 -0.5700222253799438 -0.9425925612449646
2.255005359649658 -0.19910003244876862 -1.2230441570281982
2.016580104827881 -0.058042705059051514 -0.2577058672904968
-0.5955184698104858 -0.3363593816757202 -0.48305097222328186
2.065415620803833 0.613858163356781 -0.2406855970621109
-0.5236559510231018 -0.6276761889457703 -1.2237153053283691
-1.4020885229110718 0.08772021532058716 -0.9230122566223145
-0.6608763337135315 0.19149257242679596 0.027153022587299347
1.40018892288208 0.2079891711473465 -0.4125330150127411
2.4051342010498047 0.4155845642089844 -0.4163286089897156
-0.2562403678894043 0.16758190095424652 -0.6595586538314819
-1.052759051322937 -0.5077756643295288 0.14825601875782013
-0.627362072467804 -0.46225666999816895 0.5876069664955139
-2.020158529281616 0.609381914138794 -1.1485974788665771
-1.288618564605713 0.038585931062698364 -0.6664539575576782
-1.0023884773254395 -0.49715444445610046 -1.333345651626587
2.7330217361450195 0.15260964632034302 -0.4395046532154083
-1.862569808959961 -0.18306316435337067 0.6992537975311279
-0.21909604966640472 0.03100423514842987 -0.621337890625
-0.8607602715492249 1.1389271020889282 0.09562346339225769
-0.4492684006690979 0.9151516556739807 1.450855016708374
1.8031549453735352 0.21609143912792206 -1.3885823488235474
0.32827118039131165 0.16138069331645966 1.328407645225525
0.056195154786109924 0.23358233273029327 0.40307196974754333
-1.4049756526947021 0.10344420373439789 -0.8712683916091919
0.7646258473396301 0.8733147382736206 0.5919289588928223
-1.3901506662368774 -0.6478912234306335 -1.4888625144958496
0.9569079279899597 -0.026218697428703308 0.9734829068183899
-2.9890692234039307 0.5986135601997375 0.45286497473716736
0.252041757106781 1.1885532140731812 -0.0021246839314699173
-1.792689561843872 0.6389278173446655 -0.7217913269996643
-1.4912848472595215 0.03285700082778931 -0.5306633114814758
-0.37204259634017944 -0.37530946731567383 0.18256160616874695
-1.2033997774124146 0.2721579670906067 -1.1275676488876343
0.44356852769851685 -0.1585438996553421 -0.26017138361930847
2.8252265453338623 0.5844911336898804 -0.054165810346603394
3.0894856452941895 -0.23250526189804077 0.6167494654655457
-1.1187149286270142 -0.10644391179084778 1.0924807786941528
0.7706941962242126 0.6897290349006653 -0.9350335597991943
-1.2001579999923706 -0.13596975803375244 -0.28386014699935913
2.5402138233184814 0.788956880569458 -0.03540709614753723
0.5187618732452393 -0.16440284252166748 0.5537261366844177
-0.2456587553024292 0.481812059879303 -0.41218963265419006
2.3447535037994385 -0.6906895041465759 -1.6438930034637451
1.4210474491119385 -0.352866530418396 -0.3139740824699402
-1.3069450855255127 0.6845975518226624 0.6058893203735352
1.3531157970428467 -0.2381872832775116 -0.49994009733200073
1.8212698698043823 -0.1362369805574417 2.2032546997070312
2.3079946041107178 0.4355694055557251 -0.2818470299243927
-1.303281545639038 1.1523293256759644 -0.6430349349975586
0.35165631771087646 0.38003912568092346 0.27434873580932617
0.9199517965316772 1.0616182088851929 1.5183717012405396
1.078169345855713 -0.45554018020629883 -1.0886621475219727
0.8047237396240234 0.3832230865955353 1.6771578788757324
0.4682440757751465 -0.27177703380584717 -0.8319388031959534
-2.645944595336914 0.534645676612854 0.35377413034439087
-1.7574915885925293 -0.35695087909698486 0.23465386033058167
3.3629648685455322 -0.2433169186115265 1.2484207153320312
-1.6061707735061646 -0.051901161670684814 -1.4847337007522583
-2.388603448867798 0.45504868030548096 0.6678736209869385
1.1375576257705688 -0.53659987449646 1.1403566598892212
-0.07629598677158356 -0.4734547734260559 -0.907976508140564
2.313255786895752 0.7892892956733704 -0.2021452933549881
-1.1508235931396484 0.23063576221466064 1.115822434425354
1.0905743837356567 -0.08068056404590607 -1.5280873775482178
-1.4395840167999268 -0.03356347978115082 0.7773335576057434
-1.9875630140304565 0.5800893306732178 -0.26990845799446106
0.1814860850572586 1.133170485496521 0.2582665681838989
-1.9028013944625854 0.7433450818061829 0.10025015473365784
-0.3512627184391022 0.8455406427383423 1.0947465896606445
-2.2560741901397705 0.001359313726425171 -0.42301538586616516
-0.2951377034187317 -0.43610697984695435 0.8376221656799316
-1.2955955266952515 0.865077018737793 -0.16251333057880402
-1.2905412912368774 0.9708684086799622 0.1281113624572754
-1.185081124305725 0.09142312407493591 -0.15102329850196838
1.2775856256484985 0.16161160171031952 -0.9759617447853088
-0.3489414155483246 0.2008010894060135 0.41287946701049805
-1.467672348022461 0.4907705783843994 0.5776554942131042
1.7033617496490479 0.07825718820095062 1.0104542970657349
2.619565963745117 0.1505013108253479 0.9042364358901978
1.3228942155838013 -0.48363006114959717 -1.0056560039520264
-2.0084173679351807 0.30882129073143005 0.8888831734657288
2.7207484245300293 -0.4732065498828888 0.23229464888572693
-0.57158362865448 -0.22481049597263336 0.5293248891830444
1.0347318649291992 0.6497181057929993 0.67069011926651
-0.6656238436698914 0.9486310482025146 1.0511523485183716
-0.5163547396659851 -0.4718339443206787 0.15893647074699402
-1.991461992263794 0.021704450249671936 -0.6638834476470947
-1.0683391094207764 -0.17282544076442719 0.2681739926338196
1.5245753526687622 -0.2187691330909729 -0.05574466288089752
-1.3686965703964233 -0.3292921185493469 0.21327947080135345
2.1003923416137695 -0.13164450228214264 1.759208083152771
3.0969860553741455 -0.47197622060775757 0.09756848961114883
1.8157463073730469 0.09976974129676819 1.35813570022583
0.8521414995193481 -0.5348412990570068 0.8008830547332764
-0.6520023345947266 0.5307042598724365 -0.9927009344100952
-0.020742077380418777 0.039589837193489075 -0.0875592827796936
-1.137229084968567 -0.5030519962310791 0.8702873587608337
2.6249537467956543 0.682968258857727 0.3835721015930176
-0.032430656254291534 0.9452547430992126 -0.25737088918685913
0.1037125214934349 -0.26310572028160095 0.8964679837226868
-0.6905034184455872 -0.4831027686595917 0.6116065979003906
-0.021074838936328888 -0.45500481128692627 0.4624382555484772
-1.8656224012374878 -0.11486676335334778 0.8858487010002136
1.3796591758728027 0.05024382472038269 -0.4995937943458557
-1.0894775390625 -0.3787233233451843 -0.6058729887008667
1.0836907625198364 -0.6935006380081177 -1.1902048587799072
3.367514133453369 0.41134995222091675 0.8492525219917297
0.6491382122039795 0.4825080633163452 -0.7668858766555786
2.263624906539917 0.6940147280693054 -0.49005571007728577
-1.7855992317199707 0.3301730751991272 0.2795797288417816
-2.3595309257507324 0.9282344579696655 -0.209969624876976
0.3584910035133362 -0.4467393457889557 -0.9689729809761047
3.6692769527435303 -0.17112837731838226 -1.6844767332077026
2.075826644897461 -0.0387892872095108 -0.43874654173851013
2.301853895187378 0.24986255168914795 1.1919485330581665
-1.4946538209915161 -0.3513154983520508 0.6434139013290405
2.92181658744812 -0.41133010387420654 0.344237357378006
-1.1955262422561646 -0.5091227293014526 1.3154593706130981
0.6135324835777283 -0.44836926460266113 -1.3008095026016235
1.014199137687683 0.7291507720947266 -0.34481382369995117
0.2082138955593109 -0.5255246162414551 -0.29505646228790283
3.5339977741241455 -0.37462514638900757 -0.701284646987915
1.5304893255233765 0.3591386079788208 0.6987488269805908
0.1345999538898468 1.2050796747207642 -0.40117913484573364
0.7756549119949341 0.26521873474121094 0.9410642385482788
0.24021674692630768 0.49158576130867004 0.9992406368255615
2.9900240898132324 0.2704954147338867 0.5629143714904785
-0.3063606917858124 1.2731571197509766 0.5892173647880554
1.3064829111099243 0.09806574881076813 -1.270521640777588
-0.7748006582260132 0.8056680560112 0.5057315230369568
-1.9610865116119385 0.030806899070739746 -0.3238063156604767
-2.182304859161377 0.28316983580589294 1.0050867795944214
2.4366586208343506 -0.27988380193710327 -1.223718285560608
2.2567062377929688 0.39336007833480835 -0.343345046043396
-1.225753664970398 -0.2527134418487549 1.4545804262161255
-1.2989174127578735 -0.19405396282672882 0.972474992275238
-0.4601488411426544 0.3476155400276184 -0.012082504108548164
-0.8499027490615845 0.3729867935180664 0.6411274075508118
-1.6792148351669312 -0.3572472333908081 -0.2544979453086853
-0.8037393689155579 0.3856392204761505 -0.5406508445739746
3.1475493907928467 -0.4802069365978241 -0.5545879006385803
-1.0486750602722168 0.793529748916626 -0.2397332340478897
2.747528553009033 -0.03933924436569214 -0.08305104076862335
0.3297576606273651 1.0806502103805542 0.7361348271369934
2.522632598876953 0.7276686429977417 -0.3421955704689026
0.3537794053554535 0.9434194564819336 1.4601483345031738
0.9332858324050903 0.10860826075077057 1.0563225746154785
2.7131638526916504 0.6460224986076355 0.3769088387489319
-0.4663237929344177 0.025625064969062805 1.7339365482330322
2.5525355339050293 0.17985260486602783 1.254845380783081
0.8130221366882324 -0.6199017763137817 0.5649747252464294
2.569368600845337 -0.15281592309474945 -0.8285533785820007
1.032651424407959 -0.2828625738620758 1.6817415952682495
-0.8910858631134033 0.3566429018974304 -0.5230492949485779
1.1961570978164673 -0.15586277842521667 -1.1805793046951294
-0.8749011754989624 0.5530551075935364 0.6067911386489868
-0.7161826491355896 0.09100161492824554 1.026530146598816
-0.9238852858543396 -0.14441043138504028 -0.07983307540416718
-1.579074501991272 -0.05224226415157318 0.5685675740242004
1.4007128477096558 0.26002228260040283 0.06867152452468872
2.0721843242645264 0.5337613224983215 -0.6131681799888611
0.9988861083984375 0.11512038111686707 0.21140122413635254
2.315901279449463 -0.5987513065338135 -1.563854455947876
-1.8258358240127563 -0.17890429496765137 -1.042141079902649
1.984999656677246 -0.48336154222488403 -1.2402905225753784
1.824135661125183 -0.1381857991218567 -0.716610312461853
-1.2498393058776855 0.035116806626319885 -0.608828067779541
2.0137264728546143 0.16700313985347748 -0.6386240124702454
-0.13707223534584045 -0.006393074989318848 -0.007314465939998627
-0.7756952047348022 0.09533588588237762 1.5176829099655151
-1.0692309141159058 0.2760252356529236 -0.6506567001342773
-1.3385894298553467 0.32041871547698975 0.12244326621294022
-0.7210766673088074 0.13892634212970734 0.34684139490127563
-0.6024408340454102 -0.2336679846048355 -0.30798405408859253
-1.566859483718872 0.6747884750366211 0.5514109134674072
3.142378807067871 0.6052418947219849 -0.7022638320922852
-1.1541143655776978 0.8797793984413147 0.028666162863373756
0.3916245102882385 0.09028996527194977 0.9591540694236755
1.2926098108291626 0.25904381275177 -1.077509880065918
1.8421504497528076 0.023604735732078552 -0.36226701736450195
-0.11152426898479462 -0.20817697048187256 0.15192075073719025
0.5007311701774597 -0.12258949875831604 -0.6880124807357788
0.954619824886322 0.43747884035110474 1.6397086381912231
-0.6609326004981995 0.725598931312561 1.5841916799545288
1.0103875398635864 0.4081450402736664 0.08412054181098938
-2.354731559753418 1.0226101875305176 0.019784126430749893
2.550488233566284 0.5795791149139404 -0.7259353399276733
-0.6317212581634521 0.45279401540756226 0.6363957524299622
-0.9871686100959778 -0.3228049874305725 -1.1058306694030762
2.3499557971954346 0.765302300453186 0.03552933409810066
-0.5897624492645264 -0.2280278503894806 1.0507835149765015
-1.4632773399353027 -0.3456241488456726 -0.43173667788505554
0.04962404444813728 0.1117178201675415 -0.6088139414787292
-1.754996418952942 0.40282076597213745 -0.9749867916107178
-0.024764418601989746 -0.0632382184267044 1.2728863954544067
0.18886809051036835 -0.14642000198364258 0.9104206562042236
3.2439017295837402 0.3771892786026001 1.2063416242599487
-1.7744967937469482 -0.3502388298511505 0.6173409819602966
1.8183904886245728 0.2952423691749573 0.19512906670570374
1.3903310298919678 0.23058277368545532 1.8213846683502197
-0.7779334783554077 0.20126685500144958 1.7733798027038574
0.47008633613586426 0.6174737215042114 0.4957691729068756
-2.483628273010254 0.46971821784973145 -0.9319584369659424
-0.3079368472099304 0.4618162512779236 -0.39315834641456604
3.3539164066314697 0.040310025215148926 -0.1981319785118103
1.7203211784362793 0.3433559536933899 0.23854652047157288
2.1659903526306152 -0.4611265957355499 0.24438852071762085
0.8331672549247742 0.6164090633392334 -0.7730693221092224
-0.753977358341217 -0.2708399295806885 -1.0458041429519653
-0.08475089818239212 0.02466316521167755 1.5596774816513062
0.10728384554386139 0.3304890990257263 -0.8624687790870667
0.7721654772758484 1.0878857374191284 0.31186342239379883
-0.8542762994766235 -0.2950504720211029 -0.29257550835609436
-2.111865758895874 0.024315476417541504 1.2955493927001953
2.393162965774536 -0.2680647373199463 -1.4812915325164795
2.6761481761932373 0.6468802690505981 -0.49503159523010254
-0.6956865787506104 0.1782592386007309 -1.258309006690979
-1.2106273174285889 0.13054899871349335 0.7604314684867859
-0.87961345911026 0.49882370233535767 0.2640783190727234
-0.06521144509315491 0.10538983345031738 1.0263798236846924
1.5785236358642578 0.31958773732185364 -0.10133186727762222
0.6868395209312439 -0.14146743714809418 0.4510910212993622
-0.4123767018318176 -0.4865547716617584 0.7580399513244629
-2.3259975910186768 0.6385023593902588 -1.7590076923370361
-0.7149958610534668 -0.22162684798240662 1.5638662576675415
-0.01297316700220108 -0.032325804233551025 -1.3733211755752563
2.8352768421173096 0.21271497011184692 -0.3332153856754303
-2.2654218673706055 0.9713426232337952 0.2315964698791504
-2.644289016723633 -0.08518064022064209 -0.7823261618614197
-0.14507292211055756 0.20954176783561707 -0.4005695879459381
1.1647568941116333 0.3262809216976166 0.8888635039329529
-0.9573802947998047 -0.0199727863073349 1.626546025276184
-0.44180622696876526 0.3548539876937866 -0.08922591805458069
0.7590868473052979 -0.4843633770942688 0.5256965756416321
-1.497694492340088 -0.14682629704475403 1.398842215538025
-1.1056933403015137 0.46424615383148193 0.0491601899266243
3.4961302280426025 -0.009323641657829285 -0.12926292419433594
0.09242813289165497 -0.3263687193393707 -1.1270016431808472
-0.475686639547348 -0.5170415639877319 0.6637434363365173
-1.1114388704299927 -0.518858790397644 -0.3671022355556488
0.17679449915885925 0.6906312704086304 -1.413204550743103
2.3730571269989014 0.1500210464000702 -0.25447434186935425
-0.820299506187439 0.048900797963142395 -1.0567972660064697
1.0863412618637085 1.0483975410461426 0.10274498164653778
0.7532211542129517 -0.17685210704803467 0.9311007261276245
0.9666187763214111 -0.5081095695495605 -1.6524792909622192
-2.308314323425293 0.5042411684989929 -0.3781040906906128
-0.4768402576446533 1.046268105506897 -0.017554577440023422
-0.7612994909286499 -0.4933728873729706 -1.0905870199203491
1.9776445627212524 -0.41277486085891724 0.2654387652873993
-0.3409231901168823 1.4579596519470215 0.15495984256267548
1.6872509717941284 -0.2434731125831604 0.24535371363162994
-2.1451473236083984 0.07024213671684265 0.8697535991668701
2.41884183883667 0.18524965643882751 1.435522198677063
-0.21596771478652954 -0.11758920550346375 0.7996135950088501
2.3668649196624756 -0.4302191734313965 -0.8033691048622131
-0.10153887420892715 0.3552195429801941 0.5371489524841309
-0.9965342283248901 -0.34543943405151367 1.0363670587539673
1.167922019958496 -0.11149339377880096 1.308404803276062
1.465070128440857 0.46657049655914307 0.14853987097740173
1.2271560430526733 -0.5157235860824585 -0.7895783185958862
0.8174383044242859 0.8765966892242432 0.0656379759311676
2.5369951725006104 -0.25957149267196655 -0.06383208185434341
1.0181574821472168 -0.22254802286624908 0.8302400708198547
-1.2425531148910522 1.247232437133789 -0.07221350073814392
1.962862253189087 0.09217073023319244 -0.704239010810852
0.6087653040885925 0.36786800622940063 -1.2076877355575562
-0.9678007960319519 -0.4185863137245178 -0.48046308755874634
-0.6272905468940735 0.5417585372924805 1.2763525247573853
2.7298054695129395 0.24494537711143494 -0.48496222496032715
-1.7915802001953125 -0.3968028426170349 0.8182382583618164
-1.311785340309143 0.48301827907562256 0.24635344743728638
1.4786168336868286 1.0386481285095215 0.3275817036628723
-0.4893568158149719 -0.5524918437004089 0.46836644411087036
-1.992583155632019 0.8864163756370544 0.03437422588467598
-1.0184309482574463 -0.4325622618198395 -0.6221557855606079
-2.6530346870422363 0.10186056792736053 0.707838237285614
0.732947051525116 -0.5369455218315125 0.3587256669998169
-0.8021838068962097 1.0357184410095215 1.2270965576171875
-1.191333293914795 0.7328992486000061 -0.07893187552690506
-0.9342507123947144 0.6844826340675354 0.30804336071014404
-0.629744827747345 -0.11043339967727661 -0.8337106108665466
-0.001989513635635376 0.2978002429008484 1.45608651638031
-1.771660566329956 -0.3026384711265564 -1.2950847148895264
-0.5616133213043213 1.120493769645691 -0.5981274843215942
-0.009334765374660492 0.6399312615394592 0.3624940514564514
-1.394939661026001 0.3906014561653137 0.3506760001182556
1.9887523651123047 0.4095304608345032 -0.14947707951068878
2.4133901596069336 0.06095457077026367 -0.0479004792869091
-1.3593857288360596 -0.3005707263946533 0.5798200964927673
2.028632402420044 0.19313944876194 -0.7072939872741699
-0.3813878297805786 1.1298398971557617 -0.9917245507240295
-2.1451914310455322 0.7316316366195679 0.5991637706756592
-0.4991089999675751 0.5383856892585754 -0.35592135787010193
1.707935094833374 0.30289945006370544 -0.4444018304347992
0.7761479020118713 0.7024353742599487 1.7116183042526245
-1.3582290410995483 -0.5473237633705139 0.061954889446496964
0.50975501537323 0.9616802930831909 0.5325712561607361
-0.9582858085632324 0.21742090582847595 -0.5682764053344727
0.5410129427909851 0.9543956518173218 1.1321202516555786
1.6235953569412231 0.9231333136558533 0.233463317155838
-0.5926350951194763 0.8845519423484802 1.3634953498840332
-2.280238151550293 0.5940776467323303 1.399195671081543
1.4825364351272583 0.05111011862754822 0.20665936172008514
-2.15932035446167 0.3883556127548218 -0.590968132019043
2.34897780418396 -0.5002261400222778 -0.25689563155174255
0.675150454044342 0.175906702876091 0.6805112957954407
-2.558223009109497 0.7827520966529846 0.5573692321777344
0.4947846531867981 0.6259241700172424 1.6877222061157227
0.0422208271920681 0.9446431398391724 0.31190648674964905
-1.6697876453399658 -0.10038074851036072 -0.4845321774482727
-0.7629136443138123 0.8309844732284546 -0.33616605401039124
0.8190596699714661 0.7515019178390503 -1.1823935508728027
-2.0716805458068848 -0.06382204592227936 -0.7251798510551453
-0.5382407903671265 -0.5281540155410767 -1.2199578285217285
1.5907381772994995 -0.10821561515331268 -1.170612096786499
2.1391077041625977 -0.08223217725753784 -0.10059522837400436
2.10603666305542 -0.48510950803756714 1.2444616556167603
-1.0179635286331177 -0.2949679493904114 1.1943001747131348
1.1353272199630737 0.23476062715053558 -0.0610826201736927
3.5366272926330566 0.2517184913158417 -0.8841273188591003
1.5434603691101074 0.8653736114501953 1.241455078125
-1.607957363128662 0.8698253631591797 -1.0094490051269531
0.7685131430625916 0.22452731430530548 0.7927013039588928
-1.5639925003051758 -0.26412510871887207 0.47490859031677246
2.056654691696167 0.5797461867332458 0.7508664727210999
-0.2256610244512558 -0.15723806619644165 0.10422337055206299
-1.7944505214691162 0.5706603527069092 -0.5398040413856506
1.2702780961990356 0.2597992420196533 -0.6750281453132629
-0.9348765015602112 -0.41912126541137695 -1.3449547290802002
1.5243520736694336 0.7451748251914978 -0.5411298871040344
-0.8403751254081726 0.0825192779302597 -0.09166421741247177
1.4317097663879395 -0.2296578288078308 -1.2143100500106812
-2.5992090702056885 0.8477662205696106 -0.1397194266319275
-0.2471330165863037 0.12337431311607361 0.09727401286363602
3.2750699520111084 -0.3739672005176544 0.2952996492385864
-0.7420569658279419 0.7461060285568237 0.0036961291916668415
1.879658818244934 0.067413330078125 -0.4337838292121887
-1.9629493951797485 0.9478604197502136 1.3064452409744263
2.113081216812134 0.04995623230934143 0.21620169281959534
1.9671188592910767 -0.24173913896083832 -1.2484124898910522
2.9823899269104004 -0.3950856924057007 -0.2107667177915573
-1.1077477931976318 -0.037855878472328186 -0.04108746349811554
2.3776235580444336 0.889249861240387 -0.013155093416571617
1.3645715713500977 0.08315795660018921 -1.6868923902511597
1.497952938079834 -0.2900856137275696 0.7529799342155457
-0.7121986746788025 -0.48219138383865356 0.36446675658226013
0.23657388985157013 0.1543983519077301 1.42360258102417
-2.4401605129241943 1.053205966949463 -0.6267105340957642
-2.2942466735839844 -0.27908873558044434 0.9359667301177979
1.7298303842544556 0.7670575380325317 0.46711376309394836
0.1641446053981781 1.3085039854049683 -0.39024752378463745
-2.389591932296753 0.21905797719955444 -1.1764421463012695
0.13409143686294556 1.1354831457138062 -0.6512295603752136
-2.1951730251312256 0.20125485956668854 -0.6309377551078796
0.5031330585479736 -0.11170485615730286 -0.5669458508491516
-0.786371648311615 0.8395366668701172 0.9083759784698486
-1.5588446855545044 0.2801719903945923 -0.5457094311714172
2.1362335681915283 0.8875764012336731 0.800495445728302
-1.992027759552002 -0.01781630516052246 -0.9805360436439514
2.0656425952911377 -0.19565877318382263 -0.780684232711792
-0.4965124726295471 -0.3755906820297241 0.9473068714141846
-1.4796239137649536 -0.1552456021308899 -0.5021687150001526
2.2221736907958984 -0.7498878836631775 -0.10956089198589325
-0.6618233919143677 0.6078956127166748 -1.0250922441482544
1.4453243017196655 -0.5229570269584656 0.6592651009559631
-0.2812498211860657 -0.13458237051963806 1.4330559968948364
-1.6398859024047852 0.9542804956436157 0.014864507131278515
0.6333739757537842 0.3865601420402527 1.941697120666504
0.6808222532272339 0.8112568259239197 -0.4394342005252838
0.17407892644405365 0.8410326242446899 -0.46140578389167786
1.25485098361969 0.39702969789505005 1.304046630859375
1.1483014822006226 0.24686704576015472 -0.7623301148414612
-2.813204526901245 0.8738148212432861 0.26281657814979553
0.42353296279907227 -0.2687985897064209 -0.5551097393035889
-0.3797755241394043 -0.25168371200561523 1.6066666841506958
0.5088186860084534 -0.2203066647052765 -0.8613731265068054
-1.9498709440231323 0.921658992767334 0.8145233392715454
1.308500051498413 0.3636104464530945 1.726797103881836
-0.6991034746170044 0.26902642846107483 -0.16916757822036743
-1.7190951108932495 0.06526480615139008 -0.06708452105522156
1.5851945877075195 0.4762606620788574 0.6279700398445129
1.9363629817962646 -0.07972680032253265 1.5479856729507446
2.6162261962890625 0.5607017278671265 -0.9952536821365356
2.423794746398926 0.5337514281272888 0.8732550144195557
-1.2080543041229248 0.14674095809459686 -0.6082359552383423
1.813519835472107 0.607811450958252 -1.4233365058898926
0.6333020329475403 -0.04267169535160065 0.25218409299850464
-0.6013206243515015 0.00982530415058136 0.9635893702507019
0.026560358703136444 -0.033854395151138306 0.786665141582489
-1.096893310546875 0.05426308512687683 -0.9972101449966431
0.6092185974121094 -0.3897191882133484 -1.1417192220687866
2.325829267501831 0.15678530931472778 0.004479905590415001
-1.9245539903640747 0.4519028663635254 0.09180450439453125
1.2238543033599854 0.9694834351539612 0.18352815508842468
-1.575730323791504 0.13336063921451569 0.5150176882743835
1.0832219123840332 -0.3162466883659363 -0.026399174705147743
0.968917965888977 0.06050372123718262 1.7391148805618286
-0.20537537336349487 -0.5176316499710083 0.8885079026222229
-1.1373120546340942 -0.15378442406654358 0.5012654066085815
1.0266740322113037 0.6694507598876953 -0.6072224378585815
-1.6964643001556396 -0.44187313318252563 -0.8891577124595642
0.5597859025001526 -0.3464185297489166 -1.2600394487380981
-0.8010258078575134 -0.07157421112060547 -1.2407193183898926
-1.1210795640945435 -0.31866294145584106 -1.473416805267334
2.387866497039795 -0.09314124286174774 0.843937873840332
-1.9878662824630737 0.652211606502533 -0.47834062576293945
-0.09063341468572617 0.8580629229545593 -0.6117400527000427
-0.9674916863441467 0.4011728763580322 0.37437430024147034
-1.661890983581543 0.7703902721405029 -0.22901970148086548
-0.3449999690055847 1.0097084045410156 0.3004413843154907
-1.9079028367996216 -0.19779334962368011 -0.34978607296943665
1.6528058052062988 0.2553741931915283 0.8596667051315308
-1.3980869054794312 0.35350656509399414 -1.5232433080673218
1.8134276866912842 -0.04634815454483032 1.2293154001235962
-1.4498437643051147 -0.35400548577308655 0.27322936058044434
-0.9576337933540344 1.17613685131073 -0.34807994961738586
-0.3255845904350281 0.45115697383880615 -0.912125825881958
-1.5025615692138672 0.6191423535346985 -0.7695451378822327
-0.4770359396934509 0.9801031947135925 -0.8306201696395874
3.5290300846099854 -0.04873239994049072 -0.3148767948150635
-0.15609103441238403 1.2241688966751099 0.8407961130142212
-1.418574571609497 1.0078794956207275 1.4931038618087769
1.7169185876846313 0.13981392979621887 1.0590972900390625
0.11280502378940582 0.7116997241973877 -0.6282196640968323
0.6394858956336975 -0.23334573209285736 1.1633905172348022
-1.742069125175476 0.1560073047876358 0.12415724992752075
-0.3514838218688965 0.5808902978897095 0.9889987111091614
0.43961912393569946 0.6287317276000977 -0.5032129287719727
-1.230491042137146 -0.4745163917541504 -0.4888090491294861
1.2424678802490234 0.45068466663360596 0.07104042917490005
2.633904457092285 0.48425590991973877 -1.516276240348816
0.301591157913208 0.17021122574806213 -0.2130863070487976
-0.2845616340637207 0.5602521896362305 0.305186927318573
2.668107748031616 -0.18228211998939514 0.8816319704055786
1.2501155138015747 1.020237922668457 -0.8165788054466248
-1.1043992042541504 -0.10580593347549438 0.22116459906101227
0.33745014667510986 0.7621726393699646 0.44265827536582947
3.3924012184143066 -0.46696415543556213 1.096500277519226
-1.2366305589675903 -0.04771198332309723 0.5074824690818787
1.6293456554412842 0.9061620235443115 1.5898926258087158
1.6734064817428589 -0.05432137846946716 -0.6401252746582031
-0.6766240000724792 0.059775352478027344 -0.4447427988052368
1.4180641174316406 -0.4891210198402405 0.727230966091156
-0.6855857372283936 0.6316908597946167 0.43044355511665344
-0.4374834895133972 0.5282012820243835 1.679174542427063
1.6893731355667114 -0.19711199402809143 0.9979715943336487
-1.8709462881088257 0.2768303155899048 -1.0479836463928223
2.3463284969329834 0.41160255670547485 -1.0939818620681763
2.1369247436523438 0.3586326837539673 -0.015138691291213036
-0.5028073787689209 0.5014708042144775 -0.8181589245796204
-1.0443209409713745 0.023128286004066467 0.8525428175926208
-0.39372146129608154 0.1614866703748703 0.8455995917320251
-1.8827950954437256 -0.4713400602340698 1.192578911781311
-0.6741820573806763 -0.3902685046195984 -1.539976954460144
-3.0000967979431152 0.712864875793457 0.03365970775485039
-0.7467901706695557 1.2704802751541138 0.7287338376045227
1.8740427494049072 -0.2784297466278076 1.3262704610824585
-0.20879867672920227 0.8636229038238525 -0.8269546627998352
-1.2543927431106567 0.17134539783000946 0.13844627141952515
2.2806150913238525 -0.26980671286582947 -0.10530637949705124
1.589032530784607 -0.08655694127082825 0.27230656147003174
-1.0044234991073608 0.3337289094924927 -1.034393548965454
-1.7424341440200806 -0.13297805190086365 -0.8358333706855774
1.5815467834472656 0.6095412373542786 -0.12207215279340744
0.18274900317192078 0.5613080859184265 -0.9060618877410889
-0.8485857248306274 -0.19570641219615936 0.26579561829566956
-0.3896596133708954 0.3023638129234314 -0.15163969993591309
-1.5462952852249146 0.24888096749782562 -0.2512364387512207
0.9611846208572388 -0.44142037630081177 -1.6107778549194336
0.7660102844238281 -0.4845207929611206 0.9826924204826355
-0.8637288212776184 0.3107377290725708 0.3813597857952118
-1.391714334487915 0.17614829540252686 -1.190722107887268
1.9306360483169556 0.9006853103637695 -0.2805894613265991
1.7484582662582397 -0.10918985307216644 -0.48768943548202515
-1.3483208417892456 0.6138988137245178 -0.11804468184709549
-0.618436872959137 0.5450247526168823 0.1509767323732376
0.6062855124473572 1.1851019859313965 -0.07035338133573532
-0.7780194878578186 -0.18917329609394073 0.2015843540430069
1.838781714439392 0.8106595277786255 -1.4501343965530396
1.373157024383545 -0.4260909855365753 -1.0762287378311157
-0.7026455402374268 0.7651672959327698 -0.552885115146637
0.6336212158203125 0.647156834602356 0.14544285833835602
0.36400291323661804 0.7837196588516235 -1.0629582405090332
-1.6578518152236938 0.7853989005088806 -1.3179092407226562
-1.6237876415252686 0.5550328493118286 -0.19422547519207
-1.1323566436767578 0.5253145098686218 1.1241800785064697
0.289476215839386 -0.18045282363891602 1.2445210218429565
2.6666946411132812 0.3254956007003784 -0.1977773755788803
-0.0902644544839859 -0.16249917447566986 1.847707986831665
-0.06079420447349548 0.785545825958252 0.8661348223686218
0.06949350982904434 0.7393563985824585 -0.44931507110595703
-1.6461066007614136 -0.1097179651260376 0.5634573101997375
-1.2210301160812378 -0.24228189885616302 -0.7423630356788635
0.18108974397182465 -0.1596313863992691 1.269260287284851
-2.240035057067871 0.0047593265771865845 -0.24789218604564667
-0.025215867906808853 0.598130464553833 1.1436406373977661
-2.240750551223755 -0.30661338567733765 -0.9395022988319397
-2.0146524906158447 0.444499135017395 0.10058064013719559
1.849497675895691 0.7515037059783936 0.5622236728668213
1.0640044212341309 -0.12935751676559448 -0.952457070350647
0.13985741138458252 -0.48644566535949707 0.8185588121414185
2.4527902603149414 0.47864365577697754 -1.0343469381332397
-0.49657464027404785 -0.10649126768112183 1.4242287874221802
-1.9015146493911743 0.6476907134056091 1.264639139175415
-2.620192289352417 0.05901479721069336 -0.7178484201431274
-2.53507924079895 -0.09904024004936218 1.3618403673171997
-0.6043978929519653 -0.23714493215084076 -0.4637153744697571
0.753676176071167 0.14003312587738037 0.06113611161708832
-2.8758065700531006 0.48738381266593933 0.049374327063560486
-0.7842548489570618 0.4054596722126007 0.8250346779823303
-0.41812366247177124 0.446633517742157 -0.858710527420044
2.0484580993652344 0.5896342396736145 1.3146284818649292
-2.329439401626587 0.13858656585216522 0.12898142635822296
-1.6791000366210938 1.0779690742492676 -0.19017253816127777
3.0611205101013184 -0.0444001704454422 0.6500158905982971
0.8742947578430176 -0.11805427074432373 -0.08909887075424194
0.06235634535551071 -0.5751596689224243 0.17769096791744232
2.3273544311523438 -0.20020249485969543 -0.8952709436416626
0.515223503112793 0.6953164339065552 1.432898759841919
0.16733333468437195 0.3614000678062439 1.4678356647491455
-0.1600361466407776 -0.4018210768699646 0.38708752393722534
-2.8329687118530273 0.6249191761016846 1.1243786811828613
-1.0663753747940063 1.1631311178207397 -0.3275802731513977
-0.22775927186012268 0.6517946720123291 1.236962080001831
0.032177913933992386 0.9464345574378967 0.02520665153861046
1.5650672912597656 0.19084446132183075 1.5187952518463135
1.7169733047485352 -0.1580507755279541 0.40888166427612305
-0.85148686170578 -0.37235939502716064 -1.2942867279052734
2.28334903717041 0.7932363152503967 0.36995938420295715
-1.3341282606124878 1.1141619682312012 -0.37713706493377686
-0.06937249004840851 -0.01291985809803009 0.2371484935283661
0.3778282701969147 0.14809319376945496 1.493927001953125
-0.8806378841400146 0.0066526830196380615 -1.0880135297775269
0.40416157245635986 -0.46153151988983154 0.6829579472541809
-0.6926652193069458 -0.5564523935317993 0.17125073075294495
1.0316784381866455 0.8523249626159668 0.6667186617851257
-0.04102463275194168 -0.4305316209793091 0.30565953254699707
1.0357433557510376 -0.10264371335506439 -0.3467795252799988
1.5244017839431763 0.15806186199188232 -0.2506504952907562
-1.9375145435333252 0.2464497685432434 0.5879241824150085
2.754802942276001 0.16093114018440247 -0.38976573944091797
1.0172488689422607 0.7990275025367737 -0.27046504616737366
0.021219011396169662 0.5700831413269043 -0.3830122947692871
1.0193326473236084 -0.19070647656917572 0.289437472820282
1.8254493474960327 0.8639516830444336 -0.7540584206581116
1.0043607950210571 0.47711682319641113 0.7219206690788269
-1.2936632633209229 0.010211393237113953 0.40027928352355957
1.687934398651123 -0.5000630617141724 -0.25681427121162415
0.16083064675331116 0.7395903468132019 0.5560593605041504
-0.4495851993560791 0.9922924041748047 -1.5598279237747192
-0.8367998600006104 -0.13298794627189636 -0.07999773323535919
-0.9332314729690552 0.4784405827522278 -1.6179289817810059
-0.8070332407951355 0.14454524219036102 0.24666261672973633
-0.4823101758956909 -0.10168983042240143 0.6284824013710022
0.4707328677177429 -0.3414541184902191 -0.4891529679298401
2.6690707206726074 -0.24352650344371796 1.0972479581832886
-1.5195131301879883 -0.43103522062301636 -0.28643733263015747
-0.37165194749832153 0.17289415001869202 -1.104236125946045
-1.5500439405441284 -0.44570794701576233 0.5261600017547607
-1.2333050966262817 0.27883172035217285 0.8591249585151672
-1.2781672477722168 -0.24416369199752808 -1.7508364915847778
-0.23540782928466797 0.3217582106590271 -1.2650506496429443
0.7118498086929321 0.2925736904144287 0.6018230319023132
1.4471778869628906 0.017501100897789 0.5522437691688538
-0.4515454173088074 -0.3523094058036804 -0.398550808429718
-1.3355265855789185 -0.0659567266702652 0.6129491925239563
-1.8166546821594238 0.36705267429351807 -0.12951084971427917
1.0783919095993042 -0.3286473751068115 0.7815462946891785
0.3071053922176361 0.00018766522407531738 -0.08015038818120956
2.179102659225464 0.4834423065185547 1.323409080505371
-1.6198469400405884 0.10587899386882782 -0.4897391200065613
1.009299397468567 1.115330696105957 -0.04201158508658409
-0.17831900715827942 -0.261576384305954 0.12896840274333954
-1.8976986408233643 0.609990119934082 0.4584914743900299
-0.0735740065574646 0.16948504745960236 0.005280864890664816
0.7561179995536804 -0.06405635178089142 0.892917275428772
0.6070715188980103 -0.48713964223861694 -0.8600497841835022
0.8520677089691162 0.36909782886505127 -0.9382696151733398
1.7341701984405518 -0.35793381929397583 1.0358718633651733
2.714662551879883 0.5870144367218018 0.9767990708351135
0.8419188261032104 0.278219074010849 0.3516196012496948
1.1733821630477905 -0.45918065309524536 -0.3541589379310608
-0.7283673286437988 0.826305091381073 0.38529011607170105
-1.214781641960144 0.390133798122406 -0.43378570675849915
-1.8924199342727661 -0.2635002136230469 0.2528573274612427
-0.5310054421424866 1.007389783859253 -0.42154309153556824
-0.689612627029419 0.4926873743534088 -0.12430279701948166
3.376108407974243 -0.3252662122249603 -0.44990044832229614
1.4015871286392212 0.05042716860771179 -0.2714899480342865
-2.0566492080688477 0.44271552562713623 0.9566488265991211
-2.542928695678711 0.529462993144989 -0.020441105589270592
-3.7478623390197754 1.091468095779419 -1.1571855545043945
-1.0846058130264282 -0.055974021553993225 -0.2438257783651352
-1.2156049013137817 0.861850917339325 -0.2691902816295624
-2.1807785034179688 0.04297377169132233 -0.6842383146286011
-2.6782922744750977 0.7069718241691589 0.4166688919067383
-0.44514891505241394 0.6451656818389893 1.0249626636505127
-1.1257275342941284 0.35025352239608765 -0.5451593995094299
2.815871238708496 -0.6515828371047974 -1.6511733531951904
-1.6078782081604004 0.22810781002044678 0.04480215907096863
-1.4668480157852173 1.1446646451950073 0.5252527594566345
-0.4995947480201721 1.2401559352874756 0.2110372930765152
1.5855003595352173 0.7544946074485779 -0.1450992375612259
-1.0644716024398804 0.7840189933776855 -0.4972361922264099
1.584602952003479 -0.4165802001953125 -0.1960592269897461
3.412062644958496 0.5028123259544373 0.20387011766433716
-1.7399687767028809 0.552061915397644 -0.7361509203910828
0.9404188990592957 -0.15567894279956818 0.7382701635360718
-0.523257851600647 0.9293181300163269 0.28688931465148926
1.9894121885299683 0.10237473249435425 -0.27331823110580444
2.5527617931365967 0.45769327878952026 0.7466609477996826
1.3005627393722534 -0.4314211308956146 -0.5467555522918701
0.40802082419395447 0.9502384662628174 1.6664657592773438
-0.23074005544185638 0.8999322652816772 0.7747073769569397
-0.8389164805412292 0.6353215575218201 -1.3809274435043335
-2.109903573989868 0.8644008040428162 -0.16155502200126648
-0.44634416699409485 -0.4269905984401703 -0.47873544692993164
-1.7412201166152954 0.5188376903533936 -0.6451957821846008
1.4342470169067383 0.45202115178108215 0.06459459662437439
-1.2587634325027466 0.060903385281562805 -0.7606971859931946
0.9584699869155884 0.07397037744522095 0.513895571231842
-0.8082561492919922 0.22632765769958496 0.19592027366161346
-2.1531503200531006 0.03705607354640961 -0.5537706017494202
2.1522216796875 -0.12284013628959656 -0.3210933804512024
0.17374205589294434 -0.010649725794792175 0.48956820368766785
-1.0288922786712646 0.43034791946411133 -0.6869844198226929
2.9565343856811523 0.250346839427948 -1.3128989934921265
-0.4068852365016937 0.7744828462600708 0.9185969829559326
0.023580871522426605 0.17455452680587769 -0.429471880197525
-0.45751795172691345 0.831807017326355 0.4280749261379242
-0.4231148958206177 -0.04860496520996094 0.33813878893852234
-2.259619951248169 1.1074239015579224 0.33111146092414856
0.5821869969367981 -0.14340151846408844 -0.9854089021682739
1.2614364624023438 -0.1718796193599701 -1.1982450485229492
-1.1681796312332153 0.2825334370136261 0.9331469535827637
-0.7136962413787842 -0.028178900480270386 -0.9224286675453186
-0.9891970157623291 -0.04096023738384247 0.9845954179763794
-0.5972514152526855 1.0372191667556763 1.227914810180664
2.2013754844665527 0.06744824349880219 0.434847354888916
1.506615400314331 -0.4041481614112854 -0.31081855297088623
0.39025649428367615 1.1404324769973755 -0.9635900855064392
1.5122482776641846 -0.2551407217979431 0.7460194230079651
2.7027089595794678 0.17003266513347626 -0.7604488134384155
1.059187889099121 -0.2514805197715759 0.6669107675552368
-2.4347994327545166 0.5784503221511841 -0.32835835218429565
0.022687122225761414 0.369248628616333 -0.9282429814338684
-0.37266629934310913 0.4748544692993164 0.5780527591705322
-1.4459587335586548 -0.08051891624927521 0.7641626000404358
0.9214942455291748 0.7225428819656372 0.15403896570205688
0.04383881390094757 0.006362557411193848 0.10554315149784088
2.1070194244384766 0.8149617910385132 0.827776312828064
-0.5767157077789307 0.6626551151275635 -0.253549188375473
-0.35886621475219727 1.0439096689224243 0.32976651191711426
-2.0168774127960205 0.43128660321235657 0.43151575326919556
2.193007230758667 0.6315028071403503 0.7600445747375488
0.9844725131988525 0.11043436825275421 0.550531268119812
2.5289885997772217 -0.1894906759262085 -0.1886042058467865
-0.10964405536651611 1.042582392692566 1.472773790359497
0.004416219890117645 0.9248703718185425 0.3562431335449219
-0.7771047949790955 0.47751522064208984 -0.37032774090766907
0.9441614747047424 1.2557097673416138 -0.11262715607881546
2.5821728706359863 0.44089362025260925 1.925122857093811
0.8727971911430359 0.29614514112472534 0.42087385058403015
2.6394808292388916 0.13903136551380157 -0.45577922463417053
0.059542376548051834 1.1392288208007812 0.2694675922393799
2.903494358062744 0.6105054616928101 -0.6674404740333557
1.3421809673309326 0.3909626603126526 1.2622451782226562
0.3431597054004669 0.22863207757472992 1.0156116485595703
1.7356014251708984 -0.45535188913345337 -0.635783851146698
-0.24882613122463226 -0.07424427568912506 0.35244131088256836
-0.920852780342102 -0.220680370926857 0.6167886853218079
-2.3161933422088623 -0.017284274101257324 1.0334317684173584
-0.23424051702022552 0.9136387705802917 1.0073212385177612
-0.7766657471656799 0.8448629975318909 -0.35044991970062256
-1.1831130981445312 0.033550262451171875 -0.56913822889328
-0.8948805332183838 0.4134887754917145 -0.28207162022590637
1.7412863969802856 -0.464399516582489 0.439919114112854
0.5320716500282288 0.18043459951877594 1.0161962509155273
-1.2441837787628174 0.9999547004699707 1.4653595685958862
-0.8874613046646118 0.09803563356399536 0.12898491322994232
-1.3649276494979858 -0.1786663979291916 -0.35211238265037537
0.3061300814151764 1.0032480955123901 0.21812625229358673
2.6543564796447754 0.04224066436290741 -1.180354356765747
-0.16723591089248657 1.1446154117584229 -0.5842443704605103
-0.5899122357368469 0.194352388381958 -0.6542106866836548
2.0825538635253906 -0.2313639521598816 -0.8478720188140869
-3.035792350769043 0.6360599398612976 -0.34896036982536316
0.7661399841308594 0.8569586277008057 0.6055643558502197
0.28797221183776855 0.845294713973999 0.19655708968639374
2.0101020336151123 -0.36772671341896057 0.5743615627288818
-1.004772424697876 0.22805318236351013 1.4102602005004883
1.0689603090286255 0.480019211769104 -1.3925983905792236
-0.8841347694396973 -0.0187968909740448 -0.14102360606193542
-0.8922163248062134 0.9754289984703064 -0.9799832701683044
-1.0500518083572388 -0.1795051544904709 -1.3803871870040894
-0.2924779951572418 0.22020021080970764 -1.130956768989563
0.3774033486843109 -0.3900291919708252 -0.6726806163787842
0.09254662692546844 0.8603637218475342 0.2145116627216339
-1.361653208732605 0.0363985151052475 -0.9399207234382629
1.8681422472000122 0.03304655849933624 -0.35255104303359985
-1.5695289373397827 0.5904366970062256 -0.8800137639045715
-0.3634801506996155 0.000638917088508606 1.4988083839416504
-1.6960266828536987 0.816177248954773 0.7141925692558289
1.3445378541946411 0.06707920134067535 -1.5144129991531372
3.1502535343170166 0.1625862717628479 0.49282345175743103
1.2191414833068848 0.5972281694412231 -0.7409985661506653
3.114529848098755 0.5152807235717773 -0.36372146010398865
1.4599218368530273 -0.001512765884399414 -1.0496629476547241
1.4432522058486938 -0.42859023809432983 0.5883001089096069
-1.6768531799316406 0.1357172280550003 1.784325122833252
1.6535319089889526 -0.3784175515174866 1.3376424312591553
2.700392007827759 0.2806365489959717 -1.5906096696853638
0.58391934633255 -0.40320244431495667 0.8458871841430664
1.1330044269561768 0.20583705604076385 -0.15450410544872284
-0.5994490385055542 -0.09677660465240479 1.3611891269683838
-1.8860305547714233 0.6615485548973083 -0.33537086844444275
-0.6901038885116577 0.5638983845710754 -0.9685211777687073
0.8995471000671387 -0.5412110686302185 0.32064947485923767
-1.055910587310791 -0.5656418204307556 0.49303266406059265
-2.433608293533325 0.6410756707191467 0.7582003474235535
-0.029526136815547943 1.0671970844268799 -0.28201064467430115
0.9147745966911316 -0.03090895712375641 -0.0652129203081131
1.3838263750076294 0.5878332853317261 -0.34443163871765137
1.474785327911377 0.07485422492027283 0.6521525382995605
-0.6937499046325684 1.09534752368927 -0.7050350904464722
0.9499578475952148 -0.13883987069129944 -0.11373710632324219
-1.445979118347168 -0.3068370223045349 0.755378782749176
-1.9209542274475098 -0.47487586736679077 -0.4736209809780121
-1.6752909421920776 -0.006146103143692017 0.6393160820007324
2.8470664024353027 0.36087965965270996 -1.7491368055343628
2.492097854614258 0.8652625679969788 -0.06383703649044037
-0.47863760590553284 -0.4072951674461365 -1.4160857200622559
2.7686727046966553 0.022531062364578247 1.8041843175888062
1.2021678686141968 0.057457417249679565 0.10511555522680283
1.7232091426849365 -0.08846470713615417 -0.6099284887313843
0.020253770053386688 -0.1828572005033493 0.4367400109767914
-2.2234861850738525 -0.19894620776176453 0.19544507563114166
0.9843213558197021 0.1166495829820633 0.966605007648468
-1.7507110834121704 0.8149025440216064 -1.1906797885894775
-0.08271534740924835 -0.43153703212738037 -0.9753832221031189
-1.3618950843811035 1.0314078330993652 -0.6730884313583374
-0.34385138750076294 0.36257249116897583 1.516057014465332
-1.7729614973068237 0.3071290850639343 0.2238573431968689
-2.4686472415924072 -0.19230495393276215 0.14089719951152802
0.37610119581222534 0.59780353307724 -0.021127862855792046
0.21517086029052734 0.4935690760612488 0.15889042615890503
-0.6022449135780334 0.39046305418014526 0.08295981585979462
0.8779134750366211 -0.2796292304992676 -0.1917153298854828
-0.13116320967674255 -0.04892067611217499 -0.7635111808776855
2.8011531829833984 0.17091821134090424 1.1768991947174072
0.034413065761327744 1.0891252756118774 0.8272987008094788
-1.8425005674362183 0.20722223818302155 0.6346489191055298
-0.9463820457458496 -0.2720611095428467 0.39589810371398926
-1.2328851222991943 0.2066570371389389 -0.43268823623657227
-1.6251842975616455 -0.08914275467395782 -0.2423725426197052
-0.2028515636920929 1.1644161939620972 -0.8962015509605408
0.13693544268608093 0.32950299978256226 0.0892530083656311
-0.6941292881965637 -0.24677693843841553 0.2674160301685333
3.2359087467193604 -0.07751700282096863 0.45354679226875305
1.0336356163024902 -0.43053123354911804 0.7341266870498657
-0.645713210105896 0.35512858629226685 -0.34777000546455383
-0.9435212016105652 0.1996932327747345 0.9491801857948303
-1.323672890663147 -0.16211184859275818 -1.1277716159820557
1.564949870109558 0.3501936197280884 -0.9605377316474915
2.7542643547058105 -0.2654227614402771 -0.38923412561416626
1.1665589809417725 0.3768603503704071 -1.4517940282821655
1.524378776550293 0.7591072916984558 0.559149444103241
-1.7358331680297852 0.7415435314178467 1.051767349243164
1.2863937616348267 0.003741934895515442 0.16546139121055603
2.32244610786438 0.6279088854789734 -0.06350377202033997
-0.959900438785553 0.19302120804786682 -0.3443661630153656
1.5725035667419434 0.4662996828556061 0.20516076683998108
1.982251763343811 -0.04092687368392944 -0.028619807213544846
0.5911058187484741 0.9354575872421265 -0.7040109634399414
2.3045005798339844 0.8783111572265625 1.0646657943725586
-1.8336821794509888 1.1175566911697388 -0.3698238730430603
