ply
format ascii 1.0
element vertex 807
property float x
property float y
property float z
end_header
0.3350418210029602 -0.4585069417953491 0.1395251303911209
-0.689477801322937 0.2288712114095688 0.019380871206521988
-0.9345971941947937 -0.3507353663444519 -0.5786335468292236
-1.0699563026428223 0.15487386286258698 -0.4055514633655548
1.0691072940826416 0.49536824226379395 -0.582965075969696
1.695598840713501 -0.19794218242168427 0.20309865474700928
-0.3553704023361206 0.3364957571029663 -0.24136219918727875
-1.5369354486465454 0.42334794998168945 0.16905982792377472
-1.5719411373138428 -0.34415215253829956 -0.40784454345703125
1.3400280475616455 -0.08706831932067871 -0.7482097744941711
0.28409358859062195 0.5144463777542114 0.011074384674429893
0.8575154542922974 0.26671674847602844 -0.5444485545158386
1.0514521598815918 0.6129370927810669 -0.8757850527763367
0.13078312575817108 0.3538868725299835 -0.6340936422348022
-1.5245776176452637 0.00700107216835022 -0.3691653311252594
-1.2833693027496338 0.05605052411556244 0.19167885184288025
1.0308349132537842 0.09608785808086395 -0.12622077763080597
1.2206048965454102 0.31173399090766907 0.3504755198955536
-1.7853463888168335 0.03206859529018402 -0.3162955641746521
-1.389188289642334 -0.3418367803096771 0.411094069480896
-0.42990532517433167 -0.14879710972309113 -0.3698258101940155
-0.8238857984542847 0.5820719003677368 0.15452280640602112
-0.29348111152648926 0.17500343918800354 0.21703141927719116
0.7042160034179688 0.006868019700050354 0.7896406054496765
-1.665596604347229 0.05309563875198364 -0.2999912202358246
0.025422532111406326 0.4772012233734131 0.14368094503879547
-0.5820164680480957 0.13596315681934357 0.1397438496351242
2.8113512992858887 -0.2789146304130554 -0.5428895950317383
0.8125542998313904 0.3989768922328949 -0.8183085918426514
0.9246289730072021 0.32656794786453247 -0.49350857734680176
-2.0728609561920166 -0.01829458773136139 0.3629849851131439
-0.42738980054855347 0.31073498725891113 0.24588751792907715
0.055086974054574966 -0.09416106343269348 -0.7821709513664246
-0.3506540060043335 0.7656198740005493 0.013250305317342281
1.1944706439971924 -0.2905149459838867 -0.15008962154388428
0.1848631352186203 -0.3615744113922119 -0.09935217350721359
-1.0336947441101074 -0.374790757894516 0.20750223100185394
0.47246554493904114 0.5508884787559509 -0.7904832363128662
0.06825743615627289 0.6418563723564148 -0.5341671109199524
0.3281533718109131 0.41477811336517334 -0.4971455931663513
-0.22960738837718964 -0.3679901957511902 0.21474066376686096
-0.008832935243844986 0.41301268339157104 -0.10686839371919632
0.646924614906311 -0.1763232797384262 -0.4913215637207031
0.04283468425273895 -0.33146193623542786 0.8618117570877075
-1.0485975742340088 0.4325231611728668 -0.22537937760353088
1.4909878969192505 0.6539945602416992 0.05162552744150162
1.0190647840499878 0.2567839026451111 -0.40452632308006287
0.315891295671463 0.2792164087295532 0.10570700466632843
1.0986218452453613 -0.13974924385547638 -0.2661961615085602
0.5415092706680298 -0.43991684913635254 -0.6941846013069153
1.43679678440094 0.3894105553627014 0.4353499412536621
-0.2647598385810852 0.4196563959121704 0.8408141732215881
0.9397634863853455 0.08230578899383545 0.5032402873039246
-0.7256318926811218 0.028655365109443665 -0.04730734974145889
-1.839697003364563 -0.30903172492980957 0.11934975534677505
-0.13220645487308502 0.6612719893455505 0.19908209145069122
-1.5784225463867188 0.16833467781543732 -0.3634503185749054
-0.9562522768974304 -0.3573644459247589 -0.05764628201723099
0.021435748785734177 0.3195377290248871 0.9677639007568359
0.8865825533866882 0.516494631767273 0.42660272121429443
0.1574108749628067 0.6816954016685486 0.7117639183998108
-1.5762373208999634 0.2671845555305481 -0.18746060132980347
0.31706324219703674 0.05964675545692444 0.20690493285655975
-0.8631860017776489 0.4923306703567505 0.06077675521373749
1.9674406051635742 0.16272446513175964 0.17403659224510193
0.07296191900968552 0.19799436628818512 -0.6303996443748474
-0.9454073905944824 0.31034624576568604 -0.8727810978889465
1.2122119665145874 0.1989656239748001 0.36569932103157043
0.8226486444473267 0.1880243420600891 0.6070716977119446
-2.1646292209625244 -0.2714163661003113 -0.7262142896652222
0.8413294553756714 0.3597434461116791 0.6238059401512146
-0.09795810282230377 -0.08057904243469238 0.44062113761901855
-2.558170795440674 -0.2688588500022888 0.2933761477470398
1.4521044492721558 0.006702408194541931 0.03328147158026695
0.5111904740333557 -0.03209489583969116 0.7466031312942505
0.17795176804065704 0.24549072980880737 1.1876850128173828
-0.9750804901123047 -0.4823685884475708 0.3084477484226227
-0.42391812801361084 0.24382512271404266 0.5093902945518494
-1.3508151769638062 0.0553775280714035 -0.5513908863067627
2.1898670196533203 -0.10273505747318268 -0.15795817971229553
-1.1658213138580322 -0.03232826292514801 -0.0999220535159111
-0.2986845076084137 0.34223467111587524 0.07698450237512589
-0.7062528133392334 0.17647045850753784 0.1935741901397705
1.2974765300750732 -0.007587939500808716 0.2480153888463974
-0.9616185426712036 0.30203893780708313 0.30493003129959106
-1.0905081033706665 0.37982308864593506 -0.12478779256343842
-0.04944898933172226 0.5549845099449158 1.1487470865249634
-0.646708071231842 0.10847410559654236 -0.9055330157279968
-0.6210331916809082 0.03449445962905884 -0.36533665657043457
0.4064783751964569 0.24336612224578857 -0.15173424780368805
1.5676627159118652 -0.05246327817440033 -0.316617876291275
1.0647541284561157 0.0852472186088562 -0.5295271873474121
1.7180691957473755 0.36833325028419495 0.8942530155181885
-0.5517144799232483 -0.3733358681201935 0.9661856293678284
0.870684027671814 0.2808830440044403 0.2523268759250641
-1.4716646671295166 0.048335909843444824 -0.00705641508102417
-0.3338981866836548 -0.10979172587394714 -0.6493710279464722
0.7351961135864258 -0.16316092014312744 0.17586468160152435
-0.5861450433731079 0.165229931473732 0.09152930229902267
1.9060810804367065 0.48344579339027405 0.45285743474960327
-0.31030434370040894 0.0009715110063552856 0.6857998371124268
0.6066038012504578 0.1434924155473709 0.33092087507247925
-1.0837794542312622 0.5279510617256165 0.19264106452465057
-1.668004035949707 0.32766881585121155 0.8784528970718384
-1.9927818775177002 0.2894620895385742 0.8045232892036438
-1.2416057586669922 -0.29202893376350403 0.3379577696323395
-0.9734519124031067 0.39099186658859253 -0.4393702447414398
1.8074883222579956 -0.3311445116996765 -0.01703592762351036
1.2543264627456665 -0.30147355794906616 0.8540225625038147
-0.5905611515045166 -0.056036919355392456 -0.07949408143758774
-0.7996494770050049 0.5298662185668945 -0.1544596552848816
-0.7915536165237427 -0.17341561615467072 -0.17992082238197327
-1.6630878448486328 -0.31438326835632324 0.33919376134872437
0.21309208869934082 0.042764291167259216 0.17155982553958893
1.0935053825378418 0.5137568116188049 0.5290238857269287
1.9590528011322021 0.03747154772281647 -0.03421090543270111
0.2464524507522583 0.5257384181022644 0.42796966433525085
1.3805681467056274 -0.08695608377456665 0.9350561499595642
-0.47528135776519775 -0.3739495873451233 0.1631290167570114
1.8302332162857056 -0.3488473892211914 0.509407103061676
0.4305872321128845 0.05254189670085907 0.8323760628700256
-0.6581634879112244 0.15897557139396667 -0.8617245554924011
0.7192380428314209 0.15373365581035614 0.899516224861145
1.1304887533187866 -0.2530803978443146 -1.4603155851364136
-0.4386023283004761 0.47931694984436035 -0.02643752284348011
-1.2774457931518555 0.49465447664260864 0.04900501295924187
-0.8417285084724426 0.1909482330083847 0.3095265030860901
1.2866288423538208 0.33946695923805237 0.9064681529998779
-0.9725580811500549 0.15010765194892883 0.33165326714515686
1.4031184911727905 0.4181276261806488 -0.5742684602737427
-0.3369772136211395 0.15420107543468475 -0.9580237865447998
2.010465621948242 -0.317594438791275 0.3406507670879364
-0.8601201176643372 -0.2999230921268463 -0.8445192575454712
-2.277235746383667 0.18501390516757965 -0.2515948414802551
1.2223702669143677 -0.370982825756073 -0.38583195209503174
-0.17084901034832 -0.13782893121242523 0.16478213667869568
1.8780713081359863 -0.1012798547744751 0.5629557371139526
-1.284185767173767 0.44197481870651245 0.4541575312614441
1.822398066520691 0.724805474281311 0.15078672766685486
-0.6072607040405273 -0.243833988904953 0.14484620094299316
-1.1501191854476929 -0.12553146481513977 0.1391211301088333
-1.0078643560409546 0.18355464935302734 0.8714622855186462
-0.6058360934257507 -0.3661460876464844 0.06033780798316002
-1.5877171754837036 -0.010205432772636414 0.10610005259513855
-0.15468233823776245 -0.3491937220096588 -0.5245684385299683
-0.3911903500556946 0.1673773229122162 0.3777475953102112
-0.6995920538902283 0.03166639804840088 0.12030861526727676
0.5202431082725525 0.02095767855644226 0.7310086488723755
-0.4335222542285919 -0.10788728296756744 0.6792174577713013
1.1321605443954468 0.47277742624282837 0.32348406314849854
-1.197285532951355 0.0844891369342804 -0.3718629479408264
-0.5470863580703735 -0.16247040033340454 0.6064789295196533
0.21633978188037872 0.01996999979019165 0.5878276228904724
-2.535961627960205 -0.2857571840286255 0.4375680088996887
1.224692463874817 0.5478700399398804 -0.14940808713436127
1.4825084209442139 0.28009483218193054 0.07009012252092361
-0.6326797604560852 0.23486272990703583 0.33867350220680237
1.982513666152954 -0.3851647973060608 -0.31326690316200256
1.6704508066177368 0.14160509407520294 -0.3027249276638031
1.5732213258743286 0.21557343006134033 -0.24984976649284363
-0.35049769282341003 -0.12344112992286682 0.4937146008014679
1.5680859088897705 0.4594305157661438 0.17233039438724518
-0.6417924761772156 0.22475849092006683 -0.41854098439216614
-0.6645032167434692 0.3519313931465149 0.5071319341659546
0.35000258684158325 -0.10174299776554108 0.7860494256019592
0.7285300493240356 0.09910094738006592 -0.05163804069161415
-1.1705355644226074 -0.27989357709884644 0.5135980844497681
2.2646594047546387 -0.03006623685359955 -0.3664412498474121
0.010473653674125671 0.5929732918739319 -0.9458212852478027
0.8765780329704285 0.2796306312084198 -0.43012434244155884
2.1762588024139404 -0.35295701026916504 -0.08542975038290024
-1.4163947105407715 -0.3438126742839813 0.3266298472881317
1.0301908254623413 -0.36442771553993225 -0.2261306345462799
0.800594687461853 -0.26038020849227905 0.12533581256866455
-0.3519124984741211 -0.40158581733703613 0.3386313319206238
-1.9919718503952026 -0.3072606325149536 0.16338779032230377
1.041155457496643 0.49438440799713135 0.01745458133518696
1.291615605354309 0.5632701516151428 0.43555983901023865
0.44271790981292725 0.36384493112564087 -0.8651484251022339
-2.2680532932281494 -0.2660233676433563 0.5162100195884705
0.4137745499610901 0.3387323021888733 0.4872027039527893
1.4840949773788452 -0.30172860622406006 -0.6907457709312439
-1.465408205986023 0.5035514235496521 0.1723461151123047
1.6880093812942505 -0.013503789901733398 0.4689737558364868
0.1426554024219513 0.002667143940925598 0.4249112010002136
-0.7071781158447266 -0.3781350553035736 0.17910559475421906
2.3284215927124023 0.1270289570093155 0.5301047563552856
-0.5767602920532227 -0.348844051361084 0.006124246399849653
0.892446756362915 -0.40597161650657654 -0.4892635941505432
1.3509681224822998 -0.3643401265144348 0.304085910320282
1.5328987836837769 0.4859974980354309 0.4654920995235443
-0.5059313178062439 0.35495465993881226 -0.4744001626968384
0.2612994909286499 -0.048638224601745605 0.2773749530315399
-1.9379643201828003 0.17677128314971924 0.5035360455513
-0.06774651259183884 -0.3319367468357086 -0.5629019737243652
1.599120020866394 -0.008128747344017029 0.30197811126708984
-0.3512392044067383 0.08555774390697479 0.49766117334365845
-0.5350520610809326 0.006831735372543335 -0.24635030329227448
0.3295193612575531 0.2541426420211792 0.09560339897871017
-0.6758447885513306 0.6449172496795654 0.16901564598083496
-2.403395414352417 0.04204128682613373 0.058281220495700836
-0.39111900329589844 -0.12506072223186493 -0.7850670218467712
-1.5408494472503662 0.426433265209198 -0.7161427140235901
-1.2692961692810059 0.37937793135643005 -0.10840898007154465
0.40017881989479065 0.3984788656234741 0.016610024496912956
0.0907725840806961 0.5050036907196045 -0.7811038494110107
0.9228523373603821 -0.15572738647460938 -0.8002831339836121
-0.49942657351493835 0.08270969986915588 0.2134552150964737
1.0223419666290283 0.09748505055904388 -0.0011916493531316519
-0.06476153433322906 0.2952435612678528 1.166879415512085
-0.6137567758560181 0.24097809195518494 0.5351132154464722
-1.0346589088439941 -0.3423521816730499 -0.7747418284416199
-0.20526275038719177 0.014658257365226746 1.0759800672531128
0.6187509894371033 0.07853198051452637 -0.46849098801612854
-0.4927377700805664 0.4102519750595093 0.031307317316532135
1.1552166938781738 -0.34817659854888916 -0.33148273825645447
-1.0114697217941284 -0.25722992420196533 0.8584325909614563
-0.4700552821159363 0.0783197283744812 -0.11593922227621078
0.32694101333618164 0.35840433835983276 0.8355421423912048
1.7737185955047607 -0.15459543466567993 0.16998083889484406
-1.0734683275222778 -0.36490005254745483 -0.8397895097732544
1.3068456649780273 0.05545644462108612 -0.09538641571998596
-1.5744214057922363 -0.26223915815353394 -0.15108846127986908
-0.9864192008972168 -0.3874672055244446 0.04109056666493416
-0.18771913647651672 -0.36884230375289917 0.27501001954078674
1.3531806468963623 0.3684648275375366 -0.6186861395835876
1.228654384613037 -0.37813252210617065 -1.7489571571350098
0.06458316743373871 0.3130873739719391 -0.6464577317237854
-0.5185227990150452 0.2894056439399719 0.4638841450214386
-0.455814391374588 -0.10582515597343445 0.36225980520248413
-1.1344932317733765 -0.32644885778427124 0.5923807621002197
-1.4555253982543945 0.5078213214874268 0.1535072773694992
-0.8776064515113831 -0.1117900162935257 0.08801230043172836
-0.5397361516952515 0.3903099596500397 -0.011313789524137974
-0.31833529472351074 -0.3441084027290344 -0.1774473935365677
2.4012653827667236 -0.059752196073532104 0.12876632809638977
-0.24635908007621765 -0.17904609441757202 -0.7896955013275146
0.42100781202316284 0.6144375205039978 -0.2929498553276062
-0.18456315994262695 0.6786569356918335 -0.07761810719966888
0.6090489029884338 -0.3661941885948181 0.36072540283203125
1.6169958114624023 -0.1367419809103012 -0.16604293882846832
-1.048811435699463 -0.012989968061447144 -0.8958050012588501
1.362860918045044 0.08220763504505157 0.7669622898101807
1.2452503442764282 -0.14316238462924957 -0.6890698075294495
0.18609283864498138 0.7244625687599182 0.1637595295906067
0.1668562889099121 0.14319300651550293 -0.7751097083091736
-1.1389784812927246 0.029532968997955322 0.25362738966941833
-0.12853623926639557 0.1279127299785614 -0.8430251479148865
-1.3869493007659912 0.5287391543388367 0.18787120282649994
-1.0052313804626465 -0.31730154156684875 0.009186163544654846
-1.7475435733795166 -0.23192593455314636 0.5712778568267822
1.3016815185546875 0.10639157891273499 0.03854123502969742
0.23167771100997925 0.188733771443367 -0.44414058327674866
-0.852955162525177 -0.3217177391052246 0.4641195237636566
2.133265733718872 -0.3343595862388611 0.007307765539735556
-2.2386646270751953 -0.2579777240753174 -0.31059184670448303
-1.1454328298568726 -0.325676292181015 0.5519682168960571
0.2287878841161728 0.27729129791259766 -0.26832282543182373
0.028328530490398407 -0.017900392413139343 0.06377177685499191
1.437773585319519 0.5192742943763733 0.2828010320663452
-0.028302263468503952 0.20994359254837036 0.44938409328460693
0.28692108392715454 0.6333008408546448 -0.6235687136650085
-1.4741065502166748 -0.028309941291809082 0.272024929523468
0.8442413806915283 0.007381916046142578 0.08629138767719269
2.311075448989868 0.13283200562000275 0.9585030674934387
-1.1133370399475098 0.49383553862571716 0.3677847385406494
0.9498928785324097 -0.15409131348133087 0.15642082691192627
-1.4547463655471802 -0.1484072059392929 -0.5389400124549866
-0.3060414493083954 -0.13730870187282562 0.43912169337272644
0.09012485295534134 -0.07107748091220856 -0.2910670340061188
0.7544410228729248 0.014224201440811157 -0.5942001938819885
0.10423107445240021 0.5045750141143799 0.4234605133533478
-2.06168794631958 0.4302857518196106 -0.21326352655887604
2.0186493396759033 -0.1717088371515274 -0.15661628544330597
-1.0313783884048462 -0.07712461054325104 -0.12401704490184784
-0.10785624384880066 -0.1043751984834671 -0.9173470735549927
-0.11550965160131454 -0.11896015703678131 -0.801977813243866
0.11708276718854904 -0.0059531331062316895 0.3250703811645508
-0.6695443987846375 -0.3739084005355835 -0.6117302179336548
1.7180112600326538 0.026643946766853333 0.4508039057254791
-1.5111126899719238 0.23011790215969086 0.27789920568466187
-1.0104825496673584 0.16382896900177002 -0.03071467950940132
-0.43165457248687744 0.37571948766708374 -0.1866394728422165
-1.162227749824524 -0.11502392590045929 0.546593427658081
0.2292255163192749 0.5302024483680725 0.7400251626968384
-0.9420661926269531 0.04665212333202362 0.0774996429681778
1.6454569101333618 0.5024837851524353 -0.8462871313095093
-1.1018606424331665 -0.3031371533870697 -0.8187260031700134
1.2677615880966187 0.08053210377693176 -0.12783974409103394
1.8393402099609375 0.4134732186794281 0.9967261552810669
1.212351679801941 -0.3780348598957062 -0.2151094526052475
-0.9426324367523193 0.3308352828025818 0.8437032699584961
-0.9560298919677734 0.4881555438041687 -0.7479052543640137
1.240831732749939 0.32812607288360596 0.08361745625734329
0.964870810508728 0.49055618047714233 1.0638985633850098
0.725010335445404 0.7162750959396362 -0.11029617488384247
-0.2156115025281906 0.56633460521698 -0.5433122515678406
-1.5920629501342773 0.4889349043369293 -0.2608042359352112
0.5914268493652344 0.6241347789764404 -0.21800099313259125
0.4258056879043579 0.5386388301849365 0.717917799949646
-0.8868242502212524 -0.1851637363433838 0.04822538048028946
-1.9970611333847046 0.026405349373817444 0.5651277899742126
1.5870213508605957 0.06090128421783447 -0.12615858018398285
1.042169451713562 -0.37333860993385315 -0.29045921564102173
-2.706653356552124 0.26697954535484314 -0.5606188774108887
0.8153325319290161 -0.35596340894699097 -0.5455837249755859
2.0466768741607666 -0.08012336492538452 0.05577624961733818
0.9330182671546936 -0.3620283305644989 0.22376398742198944
-2.160325765609741 0.14648814499378204 -0.6734896302223206
1.4096533060073853 -0.18679431080818176 0.2904576361179352
-0.529788613319397 0.08728250861167908 -0.05904902145266533
1.6805535554885864 -0.37583106756210327 0.7970010638237
1.347162127494812 -0.3687499463558197 -0.5525932312011719
-1.7981525659561157 -0.3220495283603668 -0.21641626954078674
1.470960259437561 -0.08992113173007965 -0.7677357196807861
-1.2542897462844849 0.09381145238876343 -0.8822748064994812
-0.9644191265106201 -0.2527224123477936 -0.16031137108802795
0.6508997678756714 -0.3748956620693207 0.47282931208610535
0.9630799889564514 -0.11874014139175415 0.32396554946899414
2.1172730922698975 0.36696287989616394 -0.5083430409431458
0.2925414443016052 -0.08516441285610199 -0.8548046946525574
-1.6441766023635864 -0.12089270353317261 -0.7546395659446716
1.9672459363937378 0.1448289155960083 -0.21873728930950165
-0.08867327868938446 -0.35464292764663696 -0.6810581088066101
-0.7108851075172424 0.0464329719543457 -0.521159291267395
-0.8701532483100891 0.061459898948669434 -0.7297936081886292
-1.1017986536026 0.10280777513980865 -0.08546246588230133
-0.1958061307668686 -0.15825052559375763 0.9854310750961304
-1.4582245349884033 0.430755615234375 0.5311694145202637
-1.6774178743362427 -0.10493159294128418 -0.7799515724182129
1.143295407295227 -0.36574918031692505 -0.6811518669128418
1.0683238506317139 -0.06237271428108215 0.1791929006576538
0.1935071349143982 -0.2277829796075821 0.37408092617988586
1.5775986909866333 0.6385195851325989 -0.6360665559768677
1.116279125213623 0.44061607122421265 0.12432920187711716
0.9397066235542297 0.4117710590362549 -0.3926180303096771
-1.6472264528274536 -0.014671504497528076 0.588394045829773
-0.930568516254425 -0.1722128540277481 -0.2711469531059265
-0.8351663947105408 0.3465261161327362 -0.588966429233551
1.4917062520980835 0.1218356341123581 0.869323194026947
0.3680018186569214 0.49796372652053833 -0.4249337911605835
-0.6748520135879517 -0.31575679779052734 -0.07439783215522766
-0.21329015493392944 0.3069092333316803 -0.7345031499862671
-0.7946024537086487 0.32919079065322876 -0.1846032440662384
-0.8242741227149963 0.2323319911956787 0.11813665181398392
-0.7921001315116882 -0.23131948709487915 0.6870198249816895
0.8630110025405884 0.49234482645988464 1.0894405841827393
0.5963062047958374 0.2386631965637207 0.006733148358762264
0.13541793823242188 0.21641966700553894 0.5505089163780212
1.125172734260559 -0.3084120452404022 -0.6108112931251526
1.3692092895507812 0.09532473981380463 0.1719205677509308
-1.703812837600708 -0.00793708860874176 -0.2238205373287201
2.86025071144104 0.2401851862668991 -0.025426939129829407
1.9829174280166626 -0.3749268651008606 0.09987074136734009
-0.9164901971817017 0.010002970695495605 0.02862411178648472
0.6794111132621765 -0.046053290367126465 0.2422551065683365
-0.16380371153354645 0.18044228851795197 -0.10053645819425583
-0.1233227550983429 0.2588807940483093 0.3593888580799103
2.2434542179107666 0.07045554369688034 1.0400203466415405
-0.20864644646644592 0.734563946723938 0.17879141867160797
-0.1914612352848053 0.07075148820877075 1.1305253505706787
0.5560505986213684 0.2653452157974243 -0.4993000626564026
0.2212403416633606 0.5035586357116699 0.8634688854217529
-0.8944159150123596 0.3098163604736328 -0.8709024786949158
-0.6896294951438904 -0.38139843940734863 -0.278984934091568
-0.17649346590042114 -0.008191496133804321 -0.09557139873504639
2.5715699195861816 0.22547754645347595 -0.6590615510940552
0.6718515157699585 0.3105696439743042 -0.08680541813373566
0.8714330196380615 -0.18819232285022736 -0.5737952589988708
-0.14351433515548706 0.2336713671684265 -0.7563533186912537
-0.6694989204406738 -0.298446387052536 -0.27031633257865906
-1.5739518404006958 -0.0024647414684295654 0.24783799052238464
2.5952415466308594 0.3930755853652954 -0.4566022455692291
0.397823691368103 -0.3806169033050537 -0.2747941017150879
-1.324702501296997 -0.35917142033576965 -0.007038719020783901
-1.5645238161087036 -0.058540672063827515 -0.06486352533102036
0.46796801686286926 0.7502281069755554 -0.012502197176218033
-0.35903701186180115 0.0205058753490448 -0.3850134313106537
0.003943584859371185 0.0710197240114212 -0.800246000289917
1.1758960485458374 -0.06841728091239929 -0.5062915682792664
-1.1094987392425537 -0.31172817945480347 0.7461574077606201
-0.3644832372665405 -0.016271516680717468 0.18975798785686493
1.1409029960632324 0.5599471926689148 -0.021045725792646408
1.1791115999221802 -0.24865736067295074 -0.5555282831192017
2.0550918579101562 -0.23361241817474365 0.26231932640075684
-0.5171709656715393 0.6307783722877502 0.34444665908813477
2.098644733428955 0.38726022839546204 -0.5558027625083923
-2.3674440383911133 0.11106690764427185 -0.2640661597251892
1.7112064361572266 0.580603301525116 -0.052753057330846786
1.3483140468597412 -0.37226513028144836 0.03390025347471237
1.8034858703613281 0.2645604908466339 0.10984937846660614
-1.7541528940200806 -0.04794691503047943 -0.7565654516220093
2.1220405101776123 -0.3666878044605255 -0.23664142191410065
-0.1638643741607666 0.34686577320098877 0.009563754312694073
1.2398097515106201 0.46850019693374634 -0.060317832976579666
-0.6670536994934082 0.49950477480888367 0.6014567017555237
1.1367541551589966 0.04175551235675812 -0.2864781618118286
-0.4401327669620514 -0.09476591646671295 -0.09325967729091644
0.31211942434310913 -0.20575188100337982 0.7712932825088501
1.4954534769058228 -0.0916907787322998 -0.19974645972251892
1.704835057258606 -0.3288612961769104 1.036921501159668
0.5013300180435181 0.37325921654701233 0.09978587925434113
1.2983185052871704 0.09699971973896027 0.04997211694717407
-0.13778041303157806 -0.009208068251609802 0.1492384672164917
-0.9871796369552612 -0.09545032680034637 -0.15766707062721252
-1.1261965036392212 0.15551452338695526 0.7523857951164246
-0.7393167018890381 -0.21739926934242249 -0.9255116581916809
-1.235181450843811 -0.3897157907485962 -0.7354353666305542
-0.8053107857704163 0.007932662963867188 0.34321853518486023
0.5881505012512207 0.6579999327659607 0.564401388168335
-1.238533854484558 -0.3239259719848633 0.30006930232048035
1.373285174369812 -0.25889092683792114 -0.3849960267543793
0.6869616508483887 0.5164521932601929 -0.7256450057029724
1.0450117588043213 0.531279444694519 0.3536277115345001
-0.3668099641799927 0.19578297436237335 -0.027047056704759598
1.5223678350448608 0.4594759941101074 0.7927918434143066
-0.22719833254814148 -0.3578028678894043 -0.7877162098884583
-0.5752435326576233 -0.367791086435318 0.1108635663986206
0.014813058078289032 -0.030601367354393005 0.33313485980033875
0.785618007183075 -0.36844784021377563 0.2151089310646057
1.4853339195251465 0.6583740711212158 -0.1661742478609085
0.15298014879226685 0.5870155096054077 0.24831922352313995
0.6857370734214783 0.5547319054603577 0.7916455268859863
-1.2899049520492554 0.47572061419487 -0.3811892569065094
-2.4102959632873535 0.30160367488861084 0.8579877614974976
-2.434328317642212 0.17211538553237915 0.3317517638206482
-0.06769437342882156 -0.3536820411682129 0.9314635396003723
1.6765681505203247 0.1131339818239212 0.0028914904687553644
-1.5448672771453857 0.1317196786403656 -0.65410977602005
0.7992438077926636 -0.3835301101207733 -0.613858699798584
-0.8273704648017883 0.5623342990875244 -0.4947122037410736
-0.6899302005767822 -0.366405189037323 0.040548622608184814
1.7722605466842651 -0.1164391040802002 0.47174859046936035
0.1675739884376526 -0.09130620956420898 -0.5702368021011353
-1.8994637727737427 -0.3023572564125061 -0.34565284848213196
-2.026311159133911 -0.30766749382019043 0.03989965468645096
-1.0260299444198608 0.35943421721458435 -0.442507803440094
1.062402367591858 -0.37223881483078003 0.30352410674095154
-0.7825099229812622 -0.36985915899276733 -0.12253084033727646
-1.643883228302002 0.12371577322483063 0.5151960253715515
-0.43190857768058777 0.30626755952835083 0.1568882018327713
-1.4031239748001099 0.1140877902507782 0.8210185170173645
1.8136193752288818 0.3672390878200531 0.28866103291511536
-0.5165208578109741 0.3023136854171753 0.3971354365348816
-0.9247624278068542 0.12471303343772888 -0.1699931025505066
0.8186416625976562 0.16617417335510254 0.8094062209129333
0.3964109420776367 -0.3779951333999634 0.10872834920883179
-2.398283004760742 -0.2074630856513977 0.43410325050354004
-1.374004602432251 0.21220286190509796 -0.01792885735630989
1.0984517335891724 -0.37034177780151367 0.35024315118789673
-0.17260755598545074 0.11638149619102478 0.6428350210189819
-0.8524981141090393 0.19817040860652924 -0.01920992136001587
-1.6956595182418823 0.4475692808628082 0.37538957595825195
2.063018321990967 0.36614999175071716 -0.6310293674468994
-0.3835536539554596 -0.3984523117542267 0.21539190411567688
1.4104419946670532 -0.36206457018852234 -0.5196261405944824
-1.8497254848480225 0.18339742720127106 0.08255913853645325
-0.3032323718070984 0.6413558125495911 0.34596455097198486
0.8568398356437683 0.1869080364704132 -0.5441601276397705
-0.773262083530426 -0.3613661527633667 -0.3933733105659485
2.232280731201172 0.1008228212594986 0.9086831212043762
-0.13245314359664917 -0.3795676827430725 0.13581788539886475
-0.6366477012634277 0.1996193528175354 -0.7840145230293274
0.9881060123443604 -0.01176886260509491 0.5882321000099182
0.9189220666885376 -0.16469326615333557 -0.5729479789733887
-0.6671265959739685 0.3967147171497345 0.6533469557762146
-1.3285051584243774 -0.3429582417011261 -0.29953399300575256
-0.01066073402762413 0.4429081678390503 0.6998979449272156
-2.0489819049835205 -0.30271920561790466 -0.39205726981163025
2.363492012023926 0.20778900384902954 -0.27448275685310364
-0.10920999944210052 -0.32109811902046204 -0.4095173180103302
0.43734195828437805 -0.3688252568244934 0.12340065836906433
-1.3097751140594482 0.5586221814155579 -0.34655827283859253
0.527769923210144 -0.312633752822876 0.1358269602060318
-1.2036470174789429 -0.06158068776130676 -0.0930575355887413
-1.6448943614959717 -0.1520867496728897 -0.4805120825767517
1.1462218761444092 -0.35402795672416687 0.7905550599098206
2.405640125274658 -0.031246408820152283 0.8050888180732727
0.11790712922811508 0.38788798451423645 0.22458036243915558
-1.2562304735183716 0.46531298756599426 0.39338451623916626
1.938770055770874 0.3023662567138672 0.13286101818084717
-0.47502657771110535 0.21843180060386658 -0.1427432894706726
1.8747084140777588 -0.09752725064754486 -0.12603679299354553
0.7581844925880432 -0.13047003746032715 -0.07741060107946396
1.9425567388534546 -0.28372812271118164 -0.7347167134284973
1.0381330251693726 0.20664207637310028 -0.14169788360595703
0.10048691183328629 -0.08358688652515411 0.49025362730026245
1.1053812503814697 0.050126105546951294 0.14396047592163086
-1.2272392511367798 -0.3647940456867218 -0.22189779579639435
0.0786447748541832 0.5651769638061523 0.4482591450214386
1.9504506587982178 0.17332254350185394 0.3049568235874176
-0.10281127691268921 0.6623852849006653 -0.18708616495132446
-1.5664781332015991 0.47099626064300537 0.21055108308792114
0.044957492500543594 0.2399747520685196 -0.3589627146720886
0.45875462889671326 0.05584484338760376 -0.5073766112327576
0.41383466124534607 -0.18614964187145233 -0.052504658699035645
0.18153123557567596 -0.09246380627155304 -0.7894726395606995
-1.9236814975738525 0.1479434221982956 -0.18586820363998413
-1.1940749883651733 0.22582387924194336 -0.4181120991706848
1.3214095830917358 0.221805602312088 -0.127195343375206
0.889946460723877 -0.36526766419410706 0.3695128560066223
0.354979008436203 -0.10805138945579529 -0.8517031669616699
-2.058415412902832 -0.16690611839294434 0.4463801085948944
0.2052011787891388 -0.21049636602401733 -0.2067224383354187
1.1019330024719238 0.3808651566505432 0.630359947681427
-0.0340869314968586 -0.3595277667045593 0.506307065486908
1.3293659687042236 -0.37139952182769775 -0.4501209557056427
0.01232295110821724 -0.15741628408432007 0.39024704694747925
0.13554371893405914 -0.3610326051712036 0.18493740260601044
1.0367952585220337 -0.04668751358985901 0.8518645763397217
1.0363047122955322 0.6269124746322632 0.16699674725532532
-2.0675580501556396 -0.16868652403354645 -0.034512296319007874
1.480050802230835 -0.19373571872711182 -0.12879151105880737
-1.6243520975112915 -0.05443583428859711 0.03699427470564842
0.7398569583892822 0.2824728488922119 0.6707499623298645
1.5022708177566528 0.5297274589538574 -0.4622392952442169
0.6977382302284241 -0.09896472096443176 -0.0551542267203331
-0.09159643203020096 -0.0883827656507492 0.6931605339050293
1.9959728717803955 -0.15548771619796753 0.06903538852930069
1.6498979330062866 -0.2369202971458435 1.4484798908233643
2.275482654571533 -0.011141881346702576 -0.4063418507575989
0.9738495945930481 -0.14132337272167206 -0.5071384906768799
-0.19238469004631042 0.05117103457450867 0.161147803068161
2.2440829277038574 0.2710879445075989 -0.11463716626167297
1.432164192199707 -0.35512804985046387 0.24253641068935394
-1.5470528602600098 0.24055823683738708 -0.1391879916191101
1.8391716480255127 0.5621557235717773 -0.05131278187036514
0.2584379017353058 -0.35054782032966614 -0.3565394878387451
-2.1704349517822266 -0.027896016836166382 0.765670657157898
0.10046570003032684 -0.3538406491279602 -0.5409895777702332
0.08585505187511444 0.49543458223342896 0.7395575642585754
0.06297130882740021 0.6499539017677307 -0.3104240596294403
0.1394110471010208 -0.3928002119064331 0.6102752089500427
0.33336612582206726 0.4386250376701355 -0.7053322792053223
0.5097278952598572 0.08184611797332764 -0.5905829071998596
2.017805337905884 -0.18649159371852875 1.083799123764038
1.9504334926605225 0.04181784391403198 0.9750862717628479
2.398029088973999 -0.19143342971801758 0.5540450811386108
0.2061173915863037 -0.04548455774784088 -0.5897709727287292
0.5355712175369263 0.19547376036643982 -0.5604934692382812
-0.5215403437614441 0.4708268642425537 0.03500790521502495
-0.061592962592840195 0.7339856624603271 -0.2711683213710785
1.195568561553955 -0.3676736056804657 -0.1418544203042984
-1.0179539918899536 0.004189297556877136 0.17407895624637604
2.438720464706421 -0.1764347106218338 0.49753138422966003
1.3592184782028198 0.5303307771682739 -0.5506277084350586
-0.8120173215866089 0.01632159948348999 0.13403601944446564
0.5115406513214111 -0.07444547116756439 0.24789178371429443
0.011860769242048264 0.19763538241386414 1.0705937147140503
1.1171725988388062 0.2308042198419571 0.03931548073887825
1.579514980316162 -0.006946071982383728 0.09423612058162689
1.1795332431793213 0.5040007829666138 0.43139922618865967
-0.24004876613616943 -0.30303919315338135 -1.0077391862869263
-0.008829962462186813 0.15679702162742615 1.1162750720977783
1.0454777479171753 0.3773559331893921 -0.673953652381897
1.3941049575805664 0.2388162463903427 0.9665850400924683
-0.3216126263141632 -0.013248920440673828 -0.08097293227910995
-0.013435069471597672 0.6712676286697388 -0.22794905304908752
0.5138525366783142 0.13969388604164124 0.9067256450653076
-1.0844732522964478 0.5398656129837036 -0.027221577242016792
1.0163236856460571 -0.3859926164150238 -0.46764636039733887
-0.9015698432922363 -0.16588346660137177 0.74838787317276
1.7399028539657593 0.3587706983089447 0.6325377821922302
-0.9035183191299438 -0.34471043944358826 0.7623011469841003
-0.5561235547065735 0.6940329670906067 0.09581311047077179
0.6664903163909912 -0.04142722487449646 -0.04966842010617256
-0.2822331190109253 0.2532302737236023 0.5074338316917419
0.9242836833000183 0.002403169870376587 0.24211834371089935
1.8511991500854492 0.5177783370018005 0.17872948944568634
0.16924794018268585 0.7795349955558777 0.27515721321105957
0.9534878134727478 0.4085456132888794 1.1205397844314575
1.6569093465805054 0.3112828731536865 -0.13060873746871948
2.661944627761841 0.30493730306625366 -0.736423671245575
-0.9890220165252686 0.23512348532676697 -0.5505178570747375
1.6800435781478882 0.15608982741832733 0.5734216570854187
-0.5879784226417542 -0.3508589267730713 -0.5654845237731934
0.068602055311203 -0.3068655729293823 0.8774351477622986
2.1323790550231934 0.08907800912857056 0.8156778812408447
2.359687089920044 -0.3395240008831024 0.0354267843067646
-0.8986586332321167 0.4550608694553375 -0.2399914264678955
0.22088328003883362 0.22420628368854523 -0.8326212167739868
0.9079871773719788 -0.2983061671257019 0.07555799931287766
0.2599763870239258 -0.14346545934677124 0.8131856918334961
1.4301437139511108 0.14896143972873688 -0.16510656476020813
-0.6140377521514893 0.4735881984233856 -0.8137388825416565
1.4915393590927124 -0.33960089087486267 1.1095072031021118
-1.6765185594558716 0.482650488615036 -0.10626234859228134
-1.0022714138031006 -0.3380969762802124 0.3645848333835602
-1.180884838104248 0.0753696858882904 -0.4561171531677246
1.3710908889770508 0.13853324949741364 0.4138878881931305
1.0579580068588257 -0.12826935946941376 0.8947434425354004
0.6547850966453552 -0.1527716964483261 -0.5355488061904907
2.0090384483337402 0.46001309156417847 -0.3073645830154419
-0.615634560585022 0.35924288630485535 0.4667450189590454
0.7453386187553406 -0.38169264793395996 0.10883986204862595
-0.5253810286521912 0.09217025339603424 -0.18248559534549713
-1.8754884004592896 -0.1511419117450714 0.3575197756290436
0.8157337307929993 0.6576189994812012 -0.3609515428543091
0.8594844341278076 0.6478174328804016 0.3702605068683624
1.007875680923462 0.08444903790950775 0.4007144868373871
-1.2996397018432617 -0.16694076359272003 0.32935285568237305
0.5208918452262878 0.35151392221450806 -0.08686953037977219
-1.627458095550537 -0.09855163097381592 -0.6276869773864746
0.16439089179039001 -0.3607597351074219 -0.27085617184638977
-0.9060088396072388 0.20951494574546814 -0.1913476437330246
1.4682786464691162 -0.03105524182319641 1.0236364603042603
-2.3164966106414795 0.1870802342891693 0.6158925890922546
-1.541785717010498 0.2549198269844055 -0.25055503845214844
0.015961825847625732 0.28945860266685486 0.06289511919021606
2.3652184009552 0.08784708380699158 0.3023506999015808
-0.666162371635437 0.13758079707622528 -0.03033141791820526
-1.9053359031677246 0.39441171288490295 0.5074293613433838
1.5085856914520264 -0.36028432846069336 0.2646929621696472
1.0720646381378174 0.543497622013092 0.4405980110168457
-0.8522675633430481 -0.3043627142906189 -0.20945261418819427
-1.2811782360076904 0.12512172758579254 -0.907762885093689
-0.9238083958625793 0.42807841300964355 0.7990619540214539
0.5290018320083618 0.7108528017997742 0.5077049136161804
-1.9753789901733398 0.35450154542922974 -0.8996173143386841
-0.7829810380935669 0.023598715662956238 -0.4982603192329407
0.8542269468307495 -0.05095507204532623 0.12535446882247925
-0.3374170660972595 -0.0845940113067627 -1.0066190958023071
-0.8108653426170349 0.47715815901756287 -0.7632627487182617
2.259394884109497 -0.05957642197608948 -0.7832486629486084
-2.04262638092041 0.0058168768882751465 -0.37082791328430176
-0.821186363697052 0.6051048636436462 -0.7534406781196594
-0.8293105959892273 -0.39114779233932495 0.18465009331703186
1.2458146810531616 0.23744261264801025 0.08248719573020935
-0.04266642779111862 -0.35958316922187805 0.6935995221138
-1.2696362733840942 0.2397773116827011 -0.030932754278182983
0.2615242302417755 0.6179695129394531 0.8264392018318176
-0.5260144472122192 -0.2667320966720581 -0.5860695242881775
0.85007643699646 -0.3723537027835846 -0.26792457699775696
-1.1686675548553467 -0.35023927688598633 0.0692770704627037
-1.4070227146148682 0.27763378620147705 0.26769718527793884
0.5427290201187134 -0.09840825200080872 0.3499355614185333
1.7377173900604248 0.2344343364238739 0.6443979144096375
1.9839587211608887 0.0182742178440094 0.18228094279766083
0.8961524367332458 0.35910123586654663 0.1029679998755455
1.9094586372375488 0.33339181542396545 0.2306203544139862
-0.7313408255577087 -0.3004441261291504 0.25572189688682556
-0.6277987360954285 0.09384414553642273 0.5380531549453735
-0.7713489532470703 0.53264981508255 0.3965912461280823
2.126453161239624 -0.3298097848892212 0.2001892626285553
0.8293970823287964 -0.15767356753349304 0.25647813081741333
1.2334238290786743 -0.37742897868156433 0.3487485349178314
1.6732923984527588 -0.33803606033325195 0.6360524296760559
1.3710222244262695 0.04046906530857086 0.908739447593689
1.666447639465332 0.08568504452705383 0.6914900541305542
-0.544562578201294 -0.3427738547325134 0.25489094853401184
2.2704405784606934 0.1338188499212265 -0.18183141946792603
0.15092922747135162 -0.05597776174545288 0.2243223488330841
0.393467515707016 -0.38371968269348145 -0.09719514846801758
-2.5013060569763184 -0.2324962168931961 -0.19430452585220337
0.3887055516242981 0.6410480737686157 0.417927086353302
-1.1667203903198242 0.6053475737571716 -0.7403736710548401
-0.7263482213020325 -0.0023161768913269043 -0.3500910997390747
1.6363129615783691 0.06014956533908844 0.12565644085407257
-0.8356878161430359 -0.32201504707336426 0.044931560754776
2.2212653160095215 -0.36619001626968384 0.8891335725784302
1.1604727506637573 -0.06767448782920837 -0.21955348551273346
0.20294786989688873 -0.1562938541173935 -0.09294393658638
-0.0834653228521347 0.22481097280979156 -0.5571483373641968
0.66703861951828 -0.10973295569419861 -0.5957798957824707
0.6930780410766602 -0.33100610971450806 0.0772729143500328
-1.0641870498657227 -0.13713915646076202 0.4463021159172058
1.8540470600128174 0.3635249435901642 0.3050558269023895
0.5975224375724792 -0.3625982403755188 -0.7964283227920532
-0.22089239954948425 0.022895559668540955 0.32480350136756897
0.85781329870224 0.6339055299758911 -0.4138333201408386
1.5192945003509521 0.12600430846214294 0.09268037974834442
-0.4014340937137604 0.024243175983428955 -0.7127467393875122
-1.0456452369689941 -0.1395142823457718 -0.32097864151000977
2.280271530151367 -0.07790854573249817 0.12636792659759521
-0.7503941059112549 0.735211193561554 0.09501348435878754
-0.31686344742774963 -0.3030688762664795 -0.1222100630402565
-0.30405667424201965 0.4212847948074341 -0.9372152090072632
-0.8132834434509277 -0.22059227526187897 -0.06340734660625458
0.7851549386978149 0.5811123251914978 0.8887327909469604
-1.0117212533950806 0.5518100261688232 -0.0015376387163996696
0.24055825173854828 -0.04568806290626526 -0.803905189037323
1.9871879816055298 0.15934136509895325 -0.4731452167034149
2.1655519008636475 0.34993627667427063 0.7063187956809998
1.3179924488067627 0.574045717716217 0.7185438871383667
-0.4226668179035187 0.0553085058927536 0.6671411991119385
1.2231051921844482 -0.14912264049053192 -0.06883378326892853
1.0993375778198242 -0.04254432022571564 0.7824409008026123
0.8229459524154663 0.05233845114707947 -0.035783492028713226
1.1105972528457642 0.5786777138710022 -0.1920127272605896
1.379445195198059 -0.37516260147094727 0.4536024034023285
1.1822127103805542 -0.3405960202217102 0.943759024143219
1.932787537574768 0.46999549865722656 -0.0628938227891922
-1.7359849214553833 -0.21998007595539093 0.30518007278442383
0.8490843772888184 0.5787348747253418 0.029218867421150208
-0.060491494834423065 0.5806029438972473 0.9791273474693298
1.9104081392288208 0.20118775963783264 -0.8597431182861328
1.6187611818313599 -0.3218502104282379 -0.6601522564888
-0.19592523574829102 -0.367372989654541 -0.32336530089378357
0.09300055354833603 0.1824670135974884 0.11539188772439957
-1.2801871299743652 -0.23982606828212738 -0.07392124086618423
2.5755083560943604 -0.31827300786972046 0.117380291223526
-0.9955582618713379 -0.3027971386909485 0.16917255520820618
1.559633493423462 -0.0804140567779541 -0.1329393982887268
-1.5880072116851807 -0.07598188519477844 -0.060584746301174164
0.533645749092102 0.5910969972610474 0.012192532420158386
-0.2001734972000122 0.19104722142219543 0.5558488965034485
-0.02506764605641365 0.14673039317131042 -0.22616825997829437
1.233077883720398 -0.4022170901298523 0.2372826486825943
-0.0356203131377697 0.2981067895889282 -0.7229599952697754
2.1665098667144775 0.47696152329444885 -0.2976725697517395
0.6989167332649231 0.6508665680885315 0.654305636882782
-0.3451206088066101 -0.1701940894126892 -0.04597615450620651
1.5303785800933838 0.5372703075408936 0.696803867816925
-0.01948966085910797 0.5645939111709595 0.2385978251695633
0.6446872353553772 0.7891028523445129 0.12524046003818512
-0.17973706126213074 -0.35611364245414734 -0.06638002395629883
-0.8032599687576294 0.1396997720003128 -0.8618542551994324
0.26824766397476196 0.5443822145462036 -0.07447156310081482
0.12328310310840607 0.467360258102417 0.30456238985061646
-1.924537181854248 -0.30426573753356934 -0.2731513977050781
-0.2843804359436035 -0.06251202523708344 0.5461720824241638
1.1153520345687866 -0.3556101322174072 -0.7487779855728149
0.03294777125120163 -0.36645373702049255 -0.3302340805530548
-0.5670160055160522 0.4029255509376526 0.4205809533596039
2.655947685241699 -0.24214963614940643 -0.5555146932601929
1.3745875358581543 0.08700267970561981 -0.26441892981529236
-1.9868968725204468 -0.37923985719680786 -0.2111009657382965
-0.6857842206954956 -0.34662923216819763 -0.6907330751419067
1.0811865329742432 0.4014623761177063 0.24685214459896088
1.1083165407180786 0.5991495251655579 0.03134030103683472
-0.2787987291812897 0.24332459270954132 -0.7865188121795654
-0.6113116145133972 0.5909857153892517 -0.26806148886680603
3.0222201347351074 -0.03193385899066925 -0.7234794497489929
-0.3865377902984619 0.32579219341278076 0.23054474592208862
1.3630675077438354 -0.3853392004966736 0.06646724790334702
1.2040919065475464 -0.084389328956604 -0.7742591500282288
0.6895854473114014 -0.3638889491558075 0.16646891832351685
-0.4633517563343048 -0.3330691456794739 0.2249491661787033
-0.1718125194311142 0.028825804591178894 0.4172019958496094
-1.4039061069488525 -0.21324039995670319 -0.5131111741065979
-0.6860936284065247 0.35831886529922485 0.60714191198349
-0.26417276263237 0.5527632832527161 0.14872285723686218
-0.4548175632953644 0.25149255990982056 -0.2596988081932068
-0.17911258339881897 -0.23447391390800476 -0.4651899039745331
-0.44081053137779236 0.2173217236995697 0.384060263633728
0.25833532214164734 0.20739321410655975 -0.6810325980186462
0.5059289932250977 0.04548013210296631 0.3635990619659424
-0.06921452283859253 0.5177792310714722 -0.8310191631317139
-0.7175905108451843 0.4963598847389221 0.667158305644989
0.32928726077079773 0.7452738881111145 0.15170107781887054
0.5925779342651367 0.469304621219635 -0.7275606989860535
0.3669457733631134 -0.3772842586040497 0.6348512172698975
1.8494623899459839 -0.016586363315582275 -0.6936145424842834
1.2726176977157593 0.02417120337486267 0.4687551259994507
-0.6249584555625916 -0.25670796632766724 0.39828529953956604
-1.5686451196670532 0.3031260669231415 -0.8514474630355835
-0.5583559274673462 -0.3629840612411499 0.14950355887413025
-1.223931074142456 0.061425432562828064 0.8684621453285217
0.6577820777893066 0.11080503463745117 -0.17273588478565216
-0.47228020429611206 -0.3515872359275818 0.07382895052433014
-1.0590015649795532 0.5490624308586121 -0.1488019824028015
-1.3236994743347168 -0.2503626346588135 -0.2589567005634308
1.4454230070114136 -0.16523459553718567 -0.6326001882553101
0.12424089014530182 0.20183134078979492 -0.251924991607666
-1.0100616216659546 -0.19983930885791779 0.18284374475479126
0.2903262674808502 0.005183175206184387 0.5060293078422546
-1.1881564855575562 -0.35147935152053833 0.26968368887901306
0.715408205986023 0.646544337272644 0.1706056296825409
-1.0153348445892334 -0.3296654224395752 0.2810102701187134
-1.2002811431884766 -0.17566071450710297 0.2574029266834259
2.113168716430664 0.18725895881652832 0.4730687737464905
-1.5535385608673096 0.5703688859939575 -0.03352753818035126
-1.4577457904815674 -0.35259461402893066 -0.7753797173500061
-1.160921335220337 -0.10596001148223877 0.76185142993927
0.6872908473014832 -0.15685702860355377 -0.35313889384269714
-1.8244270086288452 -0.1116570234298706 0.3938003182411194
-1.4072571992874146 -0.0934576541185379 0.4185662567615509
-0.1943671703338623 -0.23972323536872864 -0.19899247586727142
-1.6212127208709717 0.3688678443431854 0.7475857734680176
0.9906975030899048 -0.3807385265827179 0.7267012596130371
2.186903476715088 -0.3595883846282959 -0.36782529950141907
2.245772361755371 0.23922881484031677 0.7510502338409424
-1.2900197505950928 -0.26533937454223633 -0.3068310618400574
-0.15080659091472626 -0.18583495914936066 0.1507461816072464
-0.445134699344635 -0.16751553118228912 0.12278839200735092
0.7392574548721313 0.4578920900821686 -0.14761759340763092
1.8437427282333374 0.192964568734169 0.15779776871204376
0.5184363722801208 0.19317536056041718 -0.5483558773994446
-1.1571729183197021 0.16464799642562866 0.25532016158103943
-2.3725626468658447 0.41854286193847656 0.0453820675611496
0.9144463539123535 -0.06009773910045624 -0.27052879333496094
-0.03944806009531021 0.35329222679138184 0.12306957691907883
1.046141266822815 -0.03137102723121643 -0.20014414191246033
1.2613568305969238 0.04397320747375488 0.7346174716949463
-0.4577978849411011 -0.3589766323566437 0.27403122186660767
0.39654290676116943 -0.3458288013935089 -0.7759633660316467
0.5353506207466125 0.05239391326904297 -0.44296225905418396
-0.6238666772842407 0.36206692457199097 -0.4323869049549103
-0.772574782371521 0.2827840745449066 -0.27403995394706726
-2.2130465507507324 0.5095660090446472 0.16178438067436218
0.43203380703926086 0.0500502735376358 0.1674928218126297
0.11317597329616547 0.25894564390182495 -0.001726107788272202
-1.3327642679214478 0.22224308550357819 0.5268003344535828
0.9283046126365662 0.2108881175518036 -0.25083088874816895
1.2315055131912231 0.4855472445487976 0.7980175614356995
0.0730145275592804 0.7015956044197083 0.3215506374835968
2.5072145462036133 -0.016912400722503662 -0.7459065914154053
