ply
format ascii 1.0
element vertex 802
property float x
property float y
property float z
end_header
-1.5095492601394653 0.6263464689254761 0.1511322408914566
-0.7119224071502686 0.09270627796649933 -0.6049584150314331
0.03181210905313492 -0.09210982918739319 0.10976115614175797
-0.8413437604904175 0.09638844430446625 0.4567181169986725
-0.1356484740972519 -0.03180703520774841 -0.2375069409608841
-2.0283422470092773 0.055546537041664124 -0.038579195737838745
-0.39661717414855957 0.0025544315576553345 0.727069079875946
-0.610633373260498 -0.011968925595283508 -0.06072217598557472
-1.3104358911514282 0.2871105670928955 0.40076857805252075
-0.6378225684165955 0.10626521706581116 -0.5103190541267395
1.230950951576233 0.42981457710266113 -0.08075757324695587
-1.1694101095199585 0.05133642256259918 -0.07302161306142807
-1.1235426664352417 0.08141922950744629 1.0742061138153076
-1.9808952808380127 0.16559913754463196 1.249786138534546
-0.23857903480529785 0.5397878885269165 0.3983006775379181
-2.447935104370117 0.5623796582221985 -0.021155506372451782
-0.23917420208454132 0.033727630972862244 0.8124766945838928
-1.2671457529067993 0.18062520027160645 -0.2501401901245117
-0.7872369885444641 0.009717971086502075 0.44657397270202637
-1.909339427947998 0.40979838371276855 0.7891134023666382
-0.28210073709487915 0.038876429200172424 0.7825183868408203
0.7987962365150452 0.17211958765983582 -0.3148639500141144
-0.8041065335273743 -0.07178196310997009 0.8732972145080566
-0.06518935412168503 0.17311887443065643 -0.8854479193687439
-1.2288734912872314 0.037821099162101746 0.0059683918952941895
-1.6374714374542236 0.5650229454040527 -0.4691128134727478
-2.2861740589141846 -0.03404909372329712 0.5769277215003967
-1.5107533931732178 0.4125925302505493 0.3457750380039215
-0.12536777555942535 -0.12790673971176147 -0.3388984203338623
-0.7565237283706665 0.07155193388462067 0.27809762954711914
0.3258928060531616 0.05713836848735809 -0.4914986789226532
-2.4890999794006348 0.24288026988506317 -0.578673243522644
-1.6683632135391235 0.15435615181922913 0.5051097869873047
-1.1467077732086182 0.3572292923927307 0.4728737771511078
-1.3196502923965454 0.5030480623245239 0.3748171627521515
-1.0360320806503296 0.5231429934501648 -0.2232440561056137
-0.032738178968429565 0.043807774782180786 0.09480106830596924
-1.4866095781326294 0.3401247262954712 0.02236190438270569
-0.601808488368988 0.19939091801643372 -0.8627074956893921
-1.9370291233062744 0.46646279096603394 -0.7824572324752808
-1.2523976564407349 0.28079187870025635 1.0481548309326172
0.9187653064727783 -0.11051088571548462 -0.04413030296564102
0.5926852226257324 -0.026911944150924683 -0.7764968872070312
-1.4986376762390137 0.3166261315345764 0.03458363190293312
-0.27792519330978394 0.1429012417793274 0.2748052477836609
-0.6489953994750977 -0.05068671703338623 -0.847713828086853
-0.6379780769348145 0.25797489285469055 -0.9130077958106995
-1.299100637435913 0.014617100358009338 -0.17649178206920624
0.6548253297805786 0.05842909216880798 0.19053460657596588
-0.42654797434806824 -0.1504063606262207 -0.2403707057237625
-0.8066369891166687 0.2793729901313782 -0.04185051470994949
0.3586672246456146 -0.1654340624809265 0.2832038998603821
-1.6939527988433838 0.2319662868976593 0.4560171067714691
-1.5932836532592773 -0.023546487092971802 0.1766074299812317
-2.107954502105713 0.33606037497520447 -0.385662704706192
-0.4226655662059784 0.43699032068252563 -0.5626451373100281
0.28295135498046875 -0.0728687047958374 0.2738737463951111
-0.9860129952430725 0.0575975626707077 0.5190997123718262
-0.22857257723808289 0.38893255591392517 -0.2707209587097168
-0.3006008267402649 0.08009277284145355 -0.24627092480659485
-1.1173992156982422 -0.10439413785934448 -0.35333800315856934
-1.668442726135254 0.5038867592811584 0.680708110332489
0.42336174845695496 0.13767701387405396 0.0944250300526619
-0.8116207122802734 -0.09005671739578247 -0.23600853979587555
-0.42534685134887695 0.18117521703243256 -0.3896600604057312
-1.0600792169570923 -0.0024061352014541626 0.20162154734134674
-0.8542974591255188 0.1284913867712021 -0.4479519724845886
-0.7034318447113037 0.024217069149017334 0.11841150373220444
-1.2000349760055542 0.2256156951189041 1.0503160953521729
0.21872931718826294 -0.0508478581905365 0.06495825201272964
0.0747763141989708 0.42110008001327515 0.25073501467704773
-0.9842541217803955 0.4492756128311157 -0.6887268424034119
0.05010531470179558 0.5365918874740601 0.2707981467247009
-2.255631685256958 0.3140687346458435 -0.8784501552581787
1.269235610961914 0.3386157155036926 -0.2639620304107666
0.6926922798156738 0.38392311334609985 -0.3426501452922821
-1.4861570596694946 0.5263970494270325 -0.08440150320529938
-0.9111995697021484 0.4435887336730957 0.761766254901886
-1.928658127784729 -0.01902991533279419 -0.02488814853131771
-1.395290732383728 -0.15393495559692383 -0.29566141963005066
-0.9720537662506104 -0.13144928216934204 -0.14508654177188873
-1.286335825920105 0.466184139251709 -0.47986823320388794
-0.8026759624481201 0.21664594113826752 0.28085383772850037
-1.7302162647247314 0.03754459321498871 0.20431064069271088
-1.8472694158554077 0.45058101415634155 -0.9376068115234375
-0.15907491743564606 0.09097461402416229 0.14614951610565186
2.0036771297454834 0.22332903742790222 -0.19615432620048523
-1.0773558616638184 0.4839390516281128 0.03771045431494713
-0.9070670008659363 0.18338225781917572 -0.07945802062749863
-1.3765147924423218 0.015980154275894165 1.131564974784851
-1.0954691171646118 0.049737349152565 -0.7934402227401733
0.7618118524551392 0.09375506639480591 0.6362791657447815
-1.0180907249450684 -0.06476986408233643 -0.11527945846319199
1.275983452796936 0.08841323852539062 0.4333702325820923
-1.2920893430709839 0.010480836033821106 0.20856450498104095
-1.5624970197677612 -0.09554976224899292 -0.5240903496742249
0.3202524483203888 -0.016650676727294922 0.210857555270195
0.01677541807293892 0.3364921808242798 0.17054706811904907
-0.4372977614402771 0.27149420976638794 -0.373456209897995
0.3467788100242615 -0.09242081642150879 -0.1364237666130066
1.2864556312561035 0.003931641578674316 -0.21025621891021729
-1.662629246711731 0.5069431662559509 0.7438619136810303
0.6221494674682617 -0.187116801738739 -0.3604738116264343
0.7802549004554749 0.370815634727478 -0.12409968674182892
-1.5984158515930176 0.06613008677959442 -0.23166894912719727
0.05045739561319351 0.458341509103775 -0.45511963963508606
-1.8180030584335327 0.10450556874275208 1.091964602470398
-0.7749984264373779 0.1773146539926529 0.22223250567913055
-1.7567662000656128 0.221090629696846 -0.0041146897710859776
-0.8824968934059143 -0.053282231092453 -0.6990932822227478
0.965513288974762 0.29761913418769836 0.04993852972984314
-2.7578837871551514 0.1888776272535324 -0.172475665807724
-1.119962453842163 0.5104585289955139 0.7592822313308716
-0.6641786694526672 0.042400091886520386 -0.4105074107646942
-0.8448506593704224 0.37873414158821106 0.11928673088550568
-1.085576057434082 0.1924992948770523 0.39471402764320374
-1.1123356819152832 0.19872784614562988 0.040595050901174545
-1.4084200859069824 0.007343098521232605 -0.18544809520244598
0.6088027954101562 -0.005671054124832153 0.5093363523483276
-0.8461562395095825 -0.06691783666610718 -0.2503049671649933
-0.9493283629417419 0.1747473180294037 0.3101653456687927
-1.9567582607269287 0.3979779779911041 0.7490216493606567
-1.4419705867767334 -0.03423553705215454 0.6649081707000732
-0.7564499378204346 -0.09574350714683533 -0.5379604697227478
-0.2603972554206848 0.45304057002067566 -0.43845054507255554
0.24668240547180176 -0.056066155433654785 -0.9138267040252686
-1.1039395332336426 0.20495861768722534 -0.5617454051971436
-0.15938831865787506 0.3857491910457611 -0.2905140519142151
-1.9633327722549438 0.6120454668998718 -0.14116543531417847
-0.8871585130691528 0.5143423080444336 -0.5426135063171387
-1.6766144037246704 0.09945079684257507 1.7295092344284058
-0.5937422513961792 0.07116805016994476 0.5845776796340942
0.19963353872299194 -0.13747096061706543 -0.596351146697998
0.4317569136619568 0.032369375228881836 0.5647987127304077
0.3289738893508911 -0.037439197301864624 -0.09415306895971298
-1.7560580968856812 0.3893482983112335 0.5419055223464966
-1.3436909914016724 0.3827272057533264 0.13158845901489258
-1.6881519556045532 0.0441620796918869 -0.29215362668037415
-1.4461888074874878 0.12484531104564667 0.03954851254820824
-1.4147433042526245 0.5595001578330994 -0.43386515974998474
-0.7816812992095947 -0.06918182969093323 0.46918389201164246
-1.4970484972000122 0.17596501111984253 0.2494467943906784
-1.6099761724472046 0.03625635802745819 0.7809779644012451
-1.8369500637054443 -0.047561705112457275 0.32566213607788086
-0.9175613522529602 0.20781010389328003 -0.606703519821167
-0.9917740821838379 0.5480619668960571 0.5545169711112976
-0.9617626070976257 0.040740519762039185 1.1740868091583252
-1.317215919494629 0.06862349808216095 -0.6112502813339233
-0.6857167482376099 -0.04686206579208374 -0.5208340883255005
-0.38744139671325684 -0.05020499229431152 -0.009305250830948353
-0.06483222544193268 0.04565383493900299 -0.3745609521865845
0.503490149974823 -0.0539192259311676 -0.8639411926269531
-1.2649366855621338 -0.1205148696899414 0.03709501773118973
-1.723396897315979 0.1900208592414856 1.3025503158569336
-0.2632122039794922 -0.08158117532730103 0.31332242488861084
-1.306093692779541 0.2116517424583435 -0.3539692163467407
-0.3490277826786041 0.066947340965271 0.916153073310852
-1.3119826316833496 0.14577318727970123 -0.6135157346725464
0.1710042953491211 0.3523818850517273 0.23733361065387726
-0.618300199508667 0.05012586712837219 0.22578266263008118
0.24646402895450592 0.1899259090423584 -0.1507328301668167
-1.145603895187378 0.1884712129831314 -0.253741979598999
-0.3365994393825531 0.251677930355072 0.2759181261062622
-1.9379438161849976 0.023627936840057373 -0.36093229055404663
-0.715690553188324 0.0037527233362197876 -0.050573986023664474
-1.1835733652114868 0.179940864443779 -0.1118619441986084
-0.6277130842208862 0.386508047580719 0.2181650549173355
0.13292115926742554 -0.06656140089035034 -0.10860361158847809
-0.6161389946937561 -0.00476449728012085 -0.045113883912563324
-1.6578502655029297 -0.05667087435722351 0.44894248247146606
-2.0235822200775146 -0.008749276399612427 0.35113298892974854
-0.9268513917922974 0.4681171774864197 -0.7564245462417603
-2.0210342407226562 0.3460809588432312 -0.6861376762390137
-2.5329723358154297 0.08496531844139099 0.09865371882915497
-1.7227755784988403 0.2811959385871887 -0.11667799949645996
-0.057403355836868286 -0.10663777589797974 -0.06954191625118256
-0.4173556864261627 0.3603714108467102 -0.36139771342277527
-0.9689649343490601 0.007002636790275574 0.10232432186603546
-1.4639602899551392 0.07345317304134369 -0.8028126358985901
-0.972145140171051 0.49335962533950806 -0.09776609390974045
-1.0012894868850708 0.40833747386932373 -0.39225301146507263
-0.9158023595809937 0.34974703192710876 0.32689353823661804
-1.7416788339614868 0.5567255020141602 -0.056702107191085815
-0.9836124181747437 0.4216843247413635 0.34976693987846375
-0.6807240843772888 0.29680579900741577 -0.4015370309352875
-1.0443364381790161 -0.07832765579223633 -0.8790119290351868
-1.1036864519119263 -0.12513625621795654 -0.6467586755752563
-1.362333059310913 0.45965689420700073 -0.2196025401353836
-1.2652473449707031 0.036352530121803284 0.2651125192642212
0.6433501839637756 0.06253013014793396 0.9518243074417114
-0.5466315746307373 0.5565676689147949 0.3110928535461426
-1.7803382873535156 0.4192635118961334 0.6411449313163757
-1.8312010765075684 0.07669462263584137 -0.022546205669641495
-1.5180096626281738 0.09129223227500916 0.2460896074771881
-1.499467372894287 0.11596725881099701 -0.14174658060073853
-0.7547951340675354 0.5668367147445679 -0.057399850338697433
-0.45442357659339905 -0.005187809467315674 0.7782564759254456
1.437047004699707 0.19018596410751343 0.4693431556224823
-0.496343195438385 -0.01153862476348877 -0.10565629601478577
-0.8411698341369629 0.24099473655223846 -0.4056810736656189
-0.5494555830955505 0.37005749344825745 -0.05254564806818962
-0.17825275659561157 0.46567192673683167 0.13310331106185913
-1.236093282699585 0.0067656636238098145 1.25406813621521
-0.5928977727890015 -0.08768492937088013 0.5213454365730286
-1.9057618379592896 0.18482112884521484 -0.6081586480140686
-1.6887574195861816 0.019223392009735107 -0.21473661065101624
-0.7622174024581909 0.24453218281269073 -0.19736450910568237
-0.7545920610427856 0.4032418429851532 -0.1656496673822403
-1.9085456132888794 0.1591237485408783 -1.5887805223464966
-1.0144051313400269 -0.11817470192909241 0.40529391169548035
-1.1677898168563843 0.4191049337387085 0.2807489037513733
0.7189162969589233 0.07151570916175842 -0.0790012776851654
-1.8350110054016113 0.1496351659297943 1.360105276107788
0.3221748471260071 -0.11685293912887573 -0.51971036195755
-0.8080140352249146 -0.10869958996772766 0.3392912745475769
0.49265995621681213 0.4088705778121948 0.012482816353440285
-1.2613428831100464 0.036081522703170776 1.1475780010223389
0.13756468892097473 -0.12015968561172485 -0.08568703383207321
-0.5929531455039978 0.158849835395813 0.8388586044311523
-0.4129275381565094 -0.09817886352539062 -0.5070456266403198
-0.24477419257164001 0.06699348986148834 0.008872652426362038
-2.102571964263916 0.16560836136341095 -0.9550344944000244
-0.8485920429229736 -0.04175034165382385 0.3384087085723877
-0.2033410370349884 0.3218955993652344 0.4674268364906311
0.07740813493728638 0.2794424295425415 0.1248226910829544
-0.7904067039489746 0.4498918652534485 0.2701277732849121
-1.0513520240783691 -0.09219658374786377 -0.5396957397460938
-0.8676483631134033 0.06628245115280151 0.7766991853713989
1.1433496475219727 -0.05452620983123779 -0.5771079659461975
0.22546698153018951 -0.02094191312789917 -0.40102335810661316
-1.66073477268219 0.24758335947990417 1.127773642539978
-1.0027424097061157 0.2853911519050598 0.6967002749443054
0.9571290016174316 0.014497950673103333 -0.5936216115951538
-2.4434173107147217 0.08964446187019348 0.058716222643852234
-1.0225433111190796 0.1392732709646225 -0.751895010471344
-1.626857042312622 0.013692408800125122 0.04974905773997307
0.9843188524246216 0.008966058492660522 -0.48606711626052856
-1.828234314918518 0.19189079105854034 0.022909214720129967
0.29711365699768066 0.2835860848426819 0.3913821280002594
1.4234992265701294 0.007982373237609863 0.1807483285665512
-0.11546976864337921 0.04586920142173767 -0.25146299600601196
0.7598937153816223 -0.07311344146728516 0.08248760551214218
-0.329913467168808 0.21128860116004944 0.28368884325027466
-0.6114661693572998 0.4319247007369995 0.1567329466342926
1.4273189306259155 0.004122406244277954 0.1853504478931427
-0.23019574582576752 0.08571287989616394 1.0469485521316528
-0.3801599442958832 0.3954818844795227 -0.6977282166481018
-0.6891042590141296 0.3314360976219177 0.045557450503110886
-1.029606580734253 0.19488786160945892 -0.04366116598248482
-0.1914728879928589 0.30601751804351807 -0.8377342224121094
0.3352885842323303 0.21334102749824524 0.6167638301849365
-2.8579413890838623 0.33928853273391724 0.17140069603919983
-0.9463945031166077 -0.06910750269889832 0.80540931224823
-1.5606828927993774 0.08979886770248413 0.3249519467353821
-0.9304565191268921 0.5719050168991089 -0.4368985891342163
-0.769343912601471 0.6092170476913452 0.050389453768730164
-2.493725061416626 0.4648541212081909 -0.8892974257469177
-0.6896858215332031 0.16007424890995026 0.5538051128387451
-1.9138166904449463 0.368069052696228 -0.019349047914147377
0.33355584740638733 0.008104115724563599 0.5408236980438232
0.09978745877742767 0.19183528423309326 0.10729960352182388
-1.3341318368911743 0.4251413941383362 -0.5016368627548218
-0.19360746443271637 0.16180755198001862 0.2865213453769684
-1.483845591545105 0.1564822643995285 -0.11915801465511322
0.387298047542572 0.25816941261291504 -0.3909526467323303
0.9492032527923584 -0.07788270711898804 -0.33774334192276
-2.2103500366210938 0.1280602365732193 -0.4504852890968323
-0.9777988791465759 0.0993562638759613 0.1565425843000412
-0.7079964876174927 -0.13171237707138062 -0.12160413712263107
-0.5269859433174133 0.3639509081840515 -0.7264394760131836
-1.0861843824386597 0.07834817469120026 -0.6607449650764465
-0.19105660915374756 0.41707438230514526 0.7856858372688293
-0.6839616894721985 0.2744511365890503 0.1336413323879242
0.10819314420223236 0.250894695520401 -0.14920057356357574
1.0740947723388672 -0.015434086322784424 0.08322837203741074
-1.8902045488357544 -0.12457585334777832 -0.07971514761447906
-0.9624158143997192 0.15955886244773865 0.14662258327007294
-2.1221835613250732 0.20747850835323334 1.5971488952636719
-0.8669875264167786 -0.08560341596603394 -0.500822901725769
-0.0208231583237648 0.010326102375984192 -0.3402995765209198
0.5153208374977112 0.3103008270263672 -0.06194991245865822
-0.03137242794036865 0.19262532889842987 -0.3259894549846649
-2.671372413635254 0.5202732086181641 0.6760508418083191
-0.13475295901298523 -0.06720274686813354 -0.1616523712873459
-0.3915467858314514 0.36828142404556274 -0.1486489176750183
-0.13133983314037323 0.520825982093811 0.2720303535461426
-1.3717550039291382 0.1816592961549759 -0.4679819345474243
0.6910516619682312 -0.02137431502342224 0.3323601186275482
-0.723766565322876 0.3516969084739685 -0.4761945307254791
-1.0247457027435303 0.22059309482574463 -0.25014039874076843
0.8471136689186096 0.16186515986919403 -0.07536954432725906
-0.7293517589569092 0.31274598836898804 0.05324836075305939
-1.3835229873657227 0.49827009439468384 -0.10381805151700974
-0.27014756202697754 0.0650177150964737 -0.7359448075294495
-2.8564205169677734 0.3729690909385681 -0.5177605152130127
-2.3997395038604736 0.39683008193969727 -0.3469061553478241
0.6563485860824585 -0.047562211751937866 -0.4284302592277527
-1.8846226930618286 0.045578375458717346 0.3885883688926697
-1.2297518253326416 0.2291378676891327 -0.45422565937042236
-1.8042988777160645 0.15396910905838013 -0.2949818968772888
0.7014589309692383 0.05620072782039642 -0.10088339447975159
-1.5868451595306396 -0.0038511157035827637 -0.8635958433151245
0.387157142162323 -0.038370221853256226 -0.08519123494625092
0.11886908113956451 0.152622789144516 0.12795159220695496
-1.2154605388641357 0.2509170472621918 1.0221288204193115
0.2218957096338272 0.24898365139961243 0.26826873421669006
0.12438417971134186 -0.08865481615066528 0.6746253371238708
-0.260586142539978 0.155071422457695 -0.29225635528564453
-1.7587738037109375 0.35162287950515747 1.0708812475204468
-0.10755081474781036 0.2746686339378357 0.05706750601530075
-0.7410181760787964 -0.15715926885604858 0.6253761053085327
-1.4081062078475952 0.5007513761520386 -0.7511662244796753
-0.387319952249527 -0.019881725311279297 -0.23561619222164154
-2.08246111869812 0.23125265538692474 -0.13005778193473816
-0.8685146570205688 -0.1324692964553833 0.32146596908569336
-1.7933857440948486 0.5653053522109985 0.4627050757408142
-1.538604974746704 0.04461228847503662 1.1992400884628296
-2.6541919708251953 0.3146073818206787 -0.5513295531272888
0.22065897285938263 0.03389833867549896 -0.2589084506034851
0.6619181036949158 -0.05486571788787842 0.12135444581508636
-1.1848946809768677 0.01049371063709259 -0.42707154154777527
-0.5285758972167969 -0.06454551219940186 -0.5571277737617493
-0.8782873153686523 0.013058394193649292 0.33243563771247864
-0.5328726172447205 0.37774431705474854 -0.5112370848655701
-1.8938195705413818 0.12039369344711304 0.739952802658081
-0.29041722416877747 0.16033725440502167 0.0678451806306839
-1.0595016479492188 0.46776852011680603 0.6988946795463562
1.444011926651001 0.3239927291870117 -0.07093104720115662
0.15159936249256134 0.3809332847595215 -0.57936692237854
-0.2955589294433594 0.08623868227005005 0.24071528017520905
-0.8703521490097046 0.2021193653345108 0.020074687898159027
-0.36331602931022644 0.32756689190864563 0.2633293569087982
0.8051151633262634 -0.06551173329353333 -0.31454700231552124
-1.0695040225982666 0.09610490500926971 0.5967195630073547
-0.8532140254974365 0.19847095012664795 0.8069875240325928
-0.1397845596075058 0.42482441663742065 -0.05692223086953163
-1.507800579071045 0.2884954810142517 -0.6524190902709961
-0.8282898664474487 0.18255279958248138 -0.02825358510017395
-2.0538341999053955 0.02264752984046936 0.7851809859275818
-0.6531332731246948 0.10707071423530579 -0.0960845872759819
-1.8632735013961792 0.32632917165756226 0.005292628891766071
-0.7863388061523438 0.29481005668640137 0.0648970678448677
-1.3672516345977783 0.6608968377113342 0.22705663740634918
-1.4620708227157593 -0.041750311851501465 -0.4507787227630615
-1.846002459526062 -0.03220120072364807 0.16105689108371735
0.03490607440471649 0.15935222804546356 0.44323012232780457
-1.699440598487854 0.05534838140010834 0.4276066720485687
-0.697314977645874 0.03848116099834442 -0.8027064204216003
0.47831007838249207 0.22301940619945526 0.423540860414505
-1.84402334690094 0.1432439088821411 -0.7229302525520325
-1.4128409624099731 0.15293969213962555 -0.33336159586906433
-0.41455408930778503 0.4993753731250763 -0.03173702582716942
-1.1305797100067139 -0.01963818073272705 -0.39381179213523865
-1.0507593154907227 0.14209111034870148 0.6311915516853333
-0.46771711111068726 -0.10724771022796631 0.5194839239120483
-0.4969973862171173 -0.05801743268966675 -1.072597622871399
-1.0733484029769897 -0.006159603595733643 0.3615635335445404
0.59641033411026 -0.05420815944671631 -0.3815835118293762
-1.8084325790405273 0.5530413389205933 0.4633448123931885
0.08219708502292633 0.4826706349849701 -0.21644993126392365
-1.45944082736969 -0.064045250415802 0.602563202381134
-1.2214488983154297 -0.032082974910736084 0.07532322406768799
0.20230358839035034 0.1330624371767044 -0.3496527671813965
-0.8810375332832336 0.4355211853981018 -0.6257221698760986
-1.4190534353256226 0.45044848322868347 0.27709507942199707
-0.7906306982040405 0.5014285445213318 -0.2509933412075043
-1.7845189571380615 0.02620476484298706 0.8754669427871704
-0.38077419996261597 0.44764724373817444 -0.5551742911338806
-0.9610369801521301 -0.02263978123664856 0.41459035873413086
-1.412087082862854 0.38792651891708374 0.06576205790042877
-0.9099645018577576 0.33437249064445496 0.39304253458976746
-0.6794124245643616 0.0641990602016449 -0.7170112133026123
-0.8098281621932983 0.20237503945827484 -0.4340847134590149
-1.5672593116760254 0.3246481120586395 -0.5382627248764038
-0.6224358081817627 -0.19670456647872925 -0.21490906178951263
-0.1641676127910614 0.09776509553194046 1.0913851261138916
-1.8070651292800903 0.3617824912071228 0.8955153822898865
-2.80722975730896 0.4336897134780884 0.38248586654663086
-1.6687355041503906 -0.054835736751556396 0.4742475152015686
-1.1896823644638062 -0.005204379558563232 -0.02272154577076435
-0.8154256939888 0.45815932750701904 -0.4772281348705292
-2.030149459838867 0.12766583263874054 -0.5918818116188049
-1.5837582349777222 0.1332767903804779 -0.4998370110988617
-1.9610280990600586 0.11208544671535492 0.6224595308303833
-0.13193140923976898 0.3006573021411896 0.39092838764190674
-0.6247642636299133 0.576572597026825 -0.20000815391540527
-1.0585861206054688 0.2999376654624939 0.1551261693239212
-2.2447516918182373 0.5070432424545288 0.6226500868797302
-1.6285215616226196 0.555182695388794 -0.0764884203672409
-1.2922085523605347 0.5002862215042114 0.11797069758176804
1.4532264471054077 0.2492632269859314 -0.34550291299819946
0.4453210234642029 -0.018706291913986206 0.2776389718055725
-0.5521823167800903 0.4030502438545227 0.569265604019165
-0.6891778707504272 -0.08747655153274536 0.49410688877105713
0.4740442931652069 0.12105274200439453 -0.5186598300933838
0.023651614785194397 0.42920830845832825 -0.6059173941612244
-1.8260797262191772 0.5403909683227539 0.5209490060806274
0.29819872975349426 -0.0380094051361084 -0.8085333704948425
-0.33089032769203186 0.3879059851169586 0.011499234475195408
-1.6464248895645142 -0.061767518520355225 -0.04440106078982353
-1.672720193862915 0.42220261693000793 -1.0021920204162598
-1.3371559381484985 0.0516657829284668 1.2107725143432617
0.2708878517150879 0.16474208235740662 -0.28777801990509033
-0.03155301883816719 0.07116825878620148 0.7684732675552368
-1.892564058303833 0.1167491227388382 -0.3874596953392029
-0.5807290077209473 0.5116701722145081 0.09046442806720734
-0.46290066838264465 -0.15113097429275513 -0.04180433228611946
-1.2643128633499146 0.545755922794342 -0.22922208905220032
-0.16754314303398132 -0.07862237095832825 -0.5184474587440491
0.182229682803154 0.2969661355018616 -0.21627667546272278
-0.020534254610538483 0.18676437437534332 0.02775561437010765
1.015637755393982 -0.05293014645576477 0.08985266089439392
0.34772104024887085 0.14416515827178955 -0.7123591899871826
-2.324350595474243 0.38560807704925537 -0.13864463567733765
-0.7127532958984375 -0.1373806595802307 0.589536726474762
-0.8538150787353516 -0.10896271467208862 0.7055493593215942
-0.07422465831041336 -0.03314012289047241 0.40235844254493713
-0.37920576333999634 -0.09383288025856018 0.36975687742233276
-1.904340147972107 0.10207128524780273 -0.7944669127464294
-1.7684743404388428 0.070306196808815 -0.03613744676113129
-0.93956458568573 -0.0848468542098999 -0.6637157201766968
-1.8456591367721558 0.44231629371643066 0.7853761315345764
-0.9549676179885864 0.19405648112297058 -0.24169282615184784
-0.010885022580623627 -0.08431553840637207 -0.4345828592777252
-1.5067298412322998 -0.08559298515319824 0.4400434195995331
-0.25650566816329956 0.36327171325683594 0.42381566762924194
0.29742318391799927 0.41205477714538574 0.46374034881591797
-2.1180973052978516 -0.013552248477935791 0.5599795579910278
-1.4589896202087402 0.5151742696762085 0.39806443452835083
0.9083496332168579 0.01469247043132782 -0.2928418517112732
-1.3472249507904053 0.16465352475643158 -0.2120758593082428
0.45573389530181885 0.310727596282959 -0.02139066718518734
-2.1244168281555176 0.0486375093460083 -0.9318273067474365
-0.7804078459739685 0.37468022108078003 0.26878511905670166
-0.12661676108837128 0.16180959343910217 -0.7966455221176147
-1.1525017023086548 0.045489028096199036 -0.41887855529785156
1.2755035161972046 0.056725263595581055 0.4407498836517334
-0.8621852397918701 0.10446152091026306 0.2773577570915222
-2.124058723449707 0.0032088160514831543 -0.28439053893089294
-1.6007217168807983 0.48413658142089844 0.2789316773414612
-0.9076781868934631 0.4617914855480194 -0.1764914095401764
-0.888286292552948 -0.027500897645950317 0.9018313884735107
-1.5658077001571655 0.22608038783073425 1.2835478782653809
1.7940483093261719 0.05711820721626282 0.2638992369174957
-1.156899333000183 0.18797667324543 1.0051748752593994
-0.28372281789779663 0.15829432010650635 -0.1551869660615921
-0.6319848299026489 0.47679975628852844 -0.12317155301570892
-0.5610319375991821 -0.10838449001312256 -0.7621681690216064
-0.5165405869483948 0.05232073366641998 0.4467185437679291
-1.5634528398513794 0.31633371114730835 0.08640233427286148
-0.7497537136077881 -0.01958635449409485 0.21546894311904907
-0.9995334148406982 0.5162113308906555 0.22193804383277893
-1.5263562202453613 0.4608091711997986 0.43094736337661743
-0.3013695776462555 0.09208858013153076 -0.8090102076530457
0.531336784362793 0.038056522607803345 -0.08912438154220581
-0.018057752400636673 0.02837321162223816 0.8801354169845581
-0.4100199043750763 0.3161740005016327 0.7701637148857117
-0.6798767447471619 -0.11546385288238525 0.44477203488349915
-1.1695845127105713 -0.022828489542007446 -0.2429809421300888
-1.9281220436096191 0.5645233988761902 -0.4758457839488983
-1.3165254592895508 0.1758805513381958 0.03975265473127365
1.663849115371704 0.12346586585044861 -0.35610249638557434
-0.17663893103599548 0.4395870864391327 0.03249526023864746
-0.2110656052827835 0.044172465801239014 0.04284564405679703
1.191740870475769 -0.03469035029411316 -0.011049941182136536
0.22341056168079376 0.3345820903778076 -0.22842642664909363
0.4127424657344818 0.012074559926986694 -0.13276907801628113
0.07337281852960587 0.18147286772727966 -0.30487313866615295
-0.21893323957920074 0.0912722498178482 -0.0099796699360013
-2.225039005279541 0.07578539848327637 -1.1419373750686646
8.796900510787964e-05 -0.04714322090148926 0.2625206708908081
-1.992904543876648 0.4102878272533417 0.39247655868530273
0.30961835384368896 0.3398362696170807 0.26506781578063965
-1.5391221046447754 0.11532256007194519 -0.5109171867370605
-1.6956064701080322 0.016347646713256836 -0.4235553741455078
-1.835111379623413 0.131998673081398 -0.4134698510169983
-1.9678038358688354 0.0731513500213623 0.7373129725456238
-1.4478079080581665 0.10516810417175293 0.36605215072631836
-0.5365056395530701 0.08692257106304169 1.0231894254684448
-1.3106261491775513 0.2930262088775635 0.03182353079319
-1.861175775527954 0.549359142780304 0.6579214930534363
-1.2327319383621216 0.05719618499279022 -0.1106388121843338
-0.2566401958465576 -0.13395476341247559 -0.20941965281963348
-1.2452205419540405 0.10194022953510284 -0.03743009269237518
-0.6601905226707458 0.10052415728569031 0.4270513355731964
-0.6631906032562256 0.01115347445011139 -0.8639965057373047
-1.8384301662445068 0.2624974250793457 0.4173968732357025
-1.3381954431533813 0.15694837272167206 0.32510441541671753
0.7971175909042358 -0.00836634635925293 0.2037755846977234
-1.92307710647583 0.4697398543357849 -1.081986904144287
-2.4231245517730713 0.23960761725902557 -0.7822191119194031
-1.0243477821350098 -0.0828741192817688 -0.5611074566841125
-1.0398107767105103 0.015072867274284363 -0.5670731663703918
-1.5224545001983643 0.09344112873077393 0.7998760938644409
-1.754006028175354 -0.04817172884941101 0.46573108434677124
-0.2628406286239624 0.5202475190162659 0.060878921300172806
-1.6617686748504639 0.6486537456512451 -0.20251376926898956
-2.516547441482544 0.08221614360809326 0.4554821252822876
1.5495880842208862 0.10926902294158936 -0.38011690974235535
0.7522963285446167 0.26084381341934204 -0.25514620542526245
-1.27973210811615 0.41450199484825134 0.2156626284122467
-1.612596035003662 0.4581950604915619 -0.5502790212631226
-0.18413180112838745 0.08526751399040222 0.8600558042526245
-2.0274486541748047 0.2517753839492798 1.1096515655517578
-1.0198400020599365 0.24148307740688324 -0.05194691941142082
-0.6766185760498047 0.4919265806674957 0.04851074144244194
-1.845468521118164 0.6495276093482971 -0.30543574690818787
-0.1821233183145523 0.15255233645439148 0.1106388047337532
-2.137967824935913 0.271404504776001 0.021134139969944954
0.22849607467651367 0.40135833621025085 -0.12806616723537445
-0.09494355320930481 0.01567980647087097 0.5726152658462524
0.8675814270973206 -0.055962443351745605 0.08983627706766129
-1.0697983503341675 0.5603751540184021 -0.5525449514389038
-0.5199983716011047 -0.02760598063468933 0.8531482815742493
-0.8254588842391968 -0.10770925879478455 0.70516037940979
-0.2879659831523895 0.32229501008987427 -0.025854477658867836
-1.557257890701294 0.3430602550506592 0.2553524672985077
-0.9205072522163391 0.5829249620437622 0.20914891362190247
-1.0321141481399536 0.3458542823791504 0.7297402024269104
-0.4115901291370392 0.3751967251300812 -0.26355040073394775
0.7591989040374756 0.15279367566108704 -0.31303733587265015
1.2972891330718994 0.006037116050720215 -0.4659900367259979
-0.5034092664718628 0.10816973447799683 0.25923100113868713
-2.169332504272461 0.1621982902288437 0.18304948508739471
-0.4725610315799713 0.3317740559577942 -0.33639293909072876
-1.5138239860534668 0.3777449131011963 -0.49891871213912964
-0.39348262548446655 -0.10271650552749634 0.0556996688246727
-0.44429945945739746 0.44126278162002563 -0.6020890474319458
0.12697897851467133 0.240925595164299 -0.2004137486219406
-1.1369704008102417 0.5394326448440552 0.09376858174800873
0.19190701842308044 0.2022460401058197 -0.30523914098739624
-1.7248308658599854 0.2593012750148773 0.8804013729095459
-0.3942563533782959 -0.08965450525283813 -0.08864187449216843
-1.2988351583480835 -0.09955006837844849 -0.5574144124984741
-1.1713922023773193 0.12967757880687714 0.1354239284992218
-0.29949140548706055 0.5307515263557434 0.0890868678689003
0.9415123462677002 0.36108553409576416 0.1858711540699005
-0.7067219018936157 0.10709533095359802 0.05648478493094444
-1.1106586456298828 0.5149705410003662 -0.6786689758300781
-0.3870985805988312 0.00465606153011322 -0.005618276074528694
0.8038005828857422 0.269817054271698 -0.11671463400125504
-0.13342225551605225 0.193424254655838 0.779862642288208
-1.6311296224594116 0.12662146985530853 -0.6126503348350525
-0.47521600127220154 0.026774093508720398 1.0390393733978271
0.5453615188598633 0.3198857605457306 -0.07614333927631378
-0.8587062954902649 0.5886978507041931 0.4642758369445801
-1.2094292640686035 0.4325316250324249 -0.9441317319869995
0.7823284268379211 0.29835033416748047 0.20740017294883728
-0.9946494698524475 0.1869567334651947 0.5541927814483643
-1.2898434400558472 -0.04156854748725891 0.8360373973846436
0.3979649543762207 0.0369514524936676 0.04424363002181053
-0.4525212347507477 0.4177122116088867 0.7262330055236816
-0.24432671070098877 0.43080681562423706 -0.5639415979385376
-1.2615975141525269 -0.02149444818496704 -0.02576417475938797
1.3216034173965454 -0.003912121057510376 -0.46044668555259705
-1.7802751064300537 0.24965828657150269 -0.2673410177230835
-1.2881468534469604 0.03787150979042053 0.8148087859153748
-1.7581093311309814 0.5253320336341858 0.5989841222763062
-2.671847105026245 0.4009707570075989 0.1916869431734085
0.118723064661026 0.21152696013450623 0.769645094871521
-2.7210731506347656 0.4294060468673706 0.3894115686416626
-0.04790963977575302 0.5241124629974365 -0.008321435190737247
-1.732076644897461 0.02427394688129425 -0.018984345719218254
0.13789662718772888 0.4220767319202423 0.41126567125320435
-1.471624493598938 0.48216280341148376 -0.408199667930603
0.23676300048828125 0.4845157265663147 -0.5024251937866211
-2.4024157524108887 0.2146998941898346 -0.30458444356918335
-0.4835260510444641 -0.06497237086296082 0.09118077903985977
-0.9689085483551025 0.20920485258102417 0.2861168086528778
-0.4541272222995758 -0.060090482234954834 -0.6246351003646851
-1.2062757015228271 -0.02295544743537903 0.7155084013938904
-0.5116714239120483 0.4698900282382965 0.06898421794176102
-0.6142246127128601 0.18471978604793549 0.531596839427948
0.7970364689826965 0.48995521664619446 -0.3579377830028534
-0.4282420575618744 0.002476125955581665 0.47329241037368774
-0.2881602644920349 -0.015815764665603638 0.626740574836731
-0.1837843656539917 0.18284454941749573 0.6333526968955994
-0.2605520486831665 0.019870206713676453 -0.17160648107528687
-1.158108115196228 -0.07435700297355652 -0.2778152823448181
-1.0443722009658813 0.02961614727973938 0.1398686170578003
-1.2151753902435303 0.057943254709243774 0.2880953848361969
-1.8334697484970093 0.07167673110961914 1.1778138875961304
0.21476362645626068 -0.13414716720581055 0.1633027046918869
0.4393707513809204 0.15449121594429016 -0.34295961260795593
-1.600723147392273 0.6235594749450684 -0.12279859185218811
-1.3903560638427734 0.21721026301383972 0.506820023059845
-1.0118309259414673 0.25874489545822144 0.2862001359462738
-1.9157650470733643 0.27870792150497437 0.056270476430654526
-0.28845348954200745 -0.1014208197593689 0.0006457976996898651
-0.7287021279335022 0.10439856350421906 0.11302816867828369
0.4767206311225891 0.297781378030777 -0.5342235565185547
0.45369261503219604 0.15256711840629578 0.1396094411611557
-0.6156831979751587 0.19843097031116486 0.1233285665512085
-0.8568216562271118 0.1976141631603241 -0.33136171102523804
-0.46286118030548096 0.10347388684749603 -0.7733134627342224
-0.6366579532623291 0.43902888894081116 -0.18902790546417236
1.4698939323425293 0.05255265533924103 -0.03164350241422653
1.6676973104476929 0.09085164964199066 -0.13902541995048523
-1.4388471841812134 0.21736875176429749 0.25043007731437683
-1.0889273881912231 0.5067890882492065 -0.5416010022163391
0.3014890253543854 0.06449112296104431 -0.4212409555912018
-0.2751787006855011 -0.09612151980400085 -0.13628414273262024
-2.2352068424224854 0.20202428102493286 -0.2518969774246216
-1.115973711013794 0.5508118867874146 -0.06218015030026436
1.4475969076156616 0.3878766894340515 0.1120987981557846
0.06494887173175812 0.05103957653045654 -0.3977217376232147
-1.4291373491287231 -0.04679879546165466 0.040522605180740356
-0.24615472555160522 -0.06733813881874084 -0.11268684267997742
-1.6811069250106812 0.1810840666294098 -0.33953478932380676
-0.582554280757904 0.36084017157554626 0.3537079095840454
-1.0457721948623657 0.08398503065109253 -0.09191228449344635
-0.6219701170921326 0.05629625916481018 1.0855962038040161
1.8778245449066162 0.022157400846481323 -0.07129470258951187
-1.6413038969039917 0.3421247601509094 -0.20839090645313263
-1.7080674171447754 0.4697859287261963 -0.035480618476867676
0.5319123864173889 0.1674090325832367 0.6118951439857483
-0.2283751517534256 0.24643287062644958 0.35710036754608154
-0.2901879549026489 -0.09800133109092712 -0.3527064919471741
-1.558961272239685 0.025584906339645386 0.11208520829677582
-1.2903741598129272 0.10956966876983643 -0.027561938390135765
0.031399209052324295 0.12441791594028473 -0.45574629306793213
-0.973382830619812 0.07058410346508026 -0.23373611271381378
-0.14910554885864258 -0.05842307209968567 -0.7906257510185242
-0.6714286804199219 0.08234840631484985 0.7098893523216248
-1.3356359004974365 0.46770429611206055 0.791863203048706
-1.1820216178894043 0.4117463529109955 -0.8048305511474609
-0.8397766351699829 0.4693022668361664 -0.11414940655231476
0.6000819206237793 0.27123257517814636 -0.5402724742889404
-0.034208521246910095 0.06534172594547272 0.5066965818405151
0.3586041033267975 -0.07500231266021729 0.2607091963291168
0.8849798440933228 0.17578144371509552 0.8983332514762878
-1.879087209701538 0.17574553191661835 0.09735410660505295
0.19409126043319702 0.15670360624790192 -0.3298127353191376
-1.3907301425933838 0.39838290214538574 -0.44977277517318726
-0.9718593955039978 -0.03787791728973389 -0.9188523292541504
-0.8969981074333191 -0.046423107385635376 -0.18076622486114502
-0.41805821657180786 0.3152506947517395 -0.14533044397830963
1.0249195098876953 0.3038477599620819 0.20058709383010864
-1.4026082754135132 0.18062250316143036 0.470142126083374
-0.7150869369506836 0.5027099847793579 -0.4727652668952942
0.8649482131004333 0.40017735958099365 -0.8777493238449097
-1.934813141822815 -0.002262324094772339 0.49770107865333557
-1.5924603939056396 0.20929494500160217 1.546043038368225
-1.6304985284805298 0.5042610168457031 -0.6747419834136963
-1.5918883085250854 0.22356761991977692 -0.639918863773346
-0.033592306077480316 0.15351302921772003 -0.14752766489982605
0.7407733798027039 0.24824216961860657 0.6614362597465515
-1.7679073810577393 0.4546714127063751 -0.4784667193889618
-1.0056158304214478 0.13700470328330994 -0.3272123634815216
-1.389734148979187 0.18479208648204803 -0.13928598165512085
-0.37441903352737427 0.3954378366470337 -0.11705378443002701
1.380755066871643 0.2674580216407776 0.14013811945915222
-1.7242257595062256 0.018379569053649902 -0.5712675452232361
-0.40961605310440063 0.18034927546977997 -0.16751384735107422
-2.3205904960632324 0.3262063264846802 0.9434677958488464
-0.5836101770401001 0.10859695076942444 0.26092517375946045
-1.487015962600708 -0.012650102376937866 0.6739979386329651
-1.2166926860809326 -0.03791394829750061 0.3603329658508301
-0.4599341154098511 -0.10276171565055847 0.336380273103714
0.17396274209022522 0.06524701416492462 -0.8479942083358765
-0.034342728555202484 -0.10835567116737366 0.027333125472068787
0.07226051390171051 -0.07582497596740723 -0.27805906534194946
1.3615789413452148 0.24775442481040955 -0.1755656898021698
-0.3824291527271271 0.46605250239372253 0.4918702244758606
-1.3403470516204834 -0.01002269983291626 -0.7993226051330566
-1.322334885597229 -0.028501778841018677 -0.03946607932448387
-1.521323800086975 0.1546860635280609 0.6205830574035645
-0.15106721222400665 0.292555034160614 0.5755102634429932
-0.167776957154274 0.06351529061794281 0.5029398798942566
-1.9241747856140137 -0.02319285273551941 0.26768335700035095
-1.1215111017227173 0.5986037254333496 0.12897634506225586
-0.8985435366630554 0.00011937320232391357 0.3520379364490509
-1.6058261394500732 0.0032999515533447266 -0.3570800721645355
-0.30047303438186646 0.23642025887966156 -0.5105846524238586
-2.1674959659576416 0.5353900790214539 0.5598565936088562
0.8393227458000183 0.3380016088485718 0.4815201461315155
-0.5719634294509888 -0.12072831392288208 0.0696912556886673
0.4180229902267456 -0.06996536254882812 0.017580168321728706
1.5909382104873657 0.051834315061569214 -0.3084716498851776
-1.732858419418335 0.4460221529006958 0.20442283153533936
-0.2042888104915619 0.15049561858177185 0.256625235080719
-0.8200998306274414 -0.03713861107826233 -0.2530392110347748
-0.08599288761615753 0.0321340411901474 0.1484026312828064
-0.7296936511993408 0.524986743927002 0.24265016615390778
0.08015801012516022 0.18238483369350433 0.32783499360084534
-1.6092233657836914 -0.058499276638031006 0.2388067990541458
-0.7396368980407715 0.05801413953304291 0.10666807740926743
-0.28193962574005127 -0.010831236839294434 -0.04402484744787216
-1.9987467527389526 -0.02736791968345642 -0.17203645408153534
-0.8891908526420593 0.1734265387058258 -0.08262994885444641
-1.1429613828659058 0.30252397060394287 -0.09516431391239166
-0.1836087554693222 0.23080268502235413 0.3561266362667084
-0.7167818546295166 0.43327999114990234 0.0008403905667364597
-0.9900656342506409 -0.001696258783340454 -1.008026123046875
-1.5914299488067627 -0.06265902519226074 0.07597547024488449
-0.08045422285795212 -0.06626909971237183 0.6289578676223755
0.8525974154472351 -0.02790069580078125 0.5307447910308838
-0.878978431224823 -0.10752785205841064 0.643893837928772
-1.210150957107544 -0.001328587532043457 -0.060160521417856216
0.7577524781227112 0.22318390011787415 0.5198510885238647
0.37905821204185486 -0.041838109493255615 -0.884873628616333
-2.0280895233154297 -0.030790746212005615 0.36069753766059875
-1.7451335191726685 0.1382279247045517 1.1588773727416992
-1.0652471780776978 0.389029860496521 -0.4023703634738922
-1.5940757989883423 0.21330438554286957 1.3344072103500366
-0.5836929678916931 0.441567987203598 0.7331647276878357
-2.3483457565307617 0.08693106472492218 -0.3732888996601105
-1.1310957670211792 -0.08579480648040771 0.6681385636329651
-0.6678943634033203 0.5042260885238647 0.19882723689079285
-0.4942972958087921 0.33468788862228394 0.7481415271759033
-1.604382872581482 0.0008790194988250732 0.03297607600688934
-1.7501099109649658 0.00033658742904663086 -0.405640572309494
0.33806920051574707 -0.027911126613616943 0.7716907262802124
0.19166666269302368 -0.054982781410217285 -0.8719394207000732
-1.3349366188049316 0.5436891913414001 0.08490191400051117
0.2983383536338806 0.32746994495391846 0.22790558636188507
-1.7844953536987305 0.31178802251815796 0.4941457509994507
-0.8486486077308655 0.4709695279598236 0.22002394497394562
-0.31981080770492554 0.09548595547676086 0.4557734727859497
-1.6992284059524536 0.09381356835365295 0.0934319943189621
-0.7745873332023621 0.5459478497505188 -0.1002449169754982
-0.6475529074668884 0.18983832001686096 -0.06289121508598328
0.4683738946914673 0.18945761024951935 0.0579710491001606
-0.9787384867668152 0.35959434509277344 0.09814780205488205
-1.019885540008545 0.2056632786989212 0.37899500131607056
-2.2526586055755615 0.12944021821022034 0.19772838056087494
-0.9102888107299805 0.27650851011276245 0.2166822850704193
-0.2387547641992569 0.07945568859577179 -0.1249818354845047
-1.9071496725082397 0.48627033829689026 -0.6478403210639954
-0.3523038625717163 -0.028407305479049683 0.30721235275268555
-0.8795480132102966 0.034274980425834656 1.065161108970642
-1.0642551183700562 0.005100756883621216 -0.47270071506500244
-0.9853448271751404 0.00263938307762146 -0.5076149106025696
-0.3315153419971466 0.08226759731769562 -0.7558732628822327
-1.3763700723648071 -0.010860294103622437 0.14280451834201813
-0.012558948248624802 0.23142093420028687 0.39572781324386597
-0.43354788422584534 0.12269723415374756 0.640344500541687
-0.10105375200510025 0.09354512393474579 0.2857806384563446
-0.9195746779441833 -0.08673298358917236 0.27947837114334106
-1.3090764284133911 0.3533094525337219 0.025533314794301987
-1.190117597579956 -0.09148713946342468 -0.4598986506462097
0.13845711946487427 0.027235671877861023 0.46767979860305786
-0.3850085437297821 0.12700651586055756 0.2743133008480072
-1.5466623306274414 -0.011498332023620605 0.8101235032081604
-0.6710642576217651 -0.07537439465522766 -0.35240328311920166
-0.5725175738334656 -0.08167946338653564 0.6864461302757263
-0.9652950763702393 0.13985708355903625 -0.6978615522384644
-2.4774222373962402 0.2320120632648468 0.07319721579551697
-1.7382588386535645 0.46143782138824463 0.1072467491030693
-0.8496175408363342 -0.15671533346176147 0.33754992485046387
-0.007895927876234055 0.06086455285549164 -0.8119150996208191
0.012337855994701385 -0.0015833079814910889 0.7034112215042114
-1.033774733543396 0.010189875960350037 -0.6005949974060059
-0.8329353928565979 0.37616413831710815 0.8181390166282654
-1.1462284326553345 0.004214391112327576 0.13739223778247833
-0.6813056468963623 0.35881781578063965 0.8631730079650879
0.11261659115552902 0.36522072553634644 -0.5538651347160339
0.21205133199691772 0.36820727586746216 -0.6727439761161804
-2.1268630027770996 0.20328044891357422 1.229827642440796
0.2598603367805481 0.4644293189048767 0.4960861802101135
-2.0371828079223633 0.5527753829956055 0.31005793809890747
-1.0075510740280151 0.313218891620636 0.03479085490107536
0.983870804309845 0.19923704862594604 0.14586761593818665
-1.2078310251235962 0.061967507004737854 0.013139510527253151
0.42562854290008545 0.46720805764198303 0.1330607831478119
-0.28988227248191833 0.31029778718948364 -1.0660271644592285
-1.8077924251556396 0.49207109212875366 0.7241995334625244
-1.8972015380859375 0.09770175814628601 1.2895373106002808
-0.18673427402973175 0.5063215494155884 0.5493096709251404
-1.5377358198165894 0.31013062596321106 -0.42132890224456787
-1.6616238355636597 -0.10542958974838257 0.39408835768699646
-1.5141279697418213 0.46244901418685913 0.3863178789615631
-1.5968050956726074 0.026761621236801147 0.9731966853141785
-1.3022761344909668 -0.013345330953598022 -0.44825321435928345
1.2144733667373657 0.26460617780685425 0.5411443114280701
-0.7249752879142761 -0.08767262101173401 -0.5691340565681458
-1.0860251188278198 -0.02471029758453369 0.16756029427051544
-0.8365093469619751 0.015826866030693054 0.057527024298906326
1.118796706199646 0.3480367064476013 -0.3824051022529602
-0.6554324626922607 0.07305100560188293 -0.35386574268341064
-1.67148756980896 0.4143691956996918 -0.11344125121831894
-0.7399424314498901 0.2817564606666565 0.0991365984082222
-1.008187174797058 0.0897122174501419 0.38665756583213806
-1.96784508228302 0.4149823784828186 0.3950570523738861
1.3902243375778198 0.27864381670951843 -0.30089202523231506
-1.5529621839523315 0.48356232047080994 0.6460432410240173
-0.688148558139801 0.353922039270401 0.2617203891277313
-1.464766025543213 0.4475851058959961 0.15678460896015167
-0.26327380537986755 -0.12364986538887024 -0.21774287521839142
-0.6216703057289124 0.43093347549438477 -0.5692359805107117
-1.0953965187072754 0.11867058277130127 -0.7656373977661133
-0.873978853225708 0.24408595263957977 0.4371202886104584
-1.5405733585357666 0.17666500806808472 -1.195547342300415
-2.0743579864501953 0.550020158290863 0.5227174758911133
-1.9315476417541504 0.046484678983688354 0.5354845523834229
-0.5584357380867004 -0.058269500732421875 0.5403504967689514
0.934938371181488 -0.06457677483558655 -0.126698300242424
-1.5477838516235352 0.11048224568367004 -1.5371317863464355
-1.7588860988616943 0.028359398245811462 0.17311345040798187
-0.8358787894248962 0.25098371505737305 -0.5356211066246033
-1.045283555984497 0.26711976528167725 -0.011805949732661247
-2.0859382152557373 0.05550813674926758 0.14450937509536743
