ply
format ascii 1.0
element vertex 814
property float x
property float y
property float z
end_header
-2.2218165397644043 0.7553533315658569 0.9487406611442566
-1.1607160568237305 0.667153000831604 1.0151537656784058
2.470818281173706 -0.12919700145721436 0.5760190486907959
-1.9212956428527832 -0.2145448923110962 0.27834025025367737
-0.4273827075958252 0.6737856268882751 0.982939600944519
1.7533512115478516 0.12729915976524353 0.5372508764266968
1.1136720180511475 0.6083307266235352 0.7695906162261963
1.5658913850784302 -0.32978928089141846 0.8848191499710083
-1.607168197631836 -0.007479146122932434 1.0227937698364258
-1.7707067728042603 -0.10648415982723236 0.3904624283313751
2.5015387535095215 -0.384229838848114 0.7732136249542236
-1.778290867805481 0.4354473948478699 -0.1526535004377365
1.5742608308792114 0.359786719083786 1.104552984237671
0.634515643119812 -0.408978134393692 -0.8746219277381897
-1.892051100730896 -0.12598730623722076 -0.6660651564598083
2.0669503211975098 -0.6903526186943054 0.9367573261260986
-1.535563588142395 0.46671241521835327 -0.26038676500320435
1.1864335536956787 0.6186957359313965 0.11179608106613159
-2.175288438796997 -0.30404841899871826 1.1152865886688232
-1.3336493968963623 -0.1415279507637024 -1.130157232284546
1.1429719924926758 -0.2925926148891449 -1.1852234601974487
-1.065879225730896 -0.05703204870223999 0.7214115858078003
1.8140698671340942 0.21268853545188904 -1.175601601600647
1.3694591522216797 0.538763165473938 -0.2857780456542969
-2.5899500846862793 0.4322053790092468 -0.6211759448051453
1.7225415706634521 -0.24952049553394318 0.750449001789093
-0.5391600131988525 0.788945734500885 0.9325029253959656
2.2622530460357666 0.41412976384162903 -0.407187283039093
-1.4704232215881348 -0.38835495710372925 0.9374480843544006
0.5528864860534668 0.06355142593383789 0.9055298566818237
0.5584818124771118 0.547931969165802 -0.5647538304328918
0.5093078017234802 -0.12628424167633057 -1.1483768224716187
-1.626591682434082 1.1440389156341553 0.7555443644523621
-1.9218765497207642 0.7936343550682068 -0.9723641872406006
2.468597173690796 0.38373199105262756 -0.10871876031160355
-2.231630563735962 1.116034746170044 0.8226492404937744
-1.085278034210205 -0.4112427830696106 0.1300474852323532
-2.3452987670898438 0.989547610282898 0.870353639125824
-1.4236270189285278 0.2789633572101593 -0.2531193494796753
2.9953219890594482 0.14528660476207733 0.3064708411693573
0.7258105278015137 0.5569379329681396 0.6139134764671326
2.813845634460449 -0.4961565136909485 0.5158243775367737
-2.170935869216919 0.5952099561691284 1.0013264417648315
-1.2435636520385742 0.11406143009662628 -0.49827203154563904
-0.08460748940706253 0.09406717866659164 1.1229634284973145
0.4380071461200714 0.9461474418640137 0.8600713014602661
1.594826579093933 -0.026693493127822876 -0.9596909284591675
1.4290063381195068 -0.4364611506462097 -0.37198662757873535
-0.16464760899543762 -0.4663556218147278 -1.1554547548294067
-2.4618687629699707 -0.023540601134300232 -0.1366235315799713
-1.5826815366744995 -0.2128387987613678 -0.3128049969673157
-0.47311723232269287 0.9451239705085754 -0.9244166612625122
1.7696614265441895 -0.4003245234489441 -1.2038203477859497
-2.662827730178833 0.10373024642467499 -0.5458853244781494
1.58927583694458 -0.4913812577724457 0.8594173789024353
-1.3250988721847534 0.4059799909591675 -0.15536795556545258
1.5841823816299438 -0.4411493241786957 -1.105223536491394
-1.6679010391235352 0.9791224598884583 -0.5578501224517822
0.11271482706069946 -0.11916440725326538 1.1271755695343018
-1.9259674549102783 -0.006227180361747742 1.0966544151306152
-0.8906616568565369 -0.3131849765777588 -0.604461133480072
-1.687584638595581 -0.5128894448280334 -1.0416959524154663
2.763823986053467 0.2562527358531952 0.5719342231750488
1.4749760627746582 -0.13209399580955505 0.7788450717926025
1.2045005559921265 -0.14982013404369354 -1.185070276260376
3.0958142280578613 -0.35367444157600403 -0.45661336183547974
2.9096951484680176 -0.18008935451507568 0.34678885340690613
-0.8650368452072144 1.1970956325531006 -0.10396750271320343
2.9164822101593018 -0.18220585584640503 0.976823627948761
0.12042412161827087 0.4265502691268921 0.6933066844940186
1.5205613374710083 0.1773676723241806 1.1595606803894043
-0.5387329459190369 0.9793022274971008 -0.4923246502876282
-2.277982711791992 0.23694559931755066 0.5618740320205688
2.3305866718292236 0.38042473793029785 -0.7462786436080933
2.4701831340789795 0.38007333874702454 -0.40887123346328735
-2.308609962463379 0.13264331221580505 0.6095798015594482
-1.8297542333602905 0.11150424927473068 -0.2185983657836914
-1.939932107925415 -0.1807815432548523 0.6566053032875061
-0.38181036710739136 0.8008098602294922 0.6401808261871338
2.6408116817474365 0.20927923917770386 1.0063579082489014
1.21039879322052 -0.2397608757019043 1.1487549543380737
1.9763720035552979 0.1519797146320343 -0.8573779463768005
-1.9679148197174072 0.43949776887893677 0.7525300979614258
2.9862911701202393 0.1156025379896164 0.38623934984207153
-2.077244520187378 0.46278902888298035 0.7353781461715698
2.4950506687164307 -0.06585893034934998 -0.4910812973976135
1.3885198831558228 -0.01355181634426117 -1.2054027318954468
0.7801558971405029 -0.2550460696220398 -0.007548704277724028
-1.4914664030075073 0.3561413288116455 0.03246138244867325
-0.8043371438980103 0.6813702583312988 -0.44224822521209717
0.0991397500038147 0.4676245450973511 1.0640387535095215
0.15606382489204407 0.39141571521759033 -0.19559353590011597
2.2130796909332275 0.39068546891212463 0.9384394288063049
1.568307876586914 0.22988909482955933 0.40210554003715515
-1.0731909275054932 1.1867890357971191 0.09335823357105255
-1.8790274858474731 -0.4258088767528534 -1.1538225412368774
2.643890857696533 -0.388815701007843 -0.6512176990509033
-2.397857427597046 -0.21092340350151062 -0.042833466082811356
-2.5298919677734375 -0.2220306545495987 -1.0068233013153076
0.2738727331161499 0.22320044040679932 0.17184200882911682
-1.6287815570831299 1.1674729585647583 0.21576811373233795
0.6112214922904968 0.9475728273391724 -0.3794541358947754
1.46571683883667 0.20379161834716797 0.10346005111932755
-0.37920626997947693 0.08886601030826569 1.1276322603225708
2.071910858154297 -0.06476561725139618 1.1314120292663574
-1.2598700523376465 0.2918187975883484 0.7952216863632202
-1.3714613914489746 -0.14091914892196655 0.09788932651281357
1.1285569667816162 0.6329966187477112 0.4427526891231537
2.2730636596679688 -0.36686116456985474 -0.46251198649406433
-2.4570183753967285 -0.042814433574676514 -0.9343783855438232
2.9977712631225586 0.14638297259807587 0.013634311966598034
-2.036184072494507 0.6605368852615356 0.70928955078125
-2.1448326110839844 0.34865543246269226 -0.25576063990592957
2.366879463195801 -0.21127910912036896 -0.0027834170032292604
-2.6527349948883057 -0.08742927014827728 -0.5428122878074646
0.013975940644741058 0.21406540274620056 -0.7705407738685608
1.5448980331420898 -0.2529124617576599 -0.7108024954795837
-1.3762108087539673 0.11312557756900787 0.7579541206359863
-0.2640995681285858 -0.13807529211044312 -0.81842041015625
1.616991400718689 0.0923737958073616 -0.5921022891998291
-1.8727011680603027 -0.2715136408805847 0.7720133066177368
-1.9125537872314453 0.261441707611084 -0.4058208465576172
1.2181930541992188 0.572453498840332 -0.7167075872421265
-1.486535906791687 -0.26705774664878845 -0.3877969980239868
-2.1084699630737305 0.58453369140625 0.6408374905586243
1.9759056568145752 -0.3541161119937897 0.8802416324615479
1.5360468626022339 -0.3192412853240967 0.0007221677806228399
-2.439150094985962 0.07135012745857239 -0.20511183142662048
-1.150516152381897 0.45475608110427856 0.4213768243789673
-0.5689793229103088 -0.38953131437301636 -0.8508936166763306
-0.7678096294403076 1.1719441413879395 -0.4702899158000946
-0.022509336471557617 0.5793130397796631 -1.0974234342575073
1.1767624616622925 -0.4164920747280121 0.8788952231407166
1.4981029033660889 -0.4032050371170044 0.41293904185295105
-2.4418468475341797 0.8668339252471924 0.010963953100144863
0.1111961156129837 0.1838250309228897 0.595129668712616
0.8650314211845398 -0.4493127167224884 0.6744899749755859
-1.6229453086853027 0.32255178689956665 0.49915724992752075
2.4446682929992676 -0.13040794432163239 -1.1918370723724365
0.260556697845459 0.826841413974762 -0.9268232583999634
-1.4536546468734741 0.490179181098938 -1.1096351146697998
2.152855396270752 -0.0438116192817688 -0.8623086810112
-1.4812761545181274 0.8927798271179199 -0.9431182146072388
-1.965760588645935 -0.06670531630516052 -0.8201271891593933
0.7611764073371887 -0.10392738878726959 -0.31299787759780884
0.335589200258255 0.84217369556427 0.5053632855415344
-2.5069098472595215 -0.24232600629329681 0.5478379130363464
-2.0506086349487305 0.43698304891586304 -0.5081002712249756
-1.5323110818862915 0.6020143032073975 -1.061401128768921
-2.395413398742676 0.24566803872585297 0.7541733384132385
-1.1320452690124512 -0.1335330605506897 -0.9024657607078552
-1.1775052547454834 -0.04258847236633301 -0.5948079824447632
0.7562203407287598 -0.4152625501155853 -0.7334845066070557
2.8934569358825684 -0.16371092200279236 0.06666909903287888
1.0511455535888672 0.6989342570304871 -0.010214507579803467
-1.8445909023284912 0.9133352041244507 -0.44514623284339905
0.10179596394300461 0.2747964859008789 1.0633900165557861
-1.6949058771133423 -0.24722808599472046 0.7917230129241943
-1.0580542087554932 -0.002674475312232971 -0.6395290493965149
1.588452696800232 -0.44170746207237244 0.8362458348274231
-0.7093583345413208 0.4105440676212311 -1.1612677574157715
-2.1572275161743164 0.5071462392807007 -0.326852411031723
1.727405071258545 -0.11742441356182098 -1.009284257888794
-1.427131175994873 0.0681849867105484 0.6521193385124207
1.5282293558120728 0.41466188430786133 -1.0566531419754028
2.546330690383911 -0.39261096715927124 0.9637144207954407
-2.4331207275390625 0.1605410873889923 -0.4204545319080353
-2.064666748046875 0.3521716296672821 1.0932796001434326
2.3295373916625977 0.40607452392578125 0.32016339898109436
0.14987321197986603 -0.47573143243789673 1.0520471334457397
-2.6093051433563232 -0.21943172812461853 0.4863828420639038
-0.10270942747592926 0.916606605052948 0.9074380397796631
-1.5696768760681152 0.31559470295906067 0.828241229057312
0.8014141917228699 -0.2359817922115326 0.27188265323638916
-2.5986685752868652 -0.2219214290380478 -0.978399395942688
1.0810139179229736 -0.4867109954357147 -0.9739323854446411
-1.6810588836669922 0.026069670915603638 1.12717604637146
-2.3060991764068604 -0.11947798728942871 -0.6904132962226868
1.4461508989334106 -0.011013999581336975 -0.9277914762496948
-1.7967743873596191 1.1022751331329346 -0.3243575096130371
1.9016950130462646 -0.23825427889823914 -0.9104264974594116
-2.701824903488159 0.2480173408985138 0.8534032106399536
-2.269498825073242 -0.3273552656173706 1.028134822845459
-2.166598081588745 -0.32747942209243774 -1.0670522451400757
-1.3927656412124634 0.32406753301620483 -0.48637449741363525
-0.06991661339998245 0.3627207577228546 0.7678590416908264
0.3735150992870331 0.5629117488861084 -1.0960187911987305
-2.254035472869873 -0.08989949524402618 -0.5572994351387024
-1.3302106857299805 0.42365485429763794 0.14282511174678802
-0.050144921988248825 0.29542893171310425 1.1084314584732056
-1.6222352981567383 0.27291643619537354 -0.32001274824142456
-1.8186893463134766 0.6784835457801819 0.996527373790741
-1.041546106338501 0.453502893447876 -0.3640117049217224
0.07653382420539856 0.8357406854629517 0.40613189339637756
-0.486910879611969 -0.44951897859573364 -1.211210012435913
0.2675027847290039 0.9005551934242249 -0.2898141145706177
-1.398569107055664 0.21744462847709656 -0.4565769135951996
0.30019232630729675 0.5180706977844238 -0.6814277768135071
-2.4991440773010254 0.6705819368362427 0.4329175055027008
1.8893849849700928 -0.14190131425857544 -0.8132226467132568
-0.7592745423316956 0.9725757241249084 -0.5523926615715027
2.0170812606811523 0.08734909445047379 1.13840913772583
-0.5504886507987976 0.9390901923179626 0.630100429058075
1.9607466459274292 -0.23432575166225433 -1.2007325887680054
-1.0616896152496338 0.49768489599227905 -0.2055656760931015
2.9467391967773438 -0.013039827346801758 0.9476639628410339
3.1109488010406494 -0.13545098900794983 -0.13790461421012878
-0.8666751384735107 0.36076173186302185 1.112013339996338
2.611682653427124 -0.16850891709327698 -0.7216370105743408
-0.6032727956771851 0.8798413276672363 0.45696839690208435
-0.8323213458061218 0.07662873715162277 0.786183774471283
0.6480663418769836 0.45521280169487 -0.4079813063144684
-0.27009904384613037 -0.37820199131965637 -0.8669632077217102
0.3190545439720154 0.8879422545433044 -0.8998686075210571
-2.3741390705108643 1.0164775848388672 0.49460673332214355
-1.922525405883789 0.4184678792953491 -0.19405250251293182
-2.1933836936950684 0.030407577753067017 -0.6050353050231934
-1.0841867923736572 -0.09835945069789886 0.665647566318512
-1.0255675315856934 0.054202862083911896 -0.7878926396369934
-1.3534443378448486 0.5298802852630615 -0.8427067399024963
2.8473594188690186 -0.1226993054151535 0.3570304811000824
2.97173810005188 -0.24733269214630127 0.10398796200752258
-1.8851230144500732 1.0962774753570557 -0.7820951342582703
0.6543948650360107 -0.42212387919425964 0.5487176179885864
2.6047449111938477 -0.044578805565834045 0.6305946111679077
-1.6726268529891968 0.5153403878211975 -0.8260043263435364
0.10891298949718475 0.4679897129535675 0.599173903465271
2.3482396602630615 -0.32939186692237854 -0.5507307648658752
0.33405566215515137 -0.4074377417564392 0.03332304581999779
1.5147526264190674 -0.43071991205215454 -0.6320248246192932
0.38928741216659546 0.5849374532699585 -1.0794410705566406
-2.1305229663848877 0.20333029329776764 0.3495728671550751
-2.62253475189209 0.3179553747177124 0.8951193690299988
-1.7070527076721191 1.1808445453643799 -0.14037282764911652
2.876991033554077 -0.33815354108810425 -0.9778981804847717
-1.7211158275604248 0.43515992164611816 -0.4407796263694763
2.055687189102173 -0.3477799594402313 -1.2068557739257812
-2.361902952194214 -0.4559321403503418 -0.5766050815582275
2.526662588119507 -0.47193825244903564 -0.5780736804008484
-0.5091152191162109 -0.2908496856689453 -0.3205723166465759
1.7726433277130127 0.16814108192920685 -0.8133254647254944
-1.0446561574935913 -0.0461825430393219 -0.9069314002990723
1.4318839311599731 -0.4430139362812042 -0.30476462841033936
1.7303075790405273 0.23793739080429077 0.6832761764526367
-2.328594446182251 0.5719531774520874 0.9851721525192261
1.1593985557556152 0.621637761592865 0.395674467086792
-1.7420638799667358 0.09388807415962219 0.20601169764995575
1.9325802326202393 -0.07584968209266663 0.9412715435028076
1.538635492324829 -0.028759479522705078 0.6617991328239441
-1.8590726852416992 1.2179834842681885 0.5348260998725891
3.0071277618408203 0.21355591714382172 -0.14410731196403503
1.8710060119628906 -0.40034884214401245 0.9389213919639587
-2.089893102645874 -0.10082834959030151 0.6423637866973877
2.8472485542297363 -0.28197139501571655 -1.008566975593567
1.3865422010421753 0.5417059659957886 -0.2113102823495865
0.6395140290260315 0.890152633190155 -0.6061017513275146
-2.308917760848999 -0.33031851053237915 -0.8028658032417297
-2.3601760864257812 0.2862354815006256 -0.269629567861557
-1.2232662439346313 0.15821729600429535 0.8779935240745544
-1.174967885017395 1.1720257997512817 0.3585999608039856
-1.7808866500854492 0.01139676570892334 -0.585661768913269
-0.07637959718704224 0.9742671847343445 0.1428035944700241
-0.465030699968338 -0.22070413827896118 -0.5154027938842773
-1.072108507156372 -0.3808116018772125 -1.0399360656738281
-2.6229052543640137 -0.2329234778881073 -0.8535782694816589
-2.5234992504119873 0.6190284490585327 0.12702810764312744
-1.793924331665039 1.1766544580459595 0.13107244670391083
-2.311312675476074 -0.09867064654827118 -1.129406452178955
-1.3216816186904907 0.5571880340576172 -0.6028347611427307
1.9362103939056396 -0.4225276708602905 -0.9424871802330017
-1.164839744567871 -0.16536346077919006 -0.6059839129447937
-1.912156343460083 0.9835449457168579 0.6653507947921753
-2.2573611736297607 1.1112802028656006 0.7804188132286072
-1.1403510570526123 0.7004109621047974 0.995108425617218
-1.6965538263320923 -0.052409231662750244 0.78110271692276
-1.0020923614501953 0.5438483953475952 -0.42522573471069336
-2.4151010513305664 0.3098239600658417 0.31647470593452454
-0.9019583463668823 0.257576584815979 -0.9403618574142456
-2.493318557739258 -0.06270843744277954 0.3527032732963562
2.680807590484619 -0.22987981140613556 -0.7402513027191162
1.3004565238952637 -0.2759379744529724 0.8762240409851074
-2.192659378051758 -0.40469375252723694 0.1416940689086914
2.6713507175445557 0.036214679479599 0.29048869013786316
0.0862531065940857 -0.42770493030548096 0.165839284658432
-0.6726641058921814 -0.15394115447998047 -0.9347468018531799
0.9085128307342529 -0.1894848793745041 0.4251342713832855
-1.613678216934204 0.18626336753368378 -0.5809314846992493
-1.6775158643722534 0.15139776468276978 0.9249985218048096
0.5800415277481079 0.44997334480285645 0.34885305166244507
-1.486395001411438 0.28019392490386963 0.10145942866802216
-2.4743237495422363 0.7128317952156067 0.6585447192192078
1.7946381568908691 0.4558826982975006 0.7961887717247009
2.1961917877197266 0.40249139070510864 0.45080435276031494
-0.005766332149505615 0.41410982608795166 1.0825815200805664
1.6368708610534668 0.16021175682544708 -1.1897296905517578
-1.2134358882904053 -0.428063303232193 1.0679961442947388
0.7230342030525208 -0.45029744505882263 0.9429520964622498
0.13516585528850555 0.3579727113246918 -0.6270924806594849
-1.766642689704895 -0.38094189763069153 0.23738239705562592
-1.4347643852233887 0.42289409041404724 0.36644285917282104
-0.45854684710502625 1.1833152770996094 0.19850502908229828
0.6103354096412659 0.8709248304367065 -0.8743308186531067
0.8110483288764954 0.7849178314208984 -0.6969041228294373
0.17078548669815063 1.1207735538482666 0.24443358182907104
1.3858715295791626 0.0029009729623794556 0.886048436164856
-1.0559699535369873 0.6996134519577026 -0.4419829547405243
-1.2123082876205444 0.9787167310714722 0.01463518850505352
2.8889310359954834 -0.06672562658786774 -0.2609107494354248
-0.2931085228919983 -0.11312849819660187 -0.5190299153327942
-2.3335678577423096 -0.0007983595132827759 0.40440425276756287
-2.642239570617676 -0.20822563767433167 0.8430132269859314
-1.0894709825515747 0.720947802066803 -1.0223054885864258
0.3985294699668884 1.0425573587417603 0.5005643367767334
-1.616604208946228 0.440102219581604 0.025087790563702583
2.722975015640259 -0.2261604368686676 1.1279268264770508
-1.8480286598205566 1.0924373865127563 0.40529051423072815
0.14646193385124207 0.42268824577331543 -0.8031302094459534
-2.1122446060180664 -0.2182977944612503 -0.6051552891731262
2.922823905944824 0.22075346112251282 0.43669411540031433
1.0299208164215088 0.1444055289030075 1.1217154264450073
-1.393228530883789 0.004847630858421326 0.7793001532554626
-2.2048656940460205 0.2912154793739319 -0.000991647015325725
1.8620871305465698 0.43142494559288025 0.9320000410079956
2.4413259029388428 0.35973459482192993 0.816203236579895
-1.3156033754348755 0.41751307249069214 0.5886101126670837
2.018049955368042 0.021156281232833862 0.8415279388427734
0.279939740896225 0.527996301651001 0.006248932331800461
-2.201979637145996 -0.26802122592926025 -0.5904324650764465
0.1381109654903412 -0.15701499581336975 -0.8729668259620667
-0.21021007001399994 1.1277008056640625 -0.6711723804473877
2.1756651401519775 -0.20106522738933563 -1.201746940612793
2.788066864013672 -0.0808820128440857 0.20167119801044464
-0.9875752925872803 0.9863700866699219 -0.413714200258255
2.2299323081970215 -0.4218524098396301 -0.02886633761227131
0.6460742354393005 0.09958703070878983 1.099628210067749
-0.922420084476471 0.5820509195327759 0.31806397438049316
-2.5598528385162354 0.09980522096157074 -1.084746241569519
-1.9025344848632812 -0.29996612668037415 -0.5219266414642334
-2.6445844173431396 -0.1901106983423233 -0.8042499423027039
-2.3904871940612793 0.444155752658844 1.00197172164917
-1.2346017360687256 0.27946627140045166 -0.8669944405555725
-1.4528436660766602 0.5762467384338379 -0.6294004917144775
0.3114045262336731 0.8308264017105103 -0.009829161688685417
0.5267102718353271 0.3931437134742737 -0.7343219518661499
-2.435580015182495 -0.21458791196346283 0.24940690398216248
1.6839566230773926 -0.16625340282917023 -0.9166070222854614
0.1003521978855133 0.40871185064315796 0.18361617624759674
2.85416841506958 -0.2615591883659363 -0.276083767414093
2.0043325424194336 -0.511146068572998 0.8640088438987732
-1.442629337310791 0.20811203122138977 0.8576421141624451
-2.5061731338500977 0.6192383170127869 -0.5366610288619995
-1.6758414506912231 0.4106835126876831 -0.34478023648262024
-1.843461036682129 0.6751915216445923 0.9911471605300903
0.3174142837524414 -0.17295585572719574 -0.715373694896698
0.76299649477005 0.007119029760360718 0.8982040286064148
1.7745124101638794 0.03583882749080658 -0.912007212638855
-1.5760008096694946 0.25351831316947937 -0.42860907316207886
-0.4983152747154236 0.9585729837417603 -0.5924515128135681
1.2282774448394775 -0.05703863501548767 0.5083374977111816
2.0669846534729004 0.439913809299469 0.6135757565498352
0.5578662157058716 -0.21503858268260956 -0.6294736862182617
-2.4066848754882812 0.9517577886581421 0.18284019827842712
1.8019412755966187 -0.6142805218696594 -0.9065549969673157
0.5880786776542664 0.9198716282844543 -0.6952204704284668
-2.0077342987060547 1.1268389225006104 0.8054161071777344
-0.6460396647453308 -0.36943766474723816 -0.836799144744873
0.4395052194595337 0.396210640668869 0.420942485332489
1.7813314199447632 -0.30674925446510315 -0.28939804434776306
-2.6516363620758057 0.32091978192329407 0.36095720529556274
-1.2679980993270874 0.16805869340896606 -1.1496089696884155
-1.0202841758728027 0.16698069870471954 -0.028194474056363106
-0.20652839541435242 -0.41474011540412903 -0.10958937555551529
-2.413370132446289 -0.00413668155670166 -0.06924916058778763
2.0382962226867676 0.406908243894577 0.9616941213607788
0.24933865666389465 -0.0380946546792984 -0.40412139892578125
0.05104877054691315 0.38196641206741333 1.089857816696167
0.7545301914215088 0.8784074187278748 0.07409296929836273
-1.6533931493759155 0.38451921939849854 0.4375121295452118
0.9772260785102844 0.2756890058517456 -1.1838473081588745
1.11269211769104 0.6552790999412537 -0.3059949278831482
1.6161774396896362 0.432319700717926 1.0497307777404785
1.191567301750183 -0.3051799535751343 -1.0203871726989746
-0.1374959647655487 1.0096195936203003 -0.32693246006965637
-1.4024475812911987 0.2707787752151489 0.8971791863441467
-0.19208213686943054 0.7187502384185791 0.4485262632369995
1.6154048442840576 -0.33836352825164795 -0.8932967782020569
1.2887099981307983 -0.37483325600624084 -0.983819842338562
-2.3470494747161865 -0.33010590076446533 -0.7178495526313782
-0.9282820224761963 0.31220489740371704 0.8459745049476624
-1.4266080856323242 -0.38856837153434753 1.0766627788543701
-1.530442714691162 0.4453006088733673 0.39447036385536194
-1.48280668258667 0.7851799130439758 -0.66123366355896
0.6456009149551392 -0.49950069189071655 1.1381118297576904
-2.631387233734131 0.2661018371582031 -1.0276652574539185
-1.8761740922927856 0.22759279608726501 0.6797437071800232
0.30738121271133423 0.2255040407180786 -0.8063742518424988
0.5815322399139404 -0.17253106832504272 -0.9710980653762817
2.8362228870391846 -0.14407947659492493 -0.2543664276599884
-2.6535325050354004 0.2720928490161896 0.3669465184211731
-1.0078399181365967 0.2832965552806854 0.26757389307022095
-0.2604217827320099 0.8258975744247437 0.15628573298454285
0.7989364862442017 -0.44005459547042847 0.3804995119571686
3.104543685913086 -0.013838127255439758 0.25171470642089844
2.7001633644104004 0.24926209449768066 0.9168169498443604
-1.8106735944747925 0.46875685453414917 0.8300164341926575
-1.5357422828674316 -0.2598210275173187 -0.4369492828845978
1.5628662109375 -0.24411970376968384 -0.7710617184638977
-2.554760456085205 0.47952884435653687 -0.2514452636241913
-1.0986270904541016 0.0236189067363739 0.09254740923643112
-1.2219916582107544 -0.21671395003795624 -0.30111217498779297
0.6013249158859253 0.46859198808670044 1.0543668270111084
1.6200224161148071 0.14953352510929108 -0.8853015899658203
0.5188290476799011 0.2055506408214569 0.3302461802959442
-1.1864327192306519 0.4234328866004944 -0.4264436960220337
-2.2616074085235596 0.6107581853866577 -0.7646723985671997
-2.4647812843322754 -0.30023160576820374 -0.826725423336029
0.273359477519989 1.0923634767532349 0.29027804732322693
1.0714879035949707 0.689734935760498 -0.2539239227771759
-2.3208165168762207 0.4977549910545349 0.3249575197696686
0.8931373953819275 -0.1537199318408966 0.04870142415165901
-2.4414079189300537 0.6260647177696228 0.614264965057373
0.37258344888687134 0.3557966351509094 -0.9950041174888611
-2.0338754653930664 -0.04485388100147247 0.8034321069717407
2.373478651046753 -0.38247302174568176 -0.835165798664093
2.3192062377929688 -0.5022945404052734 1.1226143836975098
-2.41448974609375 -0.0653161108493805 -0.7981133460998535
1.5234395265579224 -0.4095858037471771 -0.29036831855773926
0.3957320749759674 0.2949669659137726 -0.5339641571044922
-2.1725311279296875 -0.18930624425411224 -0.8636332750320435
2.3303301334381104 -0.33764150738716125 0.8252507448196411
-2.6693837642669678 0.1072721853852272 0.6258454322814941
2.1800904273986816 -0.37292030453681946 0.7090809941291809
0.6449635624885559 0.19398419559001923 0.23233620822429657
-2.2559256553649902 -0.45420587062835693 -0.25683465600013733
2.3916823863983154 -0.28851401805877686 0.23741759359836578
-1.9378114938735962 0.031471967697143555 0.6803784370422363
1.526553988456726 -0.4403398633003235 -0.2826385796070099
-1.2805371284484863 -0.5188348293304443 -0.7608304023742676
1.8198102712631226 0.11318746209144592 -0.9656280875205994
0.6197195053100586 0.2680591940879822 -0.5204534530639648
-0.8657724857330322 1.1411635875701904 -0.7249531149864197
0.4124986231327057 -0.3602617383003235 1.1416499614715576
-1.974574089050293 -0.2711954116821289 -1.1320385932922363
2.052980661392212 -0.005662068724632263 0.38290610909461975
2.996058702468872 0.045922212302684784 0.7748581171035767
0.7347878217697144 -0.189614936709404 0.33077678084373474
-1.5205203294754028 0.42517855763435364 0.7870848178863525
1.0335028171539307 0.6942331790924072 0.3633294701576233
-0.9957498908042908 -0.2773049473762512 -1.1478098630905151
0.07744342088699341 0.4845501184463501 0.08133180439472198
-1.6632908582687378 0.10725263506174088 0.5235462784767151
-1.658073902130127 -0.26937049627304077 0.016090845689177513
-1.3693876266479492 -0.6506244540214539 -1.155953049659729
2.5213687419891357 -0.27373015880584717 -0.3255400061607361
1.9319781064987183 -0.10800403356552124 -0.5073235630989075
2.6471874713897705 -0.39511850476264954 -1.1964855194091797
-1.8305854797363281 0.28957027196884155 0.16590894758701324
0.6393722891807556 -0.23082871735095978 -0.5370633602142334
-1.470231533050537 -0.25510895252227783 -0.2983236014842987
-1.110730767250061 -0.1275320053100586 -0.8103355169296265
2.5562636852264404 -0.5004929304122925 1.12932550907135
-1.223707914352417 -0.27161282300949097 0.5879523754119873
-2.6556341648101807 0.11238808929920197 0.5672844648361206
2.5186848640441895 -0.24197687208652496 -0.5494812726974487
1.2449300289154053 0.5565705299377441 0.6968480944633484
-2.1008808612823486 0.7936205267906189 0.6679863929748535
-2.499476671218872 -0.3072214126586914 -0.20036257803440094
0.2239878624677658 0.959033191204071 0.883131206035614
-0.41367778182029724 0.7220329642295837 0.9456201195716858
-0.34307482838630676 -0.472716748714447 1.0568081140518188
-1.2489943504333496 -0.22976277768611908 0.048610806465148926
0.37046104669570923 -0.10584492981433868 0.23431536555290222
-2.3610591888427734 0.8113182187080383 0.6569802165031433
0.8168479800224304 0.8147592544555664 -0.2701539397239685
1.6706831455230713 0.03576657921075821 1.120301604270935
0.22160941362380981 -0.4584009051322937 -1.205901026725769
1.941857099533081 0.10375276207923889 0.07277800142765045
2.2497379779815674 -0.2663939595222473 -0.650204062461853
-1.533996820449829 -0.6391432285308838 0.7686905264854431
0.7497014999389648 0.6658600568771362 1.1806554794311523
2.9097492694854736 -0.04753535985946655 0.3065488636493683
-0.8783466219902039 1.1812151670455933 -0.4423955976963043
2.5265142917633057 -0.11916045844554901 -0.7257988452911377
-2.0221755504608154 0.5442747473716736 0.5856080055236816
-1.9083508253097534 0.20070648193359375 -0.40699300169944763
3.0148401260375977 -0.042484015226364136 0.7897288203239441
-1.2447105646133423 -0.13124680519104004 -0.8475947380065918
-2.252290725708008 1.1279059648513794 0.2406243085861206
-1.7451422214508057 -0.08269283175468445 1.0794342756271362
-0.2792209982872009 0.6585421562194824 0.5282996892929077
-1.779126763343811 -0.1751636117696762 -0.23274946212768555
1.2156444787979126 0.031083889305591583 -0.9213852286338806
1.4670002460479736 0.5308587551116943 -0.2358415573835373
-2.5230300426483154 0.5701268911361694 0.6982864737510681
-1.9965754747390747 0.24811303615570068 -0.4136941432952881
1.2847883701324463 -0.1920723021030426 1.1444191932678223
2.107970714569092 -0.35647082328796387 1.132949709892273
-1.9240384101867676 1.2311917543411255 0.4650704562664032
-0.6777276992797852 0.8435084819793701 -0.6367006301879883
0.41757598519325256 0.35874006152153015 0.9413947463035583
1.2783946990966797 0.05474720895290375 1.1400954723358154
-1.1110666990280151 0.5908318758010864 1.0550103187561035
2.773235321044922 -0.21005187928676605 -0.17929276823997498
-2.362863779067993 0.9019518494606018 -0.538566529750824
-2.418801784515381 0.9395952224731445 0.013967621140182018
0.3987230956554413 0.7556048631668091 0.6928120255470276
-1.2167255878448486 1.084028959274292 -0.8144904971122742
-1.3073774576187134 -0.46414291858673096 0.8017745018005371
0.720801591873169 0.3970891237258911 -0.3604337275028229
-1.9382551908493042 0.2784581184387207 -0.4435722827911377
-1.301680564880371 0.1348804533481598 1.1478849649429321
2.8165223598480225 -0.15009352564811707 -0.4465092718601227
-1.6045417785644531 0.29968997836112976 0.12565481662750244
-1.8355388641357422 0.2137872576713562 0.06900118291378021
1.5634334087371826 0.496443510055542 -0.533771812915802
-1.9247183799743652 1.2056071758270264 0.5647933483123779
-1.7668726444244385 0.5428879857063293 0.6322025656700134
1.248547911643982 -0.461812824010849 -0.9036505222320557
-0.4588146507740021 0.7398908138275146 -0.7862333059310913
2.5311696529388428 -0.2922106385231018 -0.13765278458595276
1.1831908226013184 -0.2337999790906906 -0.6141384243965149
0.28948867321014404 0.23460564017295837 0.4551146924495697
2.499033212661743 -0.20103920996189117 0.5306335687637329
-0.9929065108299255 0.04464271664619446 0.03891407698392868
-1.4031710624694824 -0.05060994625091553 -0.3734321594238281
-1.6776647567749023 -0.5394772887229919 -0.7937458753585815
-1.798721432685852 0.38801002502441406 -0.7024329900741577
0.8582792282104492 -0.543964684009552 1.081164002418518
-0.588497519493103 -0.5207186341285706 1.0370113849639893
-2.023268938064575 0.8038968443870544 -0.7327846884727478
2.479241132736206 0.23800602555274963 1.0726252794265747
1.6046969890594482 -0.5640964508056641 0.8990972638130188
0.1944844275712967 0.8673957586288452 0.6681145429611206
-2.5903239250183105 0.004387304186820984 -1.0700823068618774
2.6983139514923096 -0.2847958207130432 0.7609503269195557
-0.06893981248140335 0.9450802803039551 0.9060031175613403
-2.583228349685669 0.34685879945755005 0.8341139554977417
-2.440937042236328 -0.09389026463031769 0.5209637880325317
0.765225350856781 -0.29128792881965637 -0.5944973826408386
-1.0375592708587646 -0.041485339403152466 -0.3324337303638458
2.8941164016723633 -0.512418270111084 0.7304551601409912
-1.635988712310791 0.31120723485946655 0.9076496958732605
-0.635697066783905 -0.3772880733013153 -0.20273447036743164
-1.1302754878997803 -0.17772944271564484 0.4016639292240143
2.163235902786255 -0.16268859803676605 0.563421905040741
1.9820665121078491 -0.5914490818977356 0.8181517124176025
-0.9726425409317017 0.2536011338233948 -0.4409901797771454
-1.7589635848999023 0.19461311399936676 -0.8273168206214905
2.6311397552490234 -0.34565460681915283 0.05983239784836769
1.337296485900879 -0.3570105731487274 0.8643065094947815
2.1348981857299805 0.43235769867897034 -0.6139266490936279
2.7828755378723145 0.01980075240135193 0.008264080621302128
-0.5034637451171875 1.1823166608810425 -0.23085524141788483
-1.7732088565826416 -0.3555891513824463 0.9085375666618347
0.4539131224155426 0.39721357822418213 0.14751383662223816
2.1194100379943848 0.03207303583621979 -0.26496586203575134
2.649289131164551 0.12465142458677292 0.3550613522529602
1.5749151706695557 -0.28162360191345215 -0.6334408521652222
-1.554650902748108 0.3643636107444763 1.129015326499939
-0.02022860199213028 0.45966973900794983 0.780056893825531
-1.82314932346344 1.1890246868133545 0.7749289274215698
-0.9321442246437073 0.6798492670059204 1.0083835124969482
2.8468270301818848 -0.29326674342155457 -0.08625037968158722
0.664371907711029 0.923392653465271 -0.13934725522994995
2.609006404876709 0.02165481448173523 0.27459126710891724
-1.596063256263733 1.0720783472061157 0.2471250742673874
-1.2760194540023804 0.11407344043254852 0.13760608434677124
0.6013522148132324 0.8786992430686951 -0.6115838885307312
-1.0485327243804932 -0.2509373426437378 -0.11051175743341446
-1.5585856437683105 0.17843762040138245 -0.628271222114563
-1.958133339881897 -0.38294342160224915 0.13603153824806213
1.8141677379608154 -0.5506058931350708 0.8366370797157288
-0.06383632123470306 -0.43792080879211426 -0.7038142681121826
-1.5886236429214478 1.2062561511993408 -0.4413226246833801
-1.987215518951416 0.7441729307174683 0.6212933659553528
-1.5476999282836914 -0.032904595136642456 0.2651204466819763
0.3368496894836426 -0.08483657240867615 -1.16683828830719
-0.6406075954437256 1.204127311706543 -0.3886522650718689
2.961693286895752 -0.5367352366447449 0.35196542739868164
1.9959999322891235 0.15370534360408783 -0.707194983959198
0.07685691118240356 0.6865341663360596 0.2768709063529968
0.21779663860797882 0.02243831753730774 -0.016577262431383133
-1.8982172012329102 0.27574336528778076 0.7528249621391296
-1.1468664407730103 -0.2898803949356079 -0.32688775658607483
-1.8420292139053345 0.9644941091537476 -0.6302178502082825
-2.4261116981506348 -0.11970533430576324 -0.6146886348724365
-2.529083013534546 -0.3475387990474701 0.5919080972671509
-1.0933570861816406 -0.08919504284858704 0.6079542636871338
1.8395062685012817 0.49498042464256287 -0.36201247572898865
-1.5506800413131714 -0.21356147527694702 -0.06379770487546921
-2.469041347503662 -0.06316113471984863 0.5000374913215637
0.9501705169677734 -0.34977978467941284 -0.16456389427185059
1.3617676496505737 0.2778749167919159 0.10588394105434418
-2.0599756240844727 0.3171602189540863 0.4387720823287964
2.1381115913391113 -0.4101952314376831 0.8290759325027466
0.9817044734954834 0.21723082661628723 1.0996602773666382
1.3657152652740479 -0.2501559257507324 -1.1806821823120117
-0.3573533296585083 -0.3899661600589752 0.9198432564735413
-1.2206467390060425 -0.4498808979988098 -0.964628279209137
1.0578701496124268 -0.07965728640556335 0.26833152770996094
-2.6530816555023193 0.10966792702674866 0.5399948954582214
0.3157407343387604 0.4464889168739319 0.8727211952209473
1.0079847574234009 -0.39605557918548584 1.0270484685897827
2.3041605949401855 -0.07669106125831604 -0.9478684067726135
-1.4102661609649658 1.043335199356079 -0.8446331024169922
0.35701751708984375 -0.424802303314209 1.1472270488739014
2.6132781505584717 -0.32942354679107666 0.7891082763671875
-0.9124769568443298 0.054973945021629333 1.132374882698059
0.8734226822853088 -0.07714024186134338 1.1271297931671143
-1.1958632469177246 1.1765763759613037 -0.6279637217521667
-2.6332573890686035 -0.1350611448287964 -0.9442141056060791
1.7545666694641113 -0.3619616627693176 -0.5784203410148621
-0.44326508045196533 -0.24460656940937042 -0.42894208431243896
0.20341262221336365 -0.47345054149627686 1.133041262626648
-1.7268400192260742 1.2006523609161377 -0.125944584608078
0.06697151064872742 0.2448713481426239 -0.8014679551124573
-1.1140154600143433 -0.3762761354446411 -1.058109164237976
-0.1841580867767334 -0.2951635718345642 -1.0867063999176025
-0.8762888312339783 0.07340718060731888 0.7229189276695251
-1.3606688976287842 0.8997397422790527 -0.5072761178016663
2.028775215148926 -0.10456317663192749 1.1088680028915405
2.2460169792175293 0.19570893049240112 1.1499912738800049
-0.9650264978408813 -0.03435027599334717 -0.28828859329223633
-2.4753119945526123 -0.24135896563529968 -0.3123082220554352
0.8802802562713623 0.806577742099762 0.2687087953090668
0.7168802618980408 0.6664978861808777 -1.301803708076477
-1.96903395652771 0.4328036308288574 -0.7839086055755615
-2.3118252754211426 1.073693037033081 0.5311269164085388
-2.487090587615967 -0.01524856686592102 0.6874433159828186
-2.6041295528411865 0.04641507565975189 -0.16447138786315918
0.3412139117717743 0.24696779251098633 0.8817359805107117
0.714322566986084 0.5684912800788879 0.23613955080509186
-1.5239499807357788 -0.45391222834587097 -0.80769944190979
-1.1752599477767944 -0.18138356506824493 -0.7492389678955078
0.14067381620407104 -0.2538790702819824 0.006541453301906586
-1.452176570892334 0.028075113892555237 0.4263708293437958
-0.4508889317512512 -0.42740103602409363 0.08776883035898209
0.6746099591255188 -0.29106226563453674 -1.0173006057739258
0.9482299089431763 -0.3225565552711487 -0.7209172248840332
2.644791841506958 -0.049559444189071655 -0.23663967847824097
-1.1696065664291382 0.6045389771461487 -1.0744036436080933
-2.668391227722168 0.13761335611343384 0.6566697955131531
-1.380445957183838 0.12180814146995544 1.1426609754562378
-1.5484768152236938 0.005622297525405884 0.6497138142585754
-1.5485402345657349 -0.10808366537094116 -0.7419280409812927
-2.4614646434783936 0.11622396111488342 0.02732955291867256
2.591580867767334 -0.013497129082679749 -0.09675232321023941
-1.243880033493042 -0.2109021544456482 0.6547887325286865
-1.5930384397506714 0.4147632122039795 -1.127105474472046
2.0964035987854004 -0.46808698773384094 0.8787331581115723
2.345632314682007 0.3581543266773224 0.9491186141967773
-2.570641279220581 0.4470199942588806 -0.5653674602508545
0.7591149210929871 0.8472287654876709 0.611437201499939
2.367229700088501 -0.023226529359817505 -0.9949621558189392
-1.680046796798706 0.747056782245636 -0.5602489709854126
0.04604961350560188 0.12204767763614655 0.6037003397941589
1.5288937091827393 0.2928076982498169 1.1254838705062866
-2.084214210510254 0.8743563294410706 -0.5892694592475891
-2.0950279235839844 0.9000678062438965 0.9065889120101929
1.28659188747406 -0.04864834249019623 1.1395736932754517
1.918397307395935 0.39424601197242737 1.057043433189392
-1.648604393005371 0.22618833184242249 -0.7975839972496033
2.710383176803589 -0.5328129529953003 -1.0692321062088013
1.605344533920288 -0.060579925775527954 -0.9083345532417297
2.823673963546753 -0.03025573492050171 -0.8968473672866821
0.06043379753828049 0.2395326942205429 -0.9457752704620361
-0.19567930698394775 -0.38916733860969543 -0.43953609466552734
-1.7246910333633423 0.4332062304019928 -0.6668984889984131
1.3936878442764282 -0.4566735327243805 -0.9297060370445251
2.908414363861084 -0.0645650327205658 -0.6712278127670288
-0.03576115518808365 0.4559670090675354 0.752640426158905
0.7437403202056885 0.7352589964866638 -1.0294256210327148
1.4686124324798584 0.5124080181121826 0.2950581908226013
-2.4650118350982666 -0.03384438157081604 0.8987568616867065
-1.0322706699371338 -0.02480970323085785 0.6186208724975586
-2.487473964691162 0.6913903951644897 0.6307942867279053
-1.6882752180099487 0.6402910351753235 -1.0420761108398438
-1.0160092115402222 0.49152785539627075 -0.885037362575531
-1.3667515516281128 -0.42169177532196045 0.1389954388141632
0.35083451867103577 0.5805227160453796 -0.09924449771642685
-1.6683074235916138 1.1714580059051514 0.3791067600250244
-1.0965229272842407 0.7584645748138428 -0.5541024208068848
1.2823089361190796 0.5496166944503784 -0.5058021545410156
-0.05348099023103714 0.9395022392272949 0.06632287055253983
-2.5699427127838135 -0.09146241843700409 -1.0674448013305664
-1.0280230045318604 -0.03647772967815399 0.43978115916252136
-2.282672882080078 0.05279720574617386 -0.9099448323249817
2.881197690963745 -0.43527454137802124 0.9134408831596375
-2.25897216796875 0.5083178877830505 0.10419642180204391
-2.0010597705841064 0.7038356065750122 -0.6693918704986572
-2.268548011779785 -0.22136659920215607 -0.6139452457427979
-1.7322611808776855 -0.20571713149547577 0.7451168894767761
-2.159794807434082 0.9032372832298279 0.911221981048584
-0.15557897090911865 0.8507975935935974 -0.9437301158905029
-2.107268810272217 -0.5115777850151062 0.9334072470664978
2.406691551208496 -0.4153401851654053 1.134582281112671
-2.2084450721740723 0.1279105544090271 -0.485320121049881
-1.3683604001998901 -0.20030565559864044 0.6695653796195984
-1.3047499656677246 -0.39907923340797424 0.09873262047767639
0.512316882610321 0.49256426095962524 -1.1142746210098267
0.5367128252983093 0.7033352851867676 0.47167372703552246
-1.5666427612304688 -0.01869070529937744 -0.8479064106941223
0.3681434690952301 0.494613915681839 0.31493309140205383
0.7902480363845825 -0.27603644132614136 0.05533253028988838
-2.1076443195343018 -0.14684124290943146 -0.825603723526001
-1.125839352607727 -0.4538654386997223 0.9665766358375549
1.8916587829589844 0.1459992676973343 -0.8060622215270996
-2.423793315887451 0.7981892228126526 0.1710723489522934
-1.9535398483276367 0.2815295457839966 -0.6678242087364197
-0.9376912117004395 1.1837996244430542 -0.06953903287649155
-0.4617660641670227 0.5376144647598267 -0.8657768964767456
0.960057258605957 0.6986329555511475 -0.6482884287834167
-0.9490390419960022 0.436370849609375 -0.5336601734161377
2.6200432777404785 -0.4595480263233185 -0.8734608888626099
-2.4648914337158203 -0.2172287106513977 -1.0440632104873657
-1.1081026792526245 0.30100882053375244 0.3528372049331665
0.1352553367614746 -0.32633641362190247 1.124830722808838
-1.7506767511367798 -0.3372657597064972 0.5450970530509949
-1.6345536708831787 0.472395122051239 -0.698026180267334
2.822732448577881 -0.1474258005619049 0.3378318250179291
1.736025094985962 0.22512458264827728 0.885818600654602
-2.3425052165985107 0.880926251411438 -0.8433957099914551
0.17025500535964966 -0.12402601540088654 -0.616599977016449
-0.6944658160209656 0.9611096382141113 0.29718518257141113
0.24031245708465576 0.526506245136261 0.5357457399368286
-2.6462066173553467 -0.07485274970531464 -0.1056130900979042
-1.3087371587753296 0.4579399824142456 1.098721981048584
3.096311330795288 -0.13306233286857605 -0.015563187189400196
-1.9842844009399414 1.1132569313049316 0.8418642282485962
0.9259230494499207 -0.06340791285037994 -0.6216349005699158
-1.2250372171401978 -0.3956958055496216 1.0982208251953125
-2.121131181716919 -0.01801346242427826 0.9015726447105408
-0.03265416622161865 0.6032220721244812 1.0105535984039307
0.8968731164932251 -0.4617727994918823 1.1810787916183472
0.15176063776016235 0.1289798617362976 0.6504860520362854
2.3278846740722656 -0.4565006196498871 0.17774930596351624
1.8088338375091553 0.44675207138061523 -0.693386435508728
-0.5803797245025635 0.254254549741745 -1.1725353002548218
-1.368064522743225 0.058672480285167694 -0.2007121741771698
-1.3286153078079224 1.1515486240386963 0.6672124862670898
-0.870536208152771 0.45366981625556946 1.1037837266921997
-2.338685989379883 0.8844150900840759 -0.7921408414840698
-0.019747324287891388 0.3789958953857422 -0.3197338879108429
-0.9885351061820984 0.2503618001937866 -0.5541120171546936
-2.263622283935547 1.1449400186538696 -0.15034358203411102
-0.2532144784927368 0.6811595559120178 0.2942482829093933
1.7738757133483887 0.016135334968566895 -0.7230722904205322
-0.44389277696609497 -0.051280468702316284 -1.1707075834274292
2.325885772705078 -0.41476157307624817 -0.5263082981109619
-1.8464982509613037 -0.6203757524490356 1.078905463218689
-1.3171086311340332 -0.009230494499206543 -0.8907690048217773
0.21977674961090088 0.46570274233818054 0.7294253706932068
-1.6225582361221313 1.0823084115982056 -0.7917563319206238
-0.7943386435508728 0.644168496131897 -1.0664618015289307
2.5121521949768066 0.3927633464336395 -0.1029372364282608
-1.748136043548584 0.26039013266563416 -0.7653381824493408
-0.14900550246238708 0.722220242023468 0.7060028314590454
-1.3318160772323608 0.3741765022277832 0.8836511373519897
0.4685050845146179 -0.407379150390625 0.5399659872055054
1.6066501140594482 -0.02237798273563385 -0.5577108263969421
2.823096752166748 -0.22733758389949799 0.4186202883720398
1.8514585494995117 0.22010383009910583 -0.8575361371040344
-0.9465503692626953 0.03725385665893555 0.12499087303876877
1.0915493965148926 0.6009244322776794 -0.8321803212165833
1.0167596340179443 0.3977945148944855 -1.1609731912612915
-2.1267201900482178 0.07243845611810684 -0.8019269108772278
1.4901938438415527 0.47345948219299316 -0.8242746591567993
-1.1078243255615234 1.1850316524505615 -0.0827382430434227
-2.3137896060943604 0.6207184195518494 0.6721317768096924
-1.2263641357421875 -0.3494521379470825 -0.7965725660324097
0.5948027968406677 -0.43096867203712463 1.0226554870605469
-1.4995261430740356 -0.000807836651802063 0.4609967768192291
-2.014366865158081 0.3019619584083557 -0.31101304292678833
1.6205424070358276 -0.3467722535133362 1.1257033348083496
1.6377698183059692 0.21610203385353088 0.6006973385810852
-2.099900960922241 1.2028003931045532 0.4800316095352173
-1.4011626243591309 -0.02972947061061859 -0.874291181564331
-0.16151316463947296 -0.40433675050735474 0.8371462225914001
0.45892173051834106 1.0532968044281006 -0.1319713443517685
-2.4712955951690674 0.7443287968635559 -0.7957831621170044
2.6702990531921387 0.33039239048957825 0.34175634384155273
1.1021875143051147 -0.49947935342788696 -1.1896628141403198
-1.17154061794281 -0.05155158042907715 -0.2562416195869446
1.3312761783599854 -0.4031190872192383 0.9839804768562317
0.5133746862411499 0.4098012447357178 -0.1451956331729889
-1.3410230875015259 0.05502156913280487 0.4288026988506317
-1.1500422954559326 -0.20796164870262146 -0.8185144662857056
-2.0549440383911133 1.0019170045852661 -0.8710000514984131
-1.7721558809280396 0.028823763132095337 -0.18038520216941833
-0.11349570006132126 1.006455659866333 -0.27907097339630127
-1.2912789583206177 0.39416754245758057 1.1143234968185425
2.557875871658325 -0.07318428158760071 -0.6307127475738525
-2.3053579330444336 0.2322920560836792 -0.622653603553772
-1.0642707347869873 -0.3089335560798645 -0.5202715396881104
-1.7059954404830933 -0.03282378613948822 -0.7034072279930115
-2.0757129192352295 1.1821653842926025 -0.5811419486999512
2.622572183609009 -0.4832618534564972 -0.822163462638855
0.5215581655502319 -0.47131240367889404 -1.1039226055145264
-2.19472599029541 -0.20312854647636414 0.6871184706687927
-1.9185935258865356 0.48034581542015076 0.8088072538375854
-1.4413633346557617 0.07392092794179916 0.6180912852287292
-0.01167992502450943 0.5398837327957153 0.6890071034431458
1.6517462730407715 -0.4146786332130432 1.1073650121688843
0.7442722916603088 0.5837186574935913 1.044987678527832
-2.6987643241882324 -0.06418363749980927 0.7989413142204285
2.6708014011383057 -0.40657323598861694 0.18039582669734955
2.3230865001678467 -0.266287624835968 -0.6366381645202637
1.506106972694397 -0.35094398260116577 0.9721364378929138
-0.9903149008750916 1.1665748357772827 -0.6903049945831299
2.715989589691162 -0.265848845243454 -0.5247367024421692
-2.6556386947631836 0.1755111962556839 -0.24280919134616852
-1.726398229598999 -0.28557831048965454 0.19280287623405457
-0.2908642590045929 0.22411152720451355 -1.17470121383667
0.813939094543457 -0.43392619490623474 0.8158746361732483
