ply
format ascii 1.0
element vertex 812
property float x
property float y
property float z
end_header
1.4825356006622314 -0.4028420150279999 2.4460127353668213
2.7486937046051025 -0.6636523008346558 -1.308655023574829
-0.09153598546981812 0.7524027824401855 -0.30577367544174194
0.031417783349752426 0.483769953250885 0.7956300377845764
-0.37057045102119446 -0.09412968158721924 -0.15310634672641754
1.698533058166504 0.5724552273750305 -0.004424252547323704
-0.11872647702693939 0.09792761504650116 -1.0854694843292236
1.8160645961761475 -0.3237557113170624 -0.6515915989875793
-2.0454273223876953 -0.4182312488555908 0.917138934135437
-0.936071515083313 0.15665408968925476 0.9068063497543335
1.1612787246704102 0.55077064037323 -0.37912067770957947
-1.2842010259628296 0.7916170954704285 0.23008348047733307
-0.16514837741851807 0.3926001191139221 -1.1323658227920532
0.8419582843780518 -0.5804543495178223 1.4185278415679932
-1.3754369020462036 0.014364764094352722 1.6457799673080444
-0.3212563693523407 0.030310451984405518 -0.08731985837221146
-1.840111494064331 0.27167844772338867 0.7202378511428833
-2.4188036918640137 0.11716224253177643 0.3063318431377411
1.1385747194290161 0.4183465838432312 -0.9946930408477783
0.5297038555145264 0.39262810349464417 -0.5753418803215027
-1.309302806854248 0.5288801789283752 -0.14985409379005432
-1.434692621231079 0.2884935736656189 -1.0663113594055176
1.2909737825393677 -0.33428117632865906 0.23742379248142242
-1.2315564155578613 -0.6660584807395935 -0.10053466260433197
0.4049122631549835 0.3443249464035034 1.383845329284668
1.1029307842254639 -0.6505878567695618 0.7268620729446411
-0.3270469009876251 -0.07545822858810425 -0.5597856640815735
1.437193512916565 -0.38959193229675293 -0.9196444153785706
-3.0687413215637207 0.23306383192539215 -0.21131157875061035
-1.648759126663208 1.0171931982040405 -0.33176133036613464
2.615638494491577 0.04541715979576111 -0.7517374753952026
1.6477720737457275 -0.6743682026863098 0.6748335957527161
-0.15031762421131134 -0.054162487387657166 0.05638150870800018
1.2932381629943848 0.37411439418792725 0.06155071035027504
1.0459952354431152 -0.014770805835723877 0.8986888527870178
0.32958418130874634 -0.46625080704689026 0.12327739596366882
0.7444105744361877 0.32724529504776 0.5896735191345215
0.6888861656188965 0.638236403465271 0.2640821635723114
-1.223315715789795 0.2720329761505127 0.058005087077617645
2.2344040870666504 0.16068604588508606 0.3020887076854706
-0.19296906888484955 0.3100094199180603 1.0923869609832764
-0.36967024207115173 0.4290633797645569 0.4467200040817261
-0.1779773235321045 0.03044268488883972 -0.32821139693260193
0.7362774014472961 -0.34256044030189514 0.10820846259593964
-2.3769218921661377 0.27462297677993774 0.22295507788658142
0.9485962390899658 -0.038327574729919434 0.42698508501052856
-0.5842464566230774 1.0268176794052124 -0.15162241458892822
-0.7078072428703308 0.5670911073684692 -0.7188796401023865
-2.992218494415283 -0.22016818821430206 -0.12357695400714874
-1.7719478607177734 -0.5019053220748901 -1.8789194822311401
1.5119915008544922 -0.3388301730155945 1.138609766960144
-2.1271023750305176 0.7122513651847839 1.2696218490600586
-0.22808048129081726 0.22000163793563843 -2.012482166290283
-1.6778321266174316 0.1152649074792862 -0.9793425798416138
0.9365532398223877 0.08790713548660278 -0.5131567716598511
0.9468888640403748 0.342973530292511 0.009207503870129585
-0.7581333518028259 0.7566534876823425 0.24481956660747528
-0.4317731261253357 0.35927584767341614 -0.5177809596061707
-0.8252576589584351 -0.581264078617096 -0.24871587753295898
-0.8407333493232727 1.0197086334228516 0.34916189312934875
-2.0785250663757324 0.4491626024246216 -0.6339401602745056
2.0377745628356934 0.20740395784378052 -1.5078212022781372
-1.583522915840149 1.0094252824783325 0.9508795738220215
2.1005172729492188 -0.26807868480682373 -0.029477203264832497
-2.3448147773742676 0.28791671991348267 0.35059431195259094
2.4157562255859375 -0.3559979796409607 1.3871139287948608
-0.04430203139781952 0.8072319626808167 -0.4280587136745453
-1.2028170824050903 0.14063380658626556 -0.5867940187454224
-1.4047083854675293 0.06309343874454498 -0.19733795523643494
2.068232536315918 -0.27681154012680054 0.6535845398902893
-1.0045257806777954 0.9604167342185974 -1.1509960889816284
-0.9329543709754944 0.9582901000976562 -0.5883013010025024
2.8824877738952637 -0.0351937860250473 -0.2579248249530792
3.2388622760772705 -0.39077430963516235 -0.9597649574279785
-3.009131669998169 -0.37038475275039673 -1.1251661777496338
-0.1456092894077301 0.9458061456680298 -0.036261819303035736
0.6274105906486511 -0.613642156124115 -1.0377458333969116
2.4398202896118164 0.4128532409667969 -0.5349951982498169
-2.0826380252838135 -0.12286064028739929 0.22962865233421326
1.3917356729507446 0.48776477575302124 0.8068771362304688
-0.5971627235412598 -0.38103553652763367 0.3805684447288513
-2.011259078979492 0.6108930706977844 -0.3333294093608856
-0.12024709582328796 0.011680766940116882 1.307717204093933
-1.7311543226242065 -0.141975998878479 0.25710925459861755
-0.47470948100090027 0.5833247900009155 -0.8968552350997925
-1.1386845111846924 0.8519665598869324 0.722405195236206
-1.3462711572647095 -0.5216508507728577 -0.5409941077232361
-0.23914000391960144 -0.6004687547683716 1.8246248960494995
-1.4401042461395264 -0.3398144245147705 0.4295615553855896
-0.031636983156204224 -0.050088778138160706 0.21641823649406433
-2.814476490020752 0.26609331369400024 0.2388921082019806
3.212473154067993 0.10904848575592041 -0.13916242122650146
-1.9188828468322754 -0.014808431267738342 -0.5834653377532959
-2.239380359649658 -0.13690362870693207 -0.8085935115814209
-1.6298784017562866 -0.5637485980987549 -0.7258716821670532
2.4773683547973633 -0.35623884201049805 1.2261232137680054
-0.5847074389457703 -0.4046032428741455 -1.4289888143539429
2.673135995864868 0.061253905296325684 1.1015605926513672
0.1431952714920044 -0.469592422246933 1.2529757022857666
-3.45397686958313 -0.07114383578300476 -0.2725388705730438
0.028022248297929764 -0.2874051332473755 -0.051295436918735504
-1.6432188749313354 -0.3323812782764435 -0.6842616200447083
2.5869874954223633 -0.6319448947906494 0.8534356951713562
-0.42195138335227966 0.4699519872665405 0.5856751203536987
-0.7126233577728271 -0.08713649213314056 1.3385976552963257
-0.2727806270122528 0.13764552772045135 -0.5660020112991333
-0.7648162245750427 0.3983057141304016 -1.2350554466247559
-0.2666904926300049 -0.5789059996604919 -0.10168272256851196
-0.18885943293571472 -0.1340964138507843 0.9462630152702332
1.4399762153625488 -0.30295321345329285 -1.2091084718704224
2.5573322772979736 -0.17142634093761444 -0.506744921207428
-1.0973117351531982 -0.40118837356567383 -0.4300021529197693
2.245023488998413 0.298880934715271 -0.730111837387085
-1.511016845703125 0.1466999053955078 -0.9284238219261169
0.44057250022888184 0.04975217580795288 -0.10360892117023468
-0.15725146234035492 -0.4170418381690979 -0.3410031795501709
2.856422185897827 0.32138365507125854 1.1121799945831299
-1.3922395706176758 -0.02845481038093567 1.5976892709732056
1.2041789293289185 -0.2567408084869385 0.3894142210483551
-1.8508002758026123 0.28134989738464355 1.1108152866363525
-1.3964929580688477 -0.02062492072582245 -0.757041871547699
-1.7693665027618408 0.6806677579879761 -0.6078258752822876
-0.0128069669008255 -0.5455418229103088 -0.35919830203056335
-1.368693232536316 -0.20351582765579224 0.3102492094039917
0.4077763557434082 -0.49898362159729004 0.6734734773635864
2.9514262676239014 -0.474676251411438 0.6986811757087708
-2.847297430038452 0.27682435512542725 -0.2726631462574005
0.5552003979682922 0.8846625089645386 -0.7110502123832703
-1.6227409839630127 -0.4681009352207184 -1.2223924398422241
-0.8396629095077515 -0.6306803226470947 -0.9278779625892639
0.9146690964698792 0.057920292019844055 -0.474455863237381
-2.064815044403076 0.15246155858039856 -0.6868100762367249
-0.21662545204162598 0.21953999996185303 0.11934525519609451
1.000791072845459 -0.11453038454055786 -0.6411159038543701
1.7779260873794556 0.24445638060569763 -0.6496126651763916
0.42311808466911316 -0.5137889981269836 -0.9171792268753052
0.7641262412071228 0.5077545642852783 -1.0031976699829102
1.5975159406661987 0.48281505703926086 -0.8052009344100952
1.5752902030944824 -0.1278260499238968 0.2752820551395416
-2.252164363861084 0.8976234793663025 0.14747470617294312
-0.9433247447013855 0.9716367125511169 -1.3547166585922241
-2.5868735313415527 0.34666699171066284 -0.9817194938659668
-0.3268697261810303 -0.18287965655326843 0.5470791459083557
-1.5019727945327759 0.6597222685813904 -0.4943351745605469
-1.3120418787002563 -0.49841392040252686 -0.9471808671951294
-1.425812005996704 -0.45096367597579956 0.993912398815155
-1.1740219593048096 -0.12533903121948242 -0.4372546374797821
-2.9733667373657227 0.38541948795318604 -0.03729567304253578
0.006828736513853073 0.8136615753173828 0.27871495485305786
1.54923677444458 0.5120694637298584 0.6422984600067139
-2.7493736743927 0.7611863017082214 -1.0293679237365723
-0.17575716972351074 0.8470306992530823 1.2064266204833984
2.8648900985717773 0.35295313596725464 0.15624207258224487
0.8846691250801086 0.5205059051513672 0.0967208668589592
-0.458260715007782 -0.36179447174072266 -1.472679615020752
-1.851866602897644 0.011001765727996826 -0.6006518006324768
0.5505086183547974 0.7772269248962402 1.3245677947998047
1.541890263557434 0.5869471430778503 0.33767297863960266
2.418997049331665 -0.5501580834388733 0.5914509892463684
0.1384311467409134 -0.5815455913543701 1.6130645275115967
0.05029723420739174 -0.6596066951751709 -0.7512355446815491
-1.5372005701065063 0.24178031086921692 -0.26341110467910767
1.1484040021896362 -0.34101253747940063 -0.3437492549419403
1.2467021942138672 -0.45155638456344604 0.7497765421867371
-1.5192580223083496 1.1060891151428223 -0.4357020854949951
2.2264349460601807 -0.22399424016475677 -0.39846307039260864
1.1590572595596313 0.008816748857498169 0.4843594431877136
0.8912782073020935 0.014034077525138855 1.1023612022399902
-0.5250217318534851 0.38982751965522766 1.024828314781189
-0.2836216688156128 0.4530278146266937 0.4205107092857361
-2.7567989826202393 -0.5017889738082886 0.3984980583190918
-1.2974001169204712 0.4409531354904175 -1.612392544746399
1.3470828533172607 0.5482621192932129 -0.39425984025001526
-1.5456682443618774 0.4754689931869507 -1.22887122631073
0.7310042381286621 -0.09828466176986694 -1.8222439289093018
-1.6578737497329712 0.9389192461967468 1.1156870126724243
1.8999700546264648 -0.08289681375026703 0.844100832939148
0.2370457649230957 0.8233857750892639 0.5954282879829407
-1.1000173091888428 0.1983260214328766 0.07080911099910736
-0.2244308590888977 0.22336718440055847 0.9999259114265442
1.0985474586486816 0.5129359364509583 0.6802789568901062
-1.8462189435958862 0.502922534942627 -0.08951611816883087
2.2888495922088623 -0.03644832968711853 -0.5682390928268433
-0.2629314959049225 0.36950787901878357 -0.8375920653343201
-0.908846914768219 -0.4107803702354431 0.8049554228782654
1.2590324878692627 0.41815632581710815 -0.6361922025680542
-0.32213857769966125 -0.21372148394584656 -0.13377654552459717
-1.6012316942214966 0.9418631792068481 -0.47130846977233887
-2.908529281616211 0.47241848707199097 -0.7515774369239807
-0.9744164943695068 0.7161083221435547 -0.5887420177459717
-0.4188503623008728 0.7519720792770386 0.01062572281807661
1.0715497732162476 -0.04382792115211487 -1.1748261451721191
-0.9924903512001038 -0.36721986532211304 1.4250699281692505
3.888822078704834 -0.6077289581298828 -0.3293664753437042
1.1277053356170654 0.49091440439224243 0.5194098353385925
0.35348203778266907 -0.09739872813224792 -0.6224321722984314
-0.15062355995178223 0.004405662417411804 1.1467130184173584
-1.6357684135437012 0.40904515981674194 0.1492239236831665
0.4888139069080353 -0.32265907526016235 1.3535044193267822
-3.384127616882324 0.4427434802055359 -1.1827274560928345
-2.7284209728240967 -0.3102014660835266 1.3143240213394165
-2.526914358139038 0.2722029387950897 0.13684819638729095
2.7551028728485107 0.3295160233974457 -0.416454553604126
-1.7327793836593628 -0.050723522901535034 -0.8328225612640381
-2.350965738296509 0.5929818153381348 -0.8371056318283081
1.629830241203308 -0.45823371410369873 0.9822800159454346
0.8707030415534973 -0.05293382704257965 0.9675464034080505
-0.8877764344215393 -0.6735446453094482 0.7937829494476318
1.3912992477416992 0.060653701424598694 -0.8498356342315674
1.150081753730774 -0.608839750289917 -0.4319334626197815
-1.3761136531829834 -0.06324537098407745 0.9546359181404114
-0.8380882143974304 0.5697566270828247 -0.9741582274436951
-1.4518243074417114 -0.12966693937778473 1.1286736726760864
1.825744390487671 -0.4548984467983246 0.4760849177837372
2.102158784866333 -0.2570931315422058 -1.1684153079986572
-0.792666494846344 0.3967931866645813 -1.5926779508590698
-0.5928516387939453 0.4924325942993164 -0.04425903037190437
-0.2483547180891037 0.048204779624938965 0.21302884817123413
2.1305694580078125 0.11270572245121002 -0.06923069059848785
1.6018332242965698 0.39618489146232605 0.3261284828186035
-1.6944457292556763 -0.449352502822876 -0.5262454748153687
-0.17958620190620422 0.4165145456790924 -0.31810277700424194
0.6977778077125549 0.7441871166229248 1.1518374681472778
2.145937442779541 -0.07050544023513794 -1.310765027999878
-2.3066489696502686 0.3348521888256073 1.0368174314498901
-1.1348938941955566 0.637753963470459 1.091404676437378
1.1967549324035645 -0.019443824887275696 -1.4857720136642456
-1.67832612991333 -0.13267159461975098 0.6139687299728394
0.7073882818222046 -0.35559308528900146 0.30246174335479736
-1.4066096544265747 0.370259165763855 1.8306927680969238
-1.4510396718978882 -0.3834781050682068 -1.995644450187683
-1.1360398530960083 -0.012496128678321838 -1.2015334367752075
-1.9503422975540161 0.632966935634613 0.8180273175239563
-2.29660964012146 1.002009391784668 0.03626276180148125
-0.7069982290267944 0.597679078578949 1.1729347705841064
-1.5276424884796143 0.13833610713481903 -0.7057402729988098
0.759957492351532 0.15940938889980316 -0.0930156260728836
-1.682823896408081 -0.06799949705600739 1.0335801839828491
-0.8384585380554199 0.24813242256641388 -0.7622260451316833
2.2419633865356445 -0.4393634796142578 -0.2465539425611496
0.7420197129249573 0.66259765625 -1.0207679271697998
-1.9686830043792725 -0.6319937109947205 -0.202138751745224
-0.5638962984085083 -0.1492156684398651 -0.16970643401145935
2.182177782058716 -0.5784863829612732 -0.4217946529388428
0.6555658578872681 -0.5250531435012817 -0.9358059763908386
0.1473134160041809 0.45221322774887085 0.10978066176176071
-0.35410529375076294 0.2050429880619049 -0.8263388872146606
-1.753340244293213 0.39774906635284424 0.31002384424209595
0.8395274877548218 0.17102500796318054 -1.0912270545959473
0.2969457805156708 -0.29228341579437256 -1.0803617238998413
2.146089792251587 -0.41895437240600586 0.7714372873306274
-2.6826677322387695 -0.44093430042266846 0.6033077836036682
1.9885457754135132 0.42613181471824646 1.0406116247177124
2.798056125640869 0.4300919473171234 -0.781378448009491
0.6579180359840393 -0.6332930326461792 -1.257843255996704
2.0216925144195557 0.13439203798770905 1.5437524318695068
-2.147991418838501 0.7317457795143127 1.3389945030212402
1.1873488426208496 -0.35077670216560364 -0.8305108547210693
-0.06851187348365784 -0.321607768535614 1.6838829517364502
2.101754665374756 -0.6315386295318604 1.0336536169052124
-0.5801731944084167 -0.010908588767051697 -1.2804216146469116
0.5804614424705505 -0.3857460916042328 1.4609313011169434
-0.04290786385536194 -0.08640480041503906 -0.2461504191160202
1.1484873294830322 0.5928517580032349 -0.37255287170410156
0.013897038996219635 0.42747732996940613 -0.3280419111251831
-1.4875102043151855 1.0447723865509033 1.024332046508789
1.579189419746399 -0.3869801163673401 1.2031347751617432
0.17833659052848816 0.21904432773590088 -0.10623305290937424
0.24446970224380493 0.17382219433784485 0.6147478222846985
-1.526122808456421 0.47109541296958923 -0.5034410953521729
-1.8542602062225342 0.30683639645576477 -1.3969180583953857
2.367892026901245 -0.16709353029727936 1.2910096645355225
-2.39892578125 0.4914151430130005 0.17019835114479065
-1.2847118377685547 -0.44142648577690125 -0.6596157550811768
-2.4031805992126465 -0.5595121383666992 1.27764892578125
1.97280752658844 -0.2424106001853943 -0.12343620508909225
-0.0889991745352745 -0.6240625381469727 -1.3273972272872925
-0.4972294867038727 0.5568921566009521 -0.589387834072113
3.1212844848632812 -0.23334050178527832 -0.38502633571624756
-2.0736212730407715 0.4669533967971802 0.6045199632644653
2.5519261360168457 -0.6519187688827515 1.0783109664916992
-1.406772255897522 1.0826365947723389 0.29516085982322693
-0.8692919015884399 0.027587413787841797 0.27250465750694275
-1.4880229234695435 -0.22147132456302643 0.16902324557304382
2.080379009246826 -0.6336292028427124 0.4484725892543793
-0.2207605391740799 0.684529721736908 0.24859227240085602
-1.6974377632141113 0.6319906711578369 0.5186291337013245
-1.3197752237319946 0.4592949151992798 -0.17950019240379333
0.07603505253791809 -0.3298299312591553 1.1675444841384888
-0.06397471576929092 -0.4994048476219177 -1.5008704662322998
1.9265425205230713 -0.31222325563430786 -0.2568691670894623
-0.9108126163482666 0.05472959578037262 0.13466623425483704
-2.7358245849609375 0.9111714363098145 0.254330039024353
-0.2595994472503662 0.13863734900951385 -0.1669246256351471
0.9329496622085571 0.5628905892372131 -0.6341742277145386
0.40018123388290405 0.3994928002357483 -0.8488619923591614
-1.727718472480774 -0.4163780212402344 -0.74494469165802
2.4707279205322266 0.23846305906772614 0.6027228236198425
2.315103530883789 -0.05144451558589935 -1.226639986038208
-0.9040569067001343 -0.42862796783447266 0.7324292063713074
-2.2148141860961914 0.007083401083946228 0.16774502396583557
-0.39115646481513977 0.12124346196651459 0.2425336390733719
0.9779172539710999 -0.15471075475215912 0.8068320751190186
-0.651932954788208 0.08057734370231628 0.7031996250152588
2.5687694549560547 0.5151586532592773 -1.27149498462677
-0.4818268120288849 0.05367705225944519 -0.6277996897697449
-1.8206286430358887 0.4248242974281311 -1.3288049697875977
1.6339256763458252 0.2083311229944229 -0.96746826171875
3.285918951034546 -0.2516480088233948 -0.7878484725952148
-1.8020678758621216 0.39454230666160583 1.1126750707626343
-1.0620498657226562 -0.24383459985256195 0.7421558499336243
-0.8914687037467957 -0.4505607783794403 1.055831789970398
-0.3315599262714386 -0.17253951728343964 1.8901393413543701
0.8777451515197754 -0.5826455950737 -0.7161421179771423
-2.9309515953063965 0.33280545473098755 -0.9180052280426025
-1.5470088720321655 -0.5210831165313721 -1.3419454097747803
0.9024322032928467 -0.2201189547777176 1.6580449342727661
2.091682195663452 -0.3116008937358856 0.09204204380512238
-1.8770358562469482 -0.5263473987579346 -0.9854317307472229
-2.004326343536377 -0.5133898258209229 0.40318530797958374
3.5721383094787598 -0.19223859906196594 1.1254841089248657
-1.2202680110931396 -0.1574835181236267 0.7715128660202026
-1.144007921218872 0.43901652097702026 0.11696292459964752
-1.296838402748108 0.460149347782135 -0.6249743700027466
-1.039177417755127 0.5556128621101379 0.2768076956272125
-2.1748368740081787 0.13201622664928436 0.015926910564303398
-0.20452995598316193 0.7191282510757446 -0.1305069923400879
-2.053021192550659 -0.49144744873046875 -0.4148533344268799
-1.2537873983383179 0.3177625238895416 -1.046700119972229
0.3484359383583069 -0.19548098742961884 -0.23603816330432892
-0.6571395397186279 0.0810045599937439 -0.9938178658485413
1.2498805522918701 0.557500422000885 0.4988355338573456
2.1370646953582764 -0.16452352702617645 -0.24788320064544678
-1.6088358163833618 0.4080953001976013 0.3250473439693451
0.5095977187156677 0.2632500231266022 0.3982701301574707
-1.1941883563995361 0.027288615703582764 -1.5574595928192139
2.851085901260376 -0.03422005474567413 0.7751981019973755
1.866887092590332 -0.1934383511543274 0.5881022810935974
0.4969177842140198 -0.0864831954240799 1.4217983484268188
1.7059985399246216 -0.49417972564697266 -0.892495334148407
1.7672266960144043 -0.31931573152542114 -0.7312225699424744
-1.7562646865844727 -0.5455296039581299 -0.5805274248123169
-0.21584366261959076 -0.4529399275779724 0.053103432059288025
-3.1769495010375977 -0.21018560230731964 0.03624450042843819
-1.9841097593307495 -0.22094810009002686 1.0257385969161987
1.5284067392349243 0.040804922580718994 -1.2296334505081177
1.6344417333602905 0.14557474851608276 1.0704776048660278
-1.047409176826477 0.5179019570350647 -0.4811723530292511
0.24326163530349731 0.11497217416763306 0.7945517301559448
-2.987856388092041 0.13311414420604706 -0.9971866011619568
2.480661392211914 0.5808644890785217 -0.6102461218833923
-1.3798213005065918 -0.2489895224571228 0.8432459831237793
1.9654316902160645 -0.11344528198242188 0.5259381532669067
-0.7740445733070374 0.36205291748046875 -0.3820686638355255
0.38319242000579834 0.6830275654792786 -1.6336840391159058
-0.7202913761138916 -0.2149655818939209 0.8765000104904175
-0.4884021580219269 0.1754591017961502 0.6771204471588135
1.0909481048583984 0.43655943870544434 -0.976710855960846
-1.488344669342041 -0.27736619114875793 0.17505966126918793
-0.6753400564193726 0.35264649987220764 -0.3718735873699188
0.33190053701400757 -0.3607912063598633 -0.5611000657081604
0.4675271511077881 -0.5209470987319946 0.35475417971611023
-1.2305915355682373 1.0999537706375122 -0.0361546128988266
-0.49974051117897034 0.29881030321121216 -0.8546544313430786
-1.296720266342163 0.03320269286632538 1.718461513519287
-1.2684983015060425 0.2984001934528351 1.085338830947876
1.0250147581100464 -0.27343666553497314 -0.696147084236145
0.21441039443016052 -0.03976765275001526 0.5988550782203674
0.13714376091957092 0.6997095346450806 -0.34566691517829895
-0.5916478037834167 0.2688490152359009 0.44204747676849365
-1.8431675434112549 0.42075803875923157 -1.0600733757019043
0.19584903120994568 0.5493675470352173 -0.44315722584724426
0.3587411642074585 0.15409515798091888 1.078580617904663
-2.1651906967163086 -0.36690157651901245 -1.0725749731063843
-1.809016227722168 -0.3993595242500305 1.6569010019302368
-2.2067654132843018 0.9569678902626038 -0.29660677909851074
0.29376092553138733 0.7674573063850403 -0.07906640321016312
2.7279090881347656 -0.6135343313217163 0.859986424446106
0.8092488050460815 -0.1381891965866089 1.376467227935791
-1.4071969985961914 -0.19536946713924408 -1.3637604713439941
-1.7287952899932861 0.7658846974372864 -0.6583521366119385
-0.4985290467739105 0.7936875224113464 -0.049047790467739105
-0.1542409062385559 0.6364193558692932 0.21539868414402008
-1.9595386981964111 -0.136869415640831 -0.966404378414154
-0.4452759623527527 0.4497990608215332 0.7838041186332703
2.984513521194458 -0.4630451798439026 1.4086700677871704
0.9589086771011353 -0.13756826519966125 1.2094823122024536
0.33063262701034546 -0.3092113733291626 1.3556572198867798
2.6959645748138428 0.419877290725708 2.0755128860473633
0.7527539134025574 0.37656497955322266 -0.4887584149837494
-3.0701990127563477 0.3662494421005249 -0.7419795393943787
0.4693308472633362 -0.557741105556488 -0.5998358130455017
2.043443202972412 0.2911730110645294 0.5254917144775391
-0.657581090927124 -0.522865891456604 -0.03722379356622696
1.2850327491760254 -0.42210161685943604 -0.14953437447547913
1.3927500247955322 -0.3828279972076416 -0.7851081490516663
3.4680087566375732 -0.6687117218971252 -1.0674927234649658
1.3597198724746704 0.6226984858512878 0.7963098287582397
-1.912376046180725 -0.4300137162208557 0.09559766203165054
0.041298579424619675 -0.27619117498397827 0.21083050966262817
-0.18603292107582092 -0.5245492458343506 0.5237728953361511
1.4054005146026611 -0.2579861879348755 0.06968148797750473
-1.9658865928649902 0.9436556100845337 0.6982848644256592
1.7646312713623047 0.23523898422718048 1.6069152355194092
1.364474892616272 -0.31369316577911377 0.2828608453273773
-0.7967067360877991 0.5227461457252502 -0.8401989340782166
-0.05587325990200043 -0.08325144648551941 -1.1632248163223267
2.5248000621795654 0.6327298879623413 0.38258665800094604
2.7720324993133545 -0.26094889640808105 0.553173303604126
0.6719279885292053 0.7010045051574707 -0.35027554631233215
-2.0250420570373535 -0.32704246044158936 1.1141812801361084
1.535853385925293 -0.2333151251077652 1.5681183338165283
-0.3029929995536804 -0.2962646186351776 -0.27538272738456726
-0.1497085988521576 0.040034592151641846 -0.3697695732116699
1.215248703956604 0.37571093440055847 0.4119364321231842
-1.3487460613250732 0.2679969072341919 -0.3261397182941437
0.7466821670532227 -0.5492016077041626 1.3756335973739624
-0.34154391288757324 -0.43035829067230225 1.0751222372055054
-1.3725504875183105 0.1823284924030304 -0.06572221964597702
-2.615138530731201 0.21217851340770721 -0.18691545724868774
1.6852492094039917 0.3197793662548065 1.493451476097107
1.507468342781067 0.1201491504907608 -1.3667181730270386
3.146864652633667 0.22313478589057922 -0.41771674156188965
-0.717591404914856 0.03993445634841919 0.18301673233509064
-1.4269055128097534 0.6623879671096802 -0.39235103130340576
2.690311908721924 0.5573021769523621 1.1446975469589233
-1.3291980028152466 0.4866546392440796 -0.8182272911071777
1.0711467266082764 0.63158118724823 0.623652458190918
1.7526698112487793 -0.2494032233953476 0.28981849551200867
-0.6187580227851868 -0.5920755863189697 -0.6649797558784485
1.9611093997955322 -0.15303964912891388 -0.07612043619155884
-0.9908526539802551 -0.30349546670913696 1.4652994871139526
-0.10042703151702881 -0.12147915363311768 0.2756046652793884
1.0635666847229004 -0.4104251265525818 0.458728164434433
0.7190199494361877 0.056729793548583984 -0.073135606944561
-1.8438836336135864 0.8142324686050415 -1.1512696743011475
0.7498345971107483 -0.5095146298408508 -1.5830695629119873
-2.3341057300567627 -0.5555801391601562 1.3126543760299683
0.620621383190155 0.08877657353878021 -0.19546285271644592
1.1335893869400024 -0.24869194626808167 1.1362075805664062
3.9102227687835693 -0.6279764175415039 -0.34050673246383667
-1.8328336477279663 0.6541358232498169 0.23515267670154572
-1.9822723865509033 0.3655032813549042 -0.8822099566459656
-2.1745517253875732 0.2726069986820221 -0.30713239312171936
-0.12560942769050598 0.7645828723907471 0.0987936481833458
2.7005741596221924 0.3213866651058197 1.7313697338104248
-0.10613615810871124 0.43935704231262207 -1.318987250328064
-0.9081048369407654 -0.20689311623573303 -1.110633134841919
2.08797287940979 0.4149121344089508 0.530245304107666
0.947920560836792 0.9370638132095337 -0.5995835065841675
-1.1240744590759277 0.6820167303085327 0.39102455973625183
2.2515294551849365 0.09960998594760895 -0.8567984104156494
-2.0059282779693604 -0.25418734550476074 1.1674660444259644
1.1804050207138062 0.17048108577728271 0.8276273608207703
0.1025349572300911 0.81672203540802 -0.3799516558647156
1.1196626424789429 -0.18339933454990387 -1.1714144945144653
2.5587997436523438 0.676510214805603 -0.5415637493133545
-2.6512153148651123 -0.11980444192886353 -1.5516815185546875
0.17924906313419342 0.16353031992912292 -0.4140401780605316
1.579335331916809 -0.6804798245429993 0.6367343664169312
-1.8310037851333618 0.5874404907226562 -0.016027454286813736
2.2764077186584473 -0.7102887034416199 -0.7470183372497559
-1.0343244075775146 0.12375876307487488 1.038671612739563
2.4751830101013184 0.0606742799282074 -0.501226007938385
2.462395668029785 -0.12531854212284088 -1.5479774475097656
-0.05394309014081955 -0.33058077096939087 0.36490297317504883
-1.749524474143982 0.30395710468292236 0.21149256825447083
-0.6838036775588989 0.8238533139228821 0.04295698553323746
-2.2441632747650146 0.42856892943382263 1.1327356100082397
-0.7321722507476807 0.31570518016815186 1.6155649423599243
0.04185714200139046 0.04584337770938873 -0.05528298765420914
-0.348392128944397 0.9437680840492249 0.05404214933514595
-2.167848825454712 -0.19345618784427643 -0.8133983016014099
-1.0901715755462646 0.6300941109657288 0.9917446970939636
1.1527475118637085 -0.4257622957229614 1.2964591979980469
-0.6370904445648193 -0.024242043495178223 1.6375523805618286
-2.22706937789917 0.42768633365631104 -0.8682490587234497
1.9806134700775146 0.6160275936126709 -0.634057343006134
-0.8226982951164246 -0.6521958112716675 1.6066333055496216
-1.165183663368225 -0.04683910310268402 2.1384599208831787
-1.1755818128585815 -0.5029588341712952 -0.9159947037696838
-1.9156697988510132 0.4468423128128052 -1.2861196994781494
-0.9246230721473694 -0.15460486710071564 0.7803539037704468
1.8113765716552734 -0.12234926223754883 1.118638515472412
2.5054614543914795 0.2760661840438843 -1.4942561388015747
-1.8431899547576904 -0.5341503620147705 0.45200738310813904
-0.651698887348175 0.05032967031002045 -0.9944561123847961
1.4314231872558594 -0.39094114303588867 0.3310202658176422
1.7143213748931885 -0.49076443910598755 -0.7852197885513306
-2.227893114089966 -0.42187803983688354 1.2093231678009033
-1.5590547323226929 0.6876931190490723 0.01575501635670662
-1.2921396493911743 -0.6660901308059692 1.2482850551605225
-1.5586192607879639 -0.13221946358680725 0.933929979801178
-2.1256604194641113 1.195014238357544 -1.5169203281402588
-0.17716631293296814 0.5330716967582703 -0.6346432566642761
0.9103702902793884 -0.01978367567062378 0.6627295613288879
0.06311942636966705 0.23392228782176971 1.1525806188583374
-1.9737775325775146 -0.06262098252773285 -0.12514610588550568
2.6822712421417236 -0.048156335949897766 -0.2875308394432068
-2.161996841430664 -0.2852291762828827 0.45472684502601624
1.083472490310669 0.017049655318260193 -1.0549441576004028
1.017171859741211 -0.4524827301502228 -0.8306756019592285
-2.450488567352295 0.06416764855384827 -0.7038305401802063
1.8982479572296143 0.047315165400505066 0.2837044596672058
-0.6669851541519165 -0.03099575638771057 1.3536139726638794
-1.942646861076355 0.14949403703212738 -0.4285363256931305
1.1141053438186646 -0.09998458623886108 -0.7860710620880127
0.7455189824104309 0.5908843278884888 -0.2699311673641205
-0.2917008697986603 0.019266799092292786 -0.718424916267395
3.133843183517456 0.21986284852027893 0.3403010666370392
-0.37229233980178833 -0.6358077526092529 -0.11148157715797424
-0.2981494665145874 0.5574597120285034 0.09504211694002151
1.452777624130249 -0.17509715259075165 0.5927205085754395
-1.3505181074142456 0.8365286588668823 0.7328652143478394
2.490737199783325 0.6496891975402832 1.3745397329330444
1.8297791481018066 0.24451597034931183 1.0040837526321411
0.4804379940032959 0.23048539459705353 0.20422473549842834
-1.0026992559432983 0.7081489562988281 -0.22172604501247406
-1.6137582063674927 -0.41068851947784424 -1.0272291898727417
0.510677695274353 0.6265743970870972 -0.6882420778274536
2.778308391571045 -0.3894703984260559 -0.04229458048939705
-0.2714458405971527 0.5851963758468628 -0.5027016401290894
1.7953273057937622 -0.34394505620002747 -0.2446376532316208
2.5967793464660645 0.2852593660354614 0.7022483944892883
-2.38533616065979 0.5334711670875549 0.6067460179328918
2.0582499504089355 -0.0421227365732193 -0.2660101652145386
0.9413890242576599 -0.015338361263275146 -0.34851935505867004
0.8569356203079224 -0.0046746134757995605 0.6303471922874451
1.6157139539718628 -0.21849721670150757 1.7893625497817993
-2.5903851985931396 0.15541604161262512 -0.7915841341018677
0.42025861144065857 0.3719487190246582 0.40462470054626465
1.547056794166565 0.14533691108226776 0.7812650799751282
-1.2963600158691406 -0.5516866445541382 -0.06345120072364807
-1.4470094442367554 -0.4119524657726288 1.5258581638336182
0.2352101057767868 0.16934698820114136 -0.3242064416408539
-2.0560927391052246 0.3573662042617798 0.40194517374038696
2.631953716278076 0.5543638467788696 1.7652825117111206
-2.8404722213745117 0.2123863697052002 -0.7207846641540527
2.2055230140686035 -0.11180713772773743 -0.6956309080123901
1.5344264507293701 -0.617891788482666 -1.6562070846557617
0.4097437560558319 0.0833904892206192 0.877273440361023
2.7650840282440186 0.600027859210968 -0.2521326243877411
1.4569834470748901 -0.3413426876068115 0.5223795175552368
2.680253028869629 -0.39489519596099854 1.5177676677703857
-1.301665186882019 0.14027559757232666 0.6180383563041687
-1.5108710527420044 1.2457032203674316 -0.296583354473114
-1.2222814559936523 -0.45006245374679565 0.9111801385879517
-2.3023784160614014 0.8979676961898804 -0.4693898856639862
1.3088836669921875 -0.056145280599594116 -0.8809784650802612
2.600827932357788 -0.6225314140319824 0.8301750421524048
1.2179495096206665 -0.029452309012413025 -0.8596997857093811
-0.020452219992876053 -0.0030840784311294556 1.4137663841247559
1.2403215169906616 -0.17164748907089233 -0.9999865293502808
-1.1201128959655762 0.19396069645881653 1.134522795677185
-0.9806308150291443 0.645102322101593 0.7097741365432739
0.08072667568922043 0.7219694256782532 1.1831226348876953
-0.6237951517105103 1.0707491636276245 -0.17399932444095612
1.4206358194351196 -0.14345404505729675 1.3663527965545654
1.3055146932601929 -0.5645825862884521 -0.6137173175811768
-2.064328193664551 0.32843267917633057 -1.2927221059799194
1.0431766510009766 -0.11763632297515869 1.5613362789154053
-1.7842917442321777 0.37626010179519653 1.4303430318832397
-0.48729124665260315 -0.35726380348205566 0.6274992227554321
-0.2910553514957428 -0.40819478034973145 1.257529377937317
3.1176605224609375 -0.07803520560264587 -0.8271595239639282
-2.372237205505371 0.4484708905220032 -0.37385258078575134
-2.3455357551574707 0.20154701173305511 0.891582727432251
-0.9255121946334839 -0.2523668706417084 0.47631707787513733
-1.6623306274414062 0.44024306535720825 -0.4110526740550995
-2.522216558456421 0.49762284755706787 0.8837680220603943
1.5918928384780884 0.30673009157180786 -0.8097971677780151
0.9047753214836121 0.012121200561523438 -0.26448506116867065
-0.1325526088476181 -0.19276946783065796 -1.2670326232910156
-2.1778981685638428 0.23248900473117828 0.3729395270347595
2.066673517227173 0.3793770968914032 0.39403587579727173
0.3975279629230499 0.1992543637752533 -0.686093807220459
-1.3361172676086426 -0.38553673028945923 -0.967351496219635
2.329942226409912 0.46152716875076294 0.19555053114891052
2.608961343765259 -0.643501877784729 -0.2512929439544678
1.4014426469802856 0.14087332785129547 1.131797432899475
2.066694736480713 -0.08665260672569275 -0.4924651086330414
1.7034497261047363 -0.5503216981887817 2.367995023727417
2.215089797973633 0.6844561696052551 0.6048809885978699
-1.4191908836364746 -0.27345919609069824 0.7030472755432129
-1.669508457183838 0.33362877368927 0.5715380311012268
2.384025812149048 -0.7138807773590088 -0.3958197832107544
-1.9402482509613037 -0.5625258088111877 1.6345031261444092
0.42854586243629456 -0.2829209566116333 0.06827075779438019
-1.2978649139404297 0.02454403042793274 1.208779215812683
-1.3434046506881714 0.3398340940475464 1.7874348163604736
0.3441754877567291 0.032915979623794556 -0.8915915489196777
1.9672209024429321 -0.3644448518753052 0.5241959095001221
2.5024170875549316 -0.11382056772708893 -0.14549298584461212
-0.8044488430023193 -0.5915719270706177 0.8921455144882202
1.5621932744979858 0.36789894104003906 -0.8107233047485352
2.6511669158935547 -0.7723989486694336 -0.43782106041908264
-1.178533673286438 0.2695767879486084 0.4803936779499054
-1.4833238124847412 0.5714172124862671 -1.1382193565368652
-0.5237612724304199 -0.48403769731521606 0.15801472961902618
-0.7408630847930908 0.02126184105873108 0.8184108734130859
2.603451728820801 0.1488405019044876 -0.11572238057851791
-0.09279917180538177 0.43345242738723755 -1.3241225481033325
-1.7384068965911865 0.6002844572067261 1.5191367864608765
-1.6462322473526 -0.40868961811065674 -0.40333619713783264
-0.8470568060874939 0.1335001289844513 -0.51576167345047
1.483587622642517 0.7315767407417297 -1.0908936262130737
1.312004566192627 -0.07608948647975922 1.745355486869812
0.1036175936460495 0.39306479692459106 -0.7113401293754578
-2.5404140949249268 -0.5416543483734131 -0.30157238245010376
-0.5185582637786865 0.13066595792770386 -0.7205806970596313
1.390791416168213 0.7378535270690918 -0.21238990128040314
1.1293822526931763 0.4030304551124573 -0.9343500137329102
1.4916967153549194 0.7785881161689758 -0.7554492950439453
-2.1033902168273926 0.7358483076095581 -0.12168228626251221
0.3660179674625397 -0.5120404958724976 1.4700098037719727
2.0210120677948 -0.6000492572784424 0.9074454307556152
-1.7103078365325928 0.36321091651916504 -1.6744593381881714
1.4272534847259521 -0.12161360681056976 0.9369029998779297
1.2796255350112915 0.19337168335914612 0.31426137685775757
-0.9623565077781677 -0.36040350794792175 0.15224489569664001
-0.5955398678779602 0.32457128167152405 -0.6774799823760986
4.153623104095459 -0.48025915026664734 0.5336422324180603
-0.3036109209060669 -0.5122804045677185 -1.5112918615341187
-2.534552812576294 0.966060996055603 0.4962727129459381
1.2654083967208862 0.31104013323783875 0.9292510747909546
1.2371654510498047 -0.35790497064590454 -0.8925271034240723
-0.49127399921417236 -0.032555922865867615 -0.3937375545501709
-1.673351764678955 0.5749002695083618 -0.05958328768610954
0.9231547117233276 -0.03218291699886322 -1.4207885265350342
-2.305835008621216 -0.47414371371269226 0.19053007662296295
-0.18177121877670288 0.010822579264640808 -1.013306975364685
2.866560697555542 -0.3953361213207245 -0.1711014211177826
-1.9809291362762451 0.2202025055885315 0.040948379784822464
0.1958472728729248 -0.02394409477710724 -0.7599905729293823
0.7020068764686584 -0.09381264448165894 -0.0594572089612484
-1.4440803527832031 0.9943014979362488 -0.03512989729642868
1.7316062450408936 0.5810807943344116 -1.1655209064483643
-0.30753523111343384 1.0758308172225952 0.19606715440750122
-0.5833072662353516 0.569884181022644 0.7776848673820496
-0.7400028705596924 -0.20087863504886627 0.7666606307029724
-0.3390447795391083 0.7074087262153625 0.5744205117225647
0.3540007770061493 -0.36037778854370117 -0.9709794521331787
1.860170602798462 0.10461404919624329 -0.4688992202281952
-0.22132909297943115 0.6126369833946228 1.3501629829406738
0.5440714359283447 -0.41443634033203125 -0.5791453123092651
-0.6498701572418213 0.4458886384963989 -0.10995634645223618
1.842144250869751 0.04947032034397125 -0.6029802560806274
2.031686782836914 -0.0814153254032135 -1.560922622680664
-0.3804001808166504 -0.3000936210155487 0.45780327916145325
0.6244001388549805 0.2610870897769928 -0.10408110171556473
-2.0139007568359375 -0.03194059431552887 0.9426060914993286
2.8694725036621094 -0.6256359219551086 0.32287028431892395
-0.8185484409332275 0.19323119521141052 -0.2777866721153259
2.3004324436187744 0.043702855706214905 -1.1694642305374146
-1.2012065649032593 0.1389983743429184 -1.7039010524749756
-0.9035015106201172 -0.6224801540374756 0.5941832661628723
-0.5294232964515686 0.7969018816947937 1.265318512916565
-0.07088597118854523 0.10503103584051132 1.8817815780639648
0.3981182873249054 0.7587641477584839 -0.3437296748161316
0.5219416618347168 -0.25266343355178833 -0.6012858152389526
-1.956380844116211 1.278289794921875 -0.9651073813438416
-2.5805764198303223 0.8079976439476013 -0.17709484696388245
1.7888028621673584 -0.6385509371757507 1.4333959817886353
1.6558598279953003 0.5582404732704163 -0.9946630001068115
1.586875081062317 0.6741451621055603 -0.26447659730911255
0.8223236799240112 0.8963322043418884 0.3716915249824524
2.5939784049987793 0.1640634834766388 -0.6151410341262817
-0.8783330917358398 1.0057429075241089 0.3874465525150299
1.4453630447387695 0.6311517953872681 -0.5642542839050293
0.8820793628692627 0.6705142259597778 -0.8670219779014587
2.3362205028533936 -0.23837563395500183 -1.4116947650909424
1.6162798404693604 -0.618087649345398 0.21928514540195465
-1.7683626413345337 -0.032839640974998474 -0.07005811482667923
0.5357399582862854 0.8497856259346008 -0.9275388121604919
-2.089651584625244 0.011938914656639099 -0.9283515810966492
1.3642065525054932 -0.03606759011745453 0.46226146817207336
3.3259999752044678 -0.7130650281906128 -0.48259568214416504
0.3832489848136902 0.5008099675178528 -1.098612904548645
0.312618225812912 0.2442246377468109 0.9251809120178223
1.6337356567382812 -0.4420838952064514 0.7041377425193787
2.956326723098755 0.617756724357605 -1.0795305967330933
2.2487428188323975 -0.7953373789787292 -0.2635353207588196
-0.14281895756721497 0.7539715766906738 -1.0247381925582886
1.5660145282745361 -0.5868366956710815 -1.1657453775405884
-2.1916205883026123 -0.33915531635284424 0.48854556679725647
1.671781301498413 -0.2910199761390686 0.5277806520462036
1.4740533828735352 -0.6513570547103882 0.31925567984580994
-1.1705138683319092 -0.38894543051719666 0.004266289994120598
2.6967740058898926 0.13833725452423096 -0.9424876570701599
1.9870762825012207 0.0449695885181427 0.8455252051353455
-2.923539638519287 0.3855585753917694 -0.08916638791561127
0.6953888535499573 0.1877799779176712 0.4559011459350586
0.34886860847473145 0.9226347208023071 -0.17932143807411194
-1.1252225637435913 0.9199041128158569 0.31431737542152405
1.422211766242981 -0.16445614397525787 0.3258206248283386
1.5426779985427856 0.384945273399353 -0.4775262773036957
-0.49722209572792053 -0.3580687642097473 1.13230299949646
0.9517025947570801 0.1858942210674286 -0.648507297039032
-1.2497475147247314 0.8653644323348999 -0.14612671732902527
1.2691961526870728 0.5119463801383972 1.4720847606658936
0.7054392695426941 0.38561367988586426 1.3868130445480347
-2.1917333602905273 -0.26244646310806274 1.16791570186615
-1.595266580581665 -0.20985975861549377 1.4423521757125854
-2.025688409805298 0.9154148101806641 0.1449689120054245
-0.5465399026870728 0.019605085253715515 -0.050259292125701904
1.0786757469177246 -0.08168067038059235 -1.030778169631958
3.0585997104644775 0.08817838132381439 0.275359570980072
1.4258217811584473 -0.4839707911014557 0.8610712885856628
2.6434946060180664 0.25865983963012695 0.4250991642475128
-2.397921562194824 0.050468817353248596 -0.6080828309059143
-1.791623592376709 0.18533988296985626 -0.6223937273025513
-0.3688979744911194 -0.5062477588653564 -0.22642162442207336
-1.1951829195022583 -0.7141686677932739 2.2133617401123047
-2.262650966644287 -0.07749281823635101 0.9417368769645691
2.7133326530456543 -0.3303850293159485 0.0025318691041320562
-2.2500035762786865 0.1013251394033432 -0.062317855656147
0.14130772650241852 0.02186278998851776 0.7521279454231262
-0.7027081847190857 0.4991382956504822 -0.0464399978518486
-0.869608998298645 -0.4372878670692444 -0.47865572571754456
1.6746959686279297 0.5837063789367676 -0.23888087272644043
0.57825767993927 -0.0827428549528122 -0.69856858253479
-2.2071595191955566 0.4881203770637512 0.9847407341003418
0.9358087778091431 -0.273113876581192 1.315193772315979
0.2189387083053589 -0.4049046039581299 -0.6653331518173218
-1.4396291971206665 0.0932060182094574 -1.5731382369995117
-0.8233950138092041 0.4338962435722351 0.09279315918684006
-2.1359493732452393 0.09332367777824402 0.8694508075714111
-0.9707754850387573 -0.06020674109458923 -0.1819869875907898
-0.7306614518165588 -0.521232008934021 1.0989311933517456
2.201615810394287 -0.38318389654159546 -0.2157461792230606
-1.6300560235977173 0.18929071724414825 -0.9844627380371094
3.091553211212158 0.12391442060470581 -1.027653694152832
1.4009277820587158 0.16783328354358673 1.4556283950805664
0.40701770782470703 0.1618524193763733 -0.06843246519565582
-0.35600540041923523 0.24583154916763306 -0.16323153674602509
1.523118495941162 0.49731406569480896 0.4723174273967743
-0.6446918845176697 0.5683447122573853 0.030676160007715225
1.8441188335418701 -0.4882235527038574 -0.7227240204811096
0.14580613374710083 0.3829941153526306 0.5486778616905212
-0.9427050948143005 -0.06427116692066193 1.7778348922729492
1.6098432540893555 0.04322534799575806 -1.2225342988967896
-1.8180656433105469 -0.5031497478485107 0.4688352942466736
-0.7298489809036255 -0.1659201830625534 1.1421419382095337
-1.8758527040481567 0.8278793096542358 -0.5067753195762634
-2.2948384284973145 0.7816591858863831 -1.043202519416809
-1.2241547107696533 0.7184905409812927 -0.3747577369213104
-1.597479224205017 1.066654920578003 0.7444317936897278
-2.210362195968628 0.5142430067062378 0.6489213705062866
2.9602200984954834 0.14596185088157654 0.2255038619041443
-0.9855024814605713 0.0707174688577652 -0.7123425602912903
0.9806930422782898 0.41964247822761536 0.22746948897838593
-1.1326191425323486 -0.1250569075345993 0.2685292065143585
1.3419328927993774 -0.5973663330078125 0.36877763271331787
-0.3141990900039673 0.701540470123291 -0.04548390582203865
2.7160840034484863 -0.2903613746166229 0.6148877739906311
-0.42031458020210266 -0.5370030403137207 -0.052199073135852814
-0.8321019411087036 0.31748467683792114 0.8192445635795593
-0.7102887630462646 0.6871204972267151 0.8155326247215271
2.950301170349121 0.06529678404331207 -1.3415424823760986
-1.7628577947616577 -0.44237005710601807 -1.5120176076889038
1.5372461080551147 -0.5403563976287842 -1.1389338970184326
-1.7765822410583496 0.31979143619537354 0.425778329372406
0.7218824028968811 -0.3424313962459564 0.027454301714897156
-3.6772217750549316 0.9264217615127563 -0.022026102989912033
-0.7560140490531921 0.6333468556404114 -0.6473725438117981
-0.8879885077476501 0.3245384395122528 -0.20691370964050293
-1.9433118104934692 0.7532459497451782 1.6920757293701172
0.14801935851573944 -0.636757493019104 -0.7691075205802917
1.9501783847808838 0.15176348388195038 0.01670876517891884
-1.8360611200332642 0.3123128414154053 -0.03828498721122742
-0.6410905122756958 -0.15462055802345276 0.10225729644298553
0.08085939288139343 0.18808186054229736 0.9924348592758179
-0.49874362349510193 -0.38490989804267883 -0.6730071306228638
-1.2035290002822876 -0.37923815846443176 -0.7518159747123718
-0.44833919405937195 0.10373665392398834 1.0341687202453613
2.8769474029541016 0.037364616990089417 -0.2050320953130722
2.546251058578491 -0.6896729469299316 -0.7563402652740479
0.5119383335113525 0.08199167251586914 0.49030813574790955
-2.0865583419799805 -0.3741934597492218 -0.6752634644508362
-0.4220443069934845 -0.09938663244247437 0.1890900880098343
1.944191813468933 -0.5007441639900208 -1.4838221073150635
-0.8439154028892517 0.002114608883857727 0.9032816290855408
-1.303884506225586 -0.5876975059509277 -0.8568919897079468
2.061915874481201 -0.10577404499053955 1.716592788696289
-0.8921830654144287 -0.009316712617874146 0.4353976547718048
-2.015735149383545 -0.45394232869148254 -0.47385889291763306
-0.04828376695513725 0.6389037370681763 -0.7967179417610168
2.904453992843628 -0.19796232879161835 0.9746437072753906
2.6513657569885254 0.04764333367347717 0.19826924800872803
0.16262274980545044 -0.2764310836791992 0.09705143421888351
1.7538456916809082 0.17645452916622162 -0.4922195374965668
-1.0124421119689941 0.1951472908258438 -1.0692192316055298
2.4319581985473633 0.4537521302700043 -0.31992533802986145
1.5786842107772827 -0.47678956389427185 -0.5803847908973694
0.38402700424194336 -0.16711753606796265 -1.261464238166809
-1.418620228767395 -0.089035764336586 -1.0515414476394653
-0.29033324122428894 0.5334495902061462 -0.8472583293914795
2.808760166168213 -0.1106066107749939 0.5655591487884521
1.6811894178390503 -0.4404994547367096 0.545850396156311
0.41654273867607117 -0.19155187904834747 1.1763447523117065
0.5751312971115112 0.4799961745738983 -1.197293996810913
-0.3229902386665344 -0.10383975505828857 0.6721096038818359
-0.4729098975658417 -0.05435708165168762 -1.3969463109970093
-1.0780011415481567 0.6993423700332642 0.14419050514698029
0.5753652453422546 -0.12895719707012177 0.6890316605567932
-1.297288179397583 -0.5850417613983154 -1.212471842765808
1.162699580192566 -0.3622047007083893 0.6670875549316406
1.5553861856460571 0.16334114968776703 0.22750967741012573
-1.3990442752838135 0.8377454876899719 -0.061276573687791824
2.116875648498535 -0.20553486049175262 1.6580106019973755
1.1892077922821045 -0.05269801616668701 -1.5370837450027466
-0.659967839717865 -0.3291211426258087 0.8695585131645203
