ply
format ascii 1.0
element vertex 819
property float x
property float y
property float z
end_header
-1.754002571105957 0.24779070913791656 -0.7235982418060303
3.0213940143585205 0.7718583941459656 1.0920950174331665
1.3737889528274536 1.1377993822097778 -0.8960698246955872
2.6807827949523926 -0.9721267223358154 1.2901227474212646
-0.018876954913139343 -0.11436015367507935 0.4564496874809265
2.453887701034546 0.09820231795310974 0.9306344389915466
1.609647274017334 -0.043933331966400146 -0.7146801352500916
-2.110239267349243 0.04111829400062561 -0.9865403771400452
-2.182251453399658 -0.32376861572265625 1.0328668355941772
2.1676323413848877 0.05059797316789627 -0.8942732810974121
-2.770442485809326 0.5857577323913574 -0.5081044435501099
-0.5493237376213074 0.135678231716156 -1.052510380744934
2.120190382003784 0.07083482295274734 -0.3084771931171417
-0.9665536284446716 1.2631593942642212 0.9667693972587585
-2.3308510780334473 0.8534976243972778 0.48332732915878296
2.455653429031372 -0.8483568429946899 1.6423678398132324
-0.5855931639671326 0.2013305127620697 1.0422484874725342
2.112017869949341 -0.22361448407173157 -0.8151090741157532
2.798466205596924 0.7685832977294922 -1.1244127750396729
-1.3200467824935913 -0.33153679966926575 0.015409830957651138
2.3761391639709473 -0.19944077730178833 0.5588836669921875
1.8203651905059814 0.6797272562980652 -0.5035173296928406
1.0117912292480469 0.09722193330526352 0.6040605306625366
2.4838955402374268 0.13399159908294678 -1.4909851551055908
2.6630985736846924 -0.3617715835571289 -1.2692893743515015
1.962762475013733 -0.13485576212406158 0.2201874852180481
0.02903435379266739 -0.1049734354019165 -0.25239649415016174
-2.3571200370788574 0.8841556906700134 0.7655975818634033
-0.45701152086257935 0.16800546646118164 -0.07176795601844788
1.1521049737930298 1.2293248176574707 -1.082122564315796
0.9164974689483643 1.327093482017517 -0.8061283230781555
-0.9942381978034973 -0.11805479228496552 -0.9417511820793152
-2.0218706130981445 -0.025564908981323242 0.9720953106880188
-1.258216381072998 0.49365007877349854 -0.6953608393669128
2.3213319778442383 0.934888482093811 1.1292877197265625
0.25625067949295044 0.8965075612068176 -0.9407715201377869
-1.305983066558838 -0.25102534890174866 0.7662897109985352
-0.2934451103210449 1.2929046154022217 1.0803210735321045
2.011685848236084 -0.8590152263641357 -1.0354318618774414
1.8127844333648682 -0.22646810114383698 -0.7673718929290771
0.9462300539016724 1.0205587148666382 -0.7836059927940369
-1.6308611631393433 -0.7167717814445496 -1.357042670249939
-2.6005964279174805 0.2634071707725525 0.9473884701728821
-2.1277081966400146 -0.346843421459198 -1.1396970748901367
1.3117583990097046 0.8955477476119995 1.2418169975280762
2.323888063430786 0.7627785205841064 -0.9554746150970459
-0.7312119007110596 -0.02658221125602722 1.1559284925460815
1.8757368326187134 -0.1736680269241333 -0.4005303382873535
3.1753275394439697 0.47620120644569397 0.3063894808292389
-0.6083130836486816 0.389021635055542 0.7538890242576599
-2.3347387313842773 0.9608967304229736 0.8974155783653259
-1.2059075832366943 0.32725730538368225 -0.3224118649959564
-0.8969475030899048 -0.03381866216659546 -1.1960926055908203
2.376004934310913 0.034826576709747314 -1.0041435956954956
-0.5359503030776978 0.10568442940711975 0.8489112854003906
1.364883303642273 0.7405697107315063 -0.8110551834106445
1.6870886087417603 -0.5372386574745178 -1.3281985521316528
1.7552621364593506 -0.5760464668273926 -1.4501962661743164
-0.4173513352870941 -0.12347307801246643 0.314927339553833
-0.7818328738212585 -0.30416762828826904 -0.3265514671802521
0.3042081296443939 1.27132248878479 0.8356720805168152
-1.0676215887069702 0.9365395307540894 1.219841480255127
0.8727531433105469 0.09198025614023209 1.2274575233459473
1.7257099151611328 0.6610416173934937 -0.5921437740325928
-0.04109429568052292 -0.098483607172966 -0.24666087329387665
2.730072259902954 0.1641668677330017 1.5808701515197754
2.570070505142212 -0.8573545217514038 1.0423593521118164
2.7434730529785156 -0.19445264339447021 1.075438141822815
2.2840263843536377 0.267963707447052 0.42041656374931335
0.9198112487792969 1.4104859828948975 -0.8016483187675476
2.945125102996826 0.9453498125076294 -0.0519641637802124
0.08392453193664551 0.15548494458198547 -1.0370814800262451
0.9135209321975708 0.05914042145013809 1.2336193323135376
2.756830930709839 -0.9230359196662903 1.543144941329956
1.875967264175415 0.8603397011756897 -0.4273701608181
-1.3578178882598877 -0.1463143527507782 -0.9437704086303711
2.3497631549835205 0.9803428053855896 0.9228196144104004
-0.950803279876709 0.819699764251709 0.8710916042327881
2.9185314178466797 0.9523144364356995 -0.044272419065237045
2.8221845626831055 0.40108180046081543 0.9902164936065674
0.15210889279842377 0.39451149106025696 -1.0519027709960938
-0.5595378875732422 0.5644450783729553 -0.4218366742134094
-2.006864547729492 0.02180139720439911 -0.9241266250610352
2.4613428115844727 0.8110978007316589 -0.7061777710914612
2.642120122909546 -0.0914716124534607 -1.478124976158142
2.7626025676727295 -0.854948878288269 -1.132461667060852
2.3121516704559326 0.5576950311660767 -0.9931209087371826
1.7929867506027222 -0.0170908123254776 1.2984445095062256
-1.8736358880996704 0.31540435552597046 -1.4331722259521484
2.1936514377593994 0.3078600764274597 -1.364835262298584
1.6614396572113037 -0.3599624037742615 -1.1316983699798584
2.558474540710449 0.9819146990776062 0.6436653137207031
-1.7635451555252075 -0.4669593870639801 1.463112473487854
-1.4391942024230957 0.3612707257270813 0.5634638071060181
-2.64825701713562 0.6574318408966064 0.0370912104845047
2.1168224811553955 0.3638307452201843 1.2666281461715698
-1.8528193235397339 0.20282301306724548 -0.652018129825592
2.883004903793335 -0.7464730739593506 1.6368508338928223
2.619393825531006 0.7352614402770996 -0.21459288895130157
1.417820930480957 0.8125908374786377 -1.025232195854187
-1.3894190788269043 1.2240219116210938 1.131888508796692
-0.8704243302345276 0.2733309864997864 -1.1491057872772217
-1.8735824823379517 -0.13549067080020905 -0.3712092936038971
2.300215244293213 -0.3191986083984375 0.4911227524280548
2.87976336479187 0.9315639734268188 0.8846958875656128
0.48658090829849243 -0.12267249822616577 -0.06379935890436172
1.6248327493667603 0.8527108430862427 0.5336854457855225
2.5572502613067627 -0.41669073700904846 -0.7709706425666809
1.4592574834823608 0.9545702338218689 -0.5683143138885498
-0.8077276349067688 0.7529078722000122 0.5450892448425293
2.1468870639801025 -0.3214135766029358 1.2109858989715576
2.637356996536255 -0.8481051921844482 -1.4861462116241455
2.458622932434082 -0.6866120100021362 -0.6408247351646423
0.8277811408042908 1.0613954067230225 0.5890119671821594
-1.8339512348175049 0.06571807712316513 1.4265257120132446
1.3203638792037964 0.037911027669906616 -0.7426825165748596
2.801199436187744 0.5719505548477173 -0.20394831895828247
-0.2784159481525421 1.3417950868606567 1.0494502782821655
-1.5784865617752075 0.8619779348373413 0.9478843212127686
-1.5588457584381104 0.6710224747657776 -0.8644802570343018
2.552936553955078 -0.7316312789916992 1.5285698175430298
-0.3419540524482727 -0.07385537028312683 -0.6987890601158142
-1.1304631233215332 1.2445764541625977 1.146280288696289
2.9964547157287598 -0.1812693476676941 1.0373172760009766
1.8913583755493164 0.22013325989246368 -0.4154510200023651
-0.7325642108917236 -0.022791922092437744 -0.23448148369789124
2.617943286895752 -0.6887398958206177 -0.8640521764755249
1.8285599946975708 0.8096582889556885 -0.35693445801734924
2.035266637802124 1.0208183526992798 -0.10307508707046509
1.2578151226043701 1.0024230480194092 1.2015727758407593
3.094043493270874 -0.36767032742500305 -1.3948636054992676
2.0733799934387207 -0.16802898049354553 1.6219044923782349
-0.6341506242752075 0.159475639462471 0.6476505994796753
2.3875675201416016 -0.4297848343849182 -0.33085691928863525
2.0101640224456787 -0.1321307122707367 -1.4750193357467651
1.360602617263794 0.6455674767494202 -1.0433545112609863
-1.8505374193191528 0.11247386038303375 -1.0914956331253052
-2.1443488597869873 0.27499598264694214 0.9722269177436829
1.5472711324691772 -0.02897326648235321 0.7010092735290527
-2.2006399631500244 0.786079466342926 -0.41696980595588684
0.8076074719429016 0.04976915568113327 -0.8691553473472595
1.200088381767273 0.5554250478744507 1.2793874740600586
-2.1320488452911377 0.4755531847476959 0.10482951253652573
-1.1503355503082275 0.31799647212028503 0.47850266098976135
1.7929250001907349 0.4236142635345459 -0.8597303032875061
-1.889512538909912 0.9368823766708374 1.041032314300537
-2.0048999786376953 -0.06318293511867523 -1.0615285634994507
2.9937291145324707 -0.6800400018692017 -1.0949153900146484
-0.07006864249706268 0.38173022866249084 0.33799028396606445
1.2381768226623535 1.0827218294143677 0.20512020587921143
-1.198363184928894 0.34965646266937256 -0.07079332321882248
-0.12738479673862457 -0.10998918116092682 0.24888864159584045
-0.9961175322532654 -0.6004260778427124 1.0016324520111084
1.9713186025619507 -0.6094372868537903 -0.851590096950531
2.8360753059387207 0.17004232108592987 0.0010102542582899332
-1.8823792934417725 -0.3072463870048523 0.8570573329925537
3.0582661628723145 0.7304022312164307 -0.8827716708183289
-0.7934579849243164 0.8419041037559509 0.39848873019218445
1.585365653038025 -0.45207828283309937 -1.004071831703186
2.589170455932617 0.9493408799171448 -0.91877281665802
1.064969539642334 0.44362419843673706 1.2739547491073608
1.519547939300537 0.027251914143562317 0.25074532628059387
2.4304330348968506 0.8240900039672852 -0.1727110594511032
1.1152681112289429 -0.12403486669063568 0.6169310212135315
-2.4669241905212402 0.8188941478729248 -0.23957470059394836
2.33587646484375 0.82329261302948 0.44583678245544434
2.8941071033477783 -0.7933416366577148 -1.3270795345306396
2.4718728065490723 0.33910036087036133 -1.4777418375015259
-1.6880472898483276 -0.6329585313796997 0.9273916482925415
-1.9602574110031128 -0.20642594993114471 1.4669485092163086
2.0124590396881104 -0.21582932770252228 -1.4190962314605713
2.7614243030548096 0.09813720732927322 -1.4867963790893555
3.0138630867004395 0.28317636251449585 1.2940233945846558
1.367145299911499 0.04549069702625275 0.14279861748218536
-2.061990737915039 0.7027550935745239 1.2945889234542847
1.6859077215194702 -0.10464447736740112 1.4181588888168335
2.889817953109741 -0.8892478346824646 1.0366406440734863
1.8484028577804565 0.4711281359195709 -1.3061178922653198
0.20646101236343384 -0.10850560665130615 -0.05873642489314079
2.8025920391082764 0.43074357509613037 -0.11087402701377869
-1.7038664817810059 0.6419269442558289 -1.3930847644805908
-1.167189121246338 0.306412011384964 -0.8532117009162903
-2.326347589492798 0.0376674085855484 0.1699654459953308
-2.6049818992614746 0.04504106938838959 -0.7590635418891907
2.133704662322998 0.5412054061889648 -0.9872937202453613
2.1816234588623047 0.18483419716358185 -0.9275031089782715
2.114433526992798 -0.05471193790435791 0.9168537259101868
0.7259002923965454 1.1294713020324707 0.792908787727356
-1.923448920249939 0.030528157949447632 -1.3489431142807007
-1.9314377307891846 -0.8200837969779968 -1.4206103086471558
-2.4336273670196533 1.0145183801651 0.2338746041059494
-1.309215784072876 0.6420093178749084 0.9506562352180481
-0.7403372526168823 -0.10343088209629059 -1.4140369892120361
-1.3244532346725464 -0.4382566213607788 0.6834765672683716
-2.131528377532959 -0.057600587606430054 -0.08552080392837524
0.9765200018882751 0.05992083251476288 0.667036235332489
-2.249857187271118 0.5836106538772583 0.803164541721344
-1.130908727645874 -0.27130886912345886 -0.27941644191741943
0.2827945649623871 -0.11185404658317566 -0.7116987109184265
-1.0548595190048218 0.09776286035776138 -0.9347893595695496
2.656324863433838 -0.7253096103668213 1.358445405960083
-1.8619316816329956 0.24175722897052765 -1.4152915477752686
-1.700864315032959 -0.16836297512054443 -0.5016288757324219
2.0401012897491455 -0.018364906311035156 0.3704819977283478
-1.5655277967453003 -0.996703028678894 1.4576176404953003
0.7413172721862793 -0.21006852388381958 -0.37577390670776367
0.10878502577543259 -0.1394158899784088 1.1078261137008667
2.4816534519195557 0.32042253017425537 -0.9584338665008545
-0.4658724367618561 0.1278739869594574 -0.20674264430999756
0.8430058360099792 0.37274298071861267 0.9813146591186523
-2.5235049724578857 1.2286128997802734 0.6236624121665955
2.2417118549346924 0.806739330291748 0.6707878708839417
-1.6332252025604248 0.29892316460609436 0.2727910280227661
-0.07649943232536316 0.4186871647834778 1.2950456142425537
2.448495388031006 0.9722205400466919 0.9408559203147888
0.743744969367981 1.1658366918563843 0.8115559816360474
1.0489935874938965 0.5227991342544556 1.0055904388427734
0.08615390956401825 -0.1083327978849411 0.0036689857952296734
-1.2038718461990356 -0.5667750835418701 0.8247925043106079
0.917792558670044 1.1510637998580933 0.7566012740135193
2.3880231380462646 0.9802036285400391 0.632634699344635
1.823880672454834 0.25881078839302063 1.3599917888641357
-1.6144921779632568 -0.25397372245788574 1.4141383171081543
2.6595120429992676 -0.6889504790306091 1.4113473892211914
-2.103114604949951 -0.7637821435928345 -1.2585508823394775
-2.286966323852539 -0.47058266401290894 1.3554728031158447
-1.5193039178848267 -0.23748904466629028 -0.6458182334899902
-0.801899790763855 0.6863165497779846 -1.4327675104141235
-1.3882756233215332 0.893435001373291 0.9803310632705688
-2.5179333686828613 0.5123922228813171 -0.23414015769958496
-1.0668951272964478 0.4768143892288208 -0.10565438866615295
0.3577755093574524 0.5229463577270508 1.006613850593567
2.510127544403076 0.831455647945404 -0.8812000751495361
0.9443452954292297 0.4902135133743286 1.0015455484390259
-1.3920546770095825 0.48033738136291504 -1.1745752096176147
-2.159525156021118 -0.20271803438663483 -0.19198819994926453
1.780592441558838 -0.08885800838470459 -0.7843466997146606
-1.22391676902771 0.3534759283065796 -0.8739989995956421
2.4643635749816895 -0.2383662462234497 -0.14619967341423035
0.28995829820632935 0.1521540880203247 -0.743068277835846
2.1652746200561523 -0.06269988417625427 -0.31410011649131775
2.781033515930176 0.3316870331764221 0.41522231698036194
1.8498257398605347 0.08293638378381729 0.30556029081344604
-2.2845988273620605 -0.5418461561203003 1.3042852878570557
1.1733276844024658 -0.12911435961723328 0.3592814803123474
-0.446230411529541 0.4122084081172943 -1.0893731117248535
0.5635072588920593 -0.005303636193275452 -0.9775086045265198
1.4357918500900269 0.1487029641866684 -0.6688221096992493
-1.071562647819519 0.856521725654602 -1.0733572244644165
-1.4112685918807983 -0.7096139192581177 1.463472604751587
2.3012149333953857 1.0131425857543945 -0.41834747791290283
-0.02221900224685669 0.06756102293729782 0.9872796535491943
-2.4443857669830322 1.0493403673171997 0.24938209354877472
2.86871337890625 0.07874550670385361 -1.0580333471298218
-1.9138869047164917 0.4049780070781708 1.182145118713379
2.2622787952423096 0.21168595552444458 0.3501710891723633
3.013164758682251 -0.6258141398429871 -1.1848641633987427
0.9796077609062195 0.08375920355319977 0.23175539076328278
-1.7468070983886719 0.8873767256736755 -0.9276827573776245
2.804311752319336 0.021391212940216064 -0.9697282910346985
2.243798017501831 0.1842499077320099 -1.1807132959365845
2.3183069229125977 0.39258891344070435 -0.9286513924598694
-0.5618252754211426 0.2142246812582016 1.3117278814315796
-2.4812278747558594 -0.24143828451633453 -1.0479010343551636
0.8451663255691528 0.06488539278507233 -0.06411737203598022
1.008554220199585 0.5524409413337708 -1.0124586820602417
-1.6698415279388428 -0.9549471735954285 1.094664216041565
-0.24968712031841278 -0.0263175368309021 1.2239809036254883
2.2552852630615234 -0.5582780838012695 -0.8310673236846924
-1.6908297538757324 0.14760607481002808 -0.7157526016235352
-0.31779944896698 1.1053814888000488 -0.7589750289916992
2.5133743286132812 -0.2703164219856262 -0.5826715230941772
3.0252859592437744 0.9077260494232178 0.48513075709342957
-1.091721773147583 0.22776508331298828 -0.6709238290786743
-1.836961269378662 -0.005466029047966003 -1.2824621200561523
3.093256711959839 0.5991206765174866 -0.30337902903556824
-1.5505512952804565 -0.6673479676246643 1.0467848777770996
-2.6265223026275635 0.44799092411994934 0.12248779088258743
3.1300697326660156 0.2201816290616989 -0.17447201907634735
2.4245200157165527 -0.6223128437995911 -1.3903061151504517
0.9741555452346802 0.1815059781074524 -0.7483440637588501
2.8319549560546875 0.0069696903228759766 -1.4750319719314575
-1.0383915901184082 0.3415040373802185 -0.9145482778549194
-0.7276131510734558 -0.2412813901901245 -1.2190731763839722
-1.0412588119506836 -0.17419467866420746 1.4121031761169434
2.491196870803833 -0.3773806095123291 -0.16225117444992065
2.8294527530670166 0.752897322177887 1.210256576538086
2.1843607425689697 0.8166380524635315 0.0881255567073822
-2.19771671295166 -0.4271937608718872 -1.2842260599136353
2.6733462810516357 -0.9673973917961121 1.1483678817749023
0.47135767340660095 0.13375088572502136 0.6664548516273499
-2.1657874584198 0.6111245155334473 -0.1935015469789505
-0.7849851846694946 0.021317213773727417 1.1249269247055054
0.9692608714103699 1.2061350345611572 0.4645281434059143
0.4058581590652466 0.08622961491346359 -0.5657472610473633
0.3322407305240631 0.16270580887794495 -1.0129239559173584
1.188652515411377 0.4015074372291565 1.2911792993545532
1.1186437606811523 1.2275464534759521 0.588400661945343
1.74138605594635 -0.000584140419960022 0.6356680989265442
1.165604591369629 -0.009806349873542786 -0.9468046426773071
-0.678365170955658 -0.20389682054519653 -0.8723171353340149
1.5156136751174927 0.7352333068847656 -0.4249875247478485
2.5555052757263184 0.6378777623176575 0.8116547465324402
-1.001576542854309 0.32064855098724365 0.9940212965011597
-0.19860264658927917 0.5688472986221313 0.4100540578365326
-1.4324924945831299 -0.17227375507354736 -0.9890216588973999
3.08901309967041 0.6894599795341492 -0.25139954686164856
0.5148526430130005 0.4515281915664673 -0.8264834880828857
0.9092579483985901 -0.11280103027820587 0.6484557390213013
-1.549910068511963 1.2140928506851196 1.040605068206787
0.3387739956378937 0.17946909368038177 0.30505409836769104
-1.5177093744277954 -0.8559906482696533 -0.9445157051086426
1.8443046808242798 0.3775731921195984 -0.5599839091300964
2.1578032970428467 0.10636093467473984 1.1529992818832397
-1.951120138168335 0.044529758393764496 1.2989795207977295
-2.581284999847412 0.257997989654541 -0.34739935398101807
2.315864324569702 -0.7072086334228516 1.5111538171768188
-0.8648290038108826 0.16791866719722748 1.269942045211792
-1.3761330842971802 0.5251545906066895 -1.4204370975494385
0.5214032530784607 -0.05451516807079315 0.8437228202819824
-0.09472009539604187 -0.1114780604839325 -0.6410218477249146
-1.4920880794525146 0.9838399291038513 -0.8098559379577637
1.2837694883346558 -0.1369520127773285 -0.38554131984710693
2.755115032196045 0.9635511040687561 0.5784121751785278
1.025697112083435 0.7382090091705322 -0.814426600933075
-2.713751792907715 0.6823853850364685 -0.524778425693512
-1.9517126083374023 -0.909393846988678 1.070245385169983
1.5387448072433472 1.0733025074005127 0.3711341917514801
2.107703685760498 0.9970780611038208 0.8787569999694824
1.221960425376892 1.2676570415496826 -1.088559865951538
0.4999173879623413 1.4165085554122925 0.8044574856758118
-2.2783069610595703 -0.2638074457645416 -0.07119231671094894
2.7571659088134766 0.8436640501022339 0.5930448174476624
2.6174981594085693 0.2481401264667511 1.3106950521469116
2.4989700317382812 -0.7685272097587585 1.2013360261917114
0.4565541744232178 0.34969955682754517 0.9278901815414429
-2.7385683059692383 1.0191562175750732 -0.573311984539032
1.9108787775039673 -0.789367139339447 -1.1238726377487183
-1.5236396789550781 0.2767559289932251 0.8210880160331726
-1.3974924087524414 0.4468945562839508 1.0335279703140259
1.0159106254577637 -0.12472231686115265 -0.31250667572021484
2.444413661956787 0.613787829875946 -1.3748356103897095
2.812898635864258 -0.24210382997989655 -1.4690271615982056
2.4555983543395996 -0.27259016036987305 0.06087141111493111
-1.6076842546463013 0.36682072281837463 -0.2932857573032379
-0.8358815908432007 1.1695040464401245 0.982153594493866
0.49105629324913025 0.370537668466568 -1.0173439979553223
-1.1625096797943115 -0.4489983916282654 0.9834420084953308
0.3632510006427765 0.4220258593559265 -0.8235447406768799
-1.6986714601516724 0.14604395627975464 -0.2192724049091339
0.38241395354270935 -0.10955841839313507 0.8636500835418701
1.4642943143844604 0.24391937255859375 1.325173258781433
-1.3351447582244873 0.33229923248291016 0.23054708540439606
-1.714231252670288 -0.027112409472465515 1.0999289751052856
2.6722660064697266 0.7074220776557922 -0.948529839515686
-1.3426433801651 -0.46001315116882324 0.5202054381370544
3.076059341430664 0.7534180879592896 -0.18958745896816254
1.2228960990905762 1.1284910440444946 0.1240459755063057
2.372133731842041 -0.981967568397522 1.5470561981201172
-1.1495163440704346 0.25888365507125854 -0.34490832686424255
1.8276927471160889 1.0408202409744263 -0.3894749581813812
-0.837009608745575 -0.3077872395515442 1.1775389909744263
2.347283363342285 0.16393214464187622 -1.499849557876587
-0.2633056640625 0.5453382730484009 -0.8187328577041626
2.6574418544769287 -0.9162521362304688 0.9780749082565308
3.0528311729431152 0.3845946192741394 -0.9377369284629822
2.832263946533203 -0.9072495698928833 1.5421169996261597
-1.3056600093841553 0.028304874897003174 0.6507139801979065
-1.1083464622497559 -0.3480933606624603 -1.2695103883743286
1.6458245515823364 0.6874252557754517 -0.7399889826774597
0.16899272799491882 0.15835529565811157 0.5322844982147217
3.0939950942993164 0.6200222969055176 0.45472392439842224
0.9114636778831482 1.4511592388153076 0.17435987293720245
1.5712625980377197 0.23475518822669983 -0.04486032947897911
2.627824306488037 0.9222605228424072 -0.996444046497345
2.535051107406616 0.35235685110092163 0.8929412961006165
-2.3577351570129395 0.24400219321250916 -1.0094084739685059
-2.084967851638794 0.4537125825881958 -1.3367133140563965
-1.2569220066070557 0.018852174282073975 -1.1948134899139404
2.155393362045288 0.2526555359363556 -1.3865370750427246
2.355445146560669 0.8423863649368286 -0.3122812807559967
-1.0252113342285156 0.1483050435781479 -0.06242481991648674
-0.5321229696273804 -0.09683360159397125 0.5522888898849487
2.5142874717712402 -0.3739839792251587 -0.36183103919029236
2.205808401107788 0.12644487619400024 -0.34252890944480896
2.537259101867676 -0.32520467042922974 1.4096100330352783
-0.0685780718922615 0.5355274677276611 0.379285603761673
-0.7447917461395264 0.3792968690395355 -0.39258113503456116
-0.46642881631851196 0.025587350130081177 0.13872404396533966
3.0463430881500244 0.5556103587150574 -1.0005449056625366
-1.2733023166656494 0.4001692533493042 -0.4887270927429199
-1.1993038654327393 1.0232681035995483 -1.0652573108673096
-1.352516531944275 -0.9580370187759399 1.386309027671814
-0.6416758894920349 -0.046799883246421814 -0.7468529939651489
2.7230029106140137 0.7461162805557251 0.15521682798862457
-1.7865993976593018 0.5639470815658569 1.073166847229004
2.053968906402588 0.135104238986969 -1.472408413887024
2.5234200954437256 -0.43601882457733154 0.18798215687274933
2.13513445854187 1.018875241279602 0.19454163312911987
1.8198803663253784 -0.5827765464782715 0.9631432890892029
-1.2135154008865356 -0.06377024948596954 0.33246204257011414
-2.13087797164917 0.08194839209318161 0.875775158405304
0.644481360912323 0.5465993881225586 0.9854927659034729
1.7129981517791748 -0.357293963432312 -1.3656830787658691
-2.4956600666046143 0.46267762780189514 -0.5453601479530334
1.911645770072937 1.0347050428390503 -0.840419590473175
2.4343204498291016 -0.7020522356033325 -0.6049635410308838
1.0614423751831055 0.9920860528945923 -0.7737646698951721
-1.5073597431182861 -0.31099939346313477 -1.0364078283309937
-0.3933635950088501 0.04701468348503113 -0.6972983479499817
-2.0695571899414062 0.07412263005971909 -0.9225746989250183
-1.4522026777267456 0.5091203451156616 -1.2759515047073364
-1.621903419494629 1.237521767616272 1.080600380897522
-0.5680199265480042 -0.012380927801132202 0.17488323152065277
1.3157062530517578 0.5041905641555786 1.2841123342514038
-2.009842872619629 0.007505133748054504 -1.1618106365203857
-1.7747236490249634 -0.0986582487821579 0.23147845268249512
3.0980193614959717 0.7126012444496155 -0.14994962513446808
-1.6531171798706055 0.849747896194458 -1.0070842504501343
3.02274227142334 0.02897057682275772 1.5542123317718506
-1.6536401510238647 0.5796655416488647 -1.1425241231918335
2.751927375793457 -0.45807623863220215 1.2108683586120605
-1.1059342622756958 -0.5948954820632935 1.4834835529327393
1.7606931924819946 0.10356872528791428 -1.178599238395691
2.495175361633301 -0.3269464671611786 0.22889487445354462
-0.6872351169586182 -0.1280205100774765 -0.14216099679470062
-1.5568530559539795 0.14271605014801025 1.305832028388977
-0.0997992753982544 0.09576226770877838 -0.6263135075569153
2.099395513534546 1.0129934549331665 -0.5918879508972168
-1.31003999710083 0.3170916438102722 -0.47097158432006836
-2.085993766784668 0.18559186160564423 -0.8671373128890991
-1.5633716583251953 -0.6160575747489929 1.2319233417510986
2.9893085956573486 0.3559650778770447 1.216797947883606
2.4203836917877197 -0.6054778099060059 1.0502688884735107
2.6169865131378174 -0.3349498510360718 1.0928038358688354
-1.579056739807129 -0.9402599930763245 -0.9509540796279907
-2.6289010047912598 0.46434441208839417 -0.32471370697021484
0.8967134952545166 0.11002839356660843 0.4475516378879547
-1.163216233253479 0.8707794547080994 1.1508034467697144
1.6006722450256348 -0.2352055013179779 -0.9005127549171448
2.0212130546569824 -0.0839400589466095 -1.4819285869598389
0.4392652213573456 0.7997614145278931 -0.9852985739707947
0.26865196228027344 0.711585283279419 -0.8267456293106079
-1.1624499559402466 0.10447193682193756 -0.6185289025306702
-0.750661313533783 0.7797626256942749 0.9862591624259949
-1.680321455001831 0.019783928990364075 0.37628036737442017
2.025606870651245 -0.27295321226119995 -1.129201889038086
2.598162889480591 -0.7366170883178711 1.2906358242034912
2.706674575805664 0.3759557008743286 0.996477484703064
-1.802606225013733 0.042177945375442505 0.20978288352489471
0.774294376373291 -0.05559161305427551 -0.9157702326774597
1.4999380111694336 0.8651366233825684 0.9636585712432861
1.4561481475830078 1.1026020050048828 1.1037774085998535
3.0751540660858154 0.7301244735717773 0.0839240550994873
-2.274533271789551 0.390854150056839 0.5420016050338745
-1.3544729948043823 -0.36187902092933655 0.09941630810499191
-1.4217627048492432 0.8101626634597778 1.290395975112915
-1.6674526929855347 0.23913632333278656 -1.2929128408432007
0.1602494716644287 -0.11514383554458618 1.0868204832077026
-0.6076215505599976 0.6460099220275879 -1.1132665872573853
2.1550045013427734 0.6687314510345459 -1.3625015020370483
0.9682988524436951 1.3923920392990112 -0.4695202112197876
2.3977246284484863 0.02214759588241577 -0.2799738347530365
-2.144458293914795 0.9748831987380981 1.1757508516311646
2.3382961750030518 0.7553582787513733 -0.9465857744216919
1.7447737455368042 -0.396938681602478 -0.7035456895828247
-0.2962387800216675 0.19097638130187988 -0.059339459985494614
-1.6380447149276733 -0.1726250797510147 -1.2995178699493408
-0.8855476975440979 0.7531680464744568 -1.4304742813110352
2.7397537231445312 0.6552963852882385 1.3027245998382568
-1.896426796913147 0.3129883408546448 -1.1538931131362915
0.21444055438041687 0.1905163675546646 -0.809718132019043
0.7764742970466614 1.1961393356323242 0.8009902834892273
1.6215620040893555 0.7458468079566956 0.5757051110267639
1.8814893960952759 0.8635939359664917 -0.2491178959608078
-2.096142053604126 0.8924767971038818 -0.6998063325881958
2.165339946746826 0.3243655264377594 0.6905670166015625
-1.7422314882278442 -0.0972900390625 1.047317624092102
2.5999228954315186 0.9747600555419922 0.7711274027824402
3.1038436889648438 0.1942673921585083 -0.8995445370674133
2.429124116897583 -0.9449589252471924 1.616601824760437
-2.629229784011841 0.179936483502388 0.3443581461906433
-0.7696883082389832 0.6586338877677917 0.3772366940975189
2.202251672744751 -0.6308491230010986 -1.0451723337173462
2.064038038253784 0.6359334588050842 -0.6772986650466919
-1.0726244449615479 -0.017557427287101746 -0.46637284755706787
2.6641926765441895 0.21680669486522675 -0.47789981961250305
-0.8542966842651367 0.5306552648544312 -0.6077495217323303
-2.080078601837158 -0.46472838521003723 -1.449112057685852
1.5971862077713013 0.9480132460594177 0.7627382874488831
2.6933770179748535 -0.8144477009773254 -1.4833663702011108
1.5274105072021484 0.9089453220367432 -1.0301246643066406
2.2437360286712646 -0.9508817791938782 1.3326411247253418
-1.2167824506759644 -0.428300678730011 -1.2737270593643188
-0.6410197615623474 0.23180297017097473 -0.8796425461769104
2.300760269165039 -0.5521052479743958 1.0568286180496216
2.3808603286743164 0.5255898237228394 1.1101939678192139
-0.02352578192949295 -0.09957906603813171 0.058001987636089325
2.5003180503845215 0.7605294585227966 -0.8139929175376892
-1.6497564315795898 0.8214552998542786 -0.8461341261863708
1.8554396629333496 -0.09709601104259491 -1.479801893234253
-0.9997462034225464 1.0099756717681885 -0.12349356710910797
-1.2202603816986084 -0.3323391079902649 -0.18152488768100739
-2.399259567260742 0.807049572467804 -0.7165171504020691
0.019411839544773102 0.6472261548042297 1.0429259538650513
0.040189072489738464 0.7058740854263306 1.2789732217788696
2.2111587524414062 0.38014280796051025 0.848119854927063
3.0484254360198975 0.01614856719970703 0.42595013976097107
-1.3132644891738892 -0.318159818649292 1.4756096601486206
1.6052199602127075 -0.17394395172595978 -0.9146899580955505
2.608973741531372 0.47689616680145264 -1.223554253578186
0.6298536658287048 0.4521690607070923 1.2681257724761963
-1.5688050985336304 -1.0114846229553223 1.3487910032272339
1.814958095550537 0.4254060685634613 0.904710054397583
0.39414194226264954 1.4224574565887451 0.9478963613510132
-0.9870752096176147 -0.0994320660829544 1.0418657064437866
-1.895138144493103 0.2431938350200653 -0.9307456612586975
2.1967055797576904 -0.2581826448440552 -0.1312403678894043
3.0444910526275635 0.4951295256614685 -0.9876580834388733
2.2289657592773438 -0.43870753049850464 -0.599890947341919
-1.3014932870864868 0.38796913623809814 0.9248010516166687
-1.5852042436599731 -0.03900057077407837 -0.6077540516853333
2.524024486541748 0.28353285789489746 -1.4796881675720215
-2.193721294403076 -0.21279588341712952 1.4485012292861938
-0.9657595157623291 -0.7149382829666138 -1.1226075887680054
2.4626541137695312 -0.4466387927532196 -0.3618925213813782
1.7601946592330933 0.19443482160568237 -0.6361348628997803
-2.5737853050231934 1.2404900789260864 0.03157125413417816
3.049947738647461 0.039137884974479675 0.14373092353343964
-1.1442835330963135 0.5706570148468018 -0.9673400521278381
0.22164958715438843 1.1276910305023193 0.7754636406898499
0.5174999237060547 0.5220881700515747 1.2733906507492065
2.148210287094116 -0.4640994071960449 1.5699132680892944
-0.7800818085670471 -0.05893886089324951 -0.9896504878997803
2.484917402267456 -0.04727324843406677 0.9053102135658264
2.7547500133514404 -0.6342121362686157 -0.9498745203018188
1.5666922330856323 0.6140006184577942 -0.4969905614852905
2.2856600284576416 0.9955012202262878 -0.37217387557029724
2.061312675476074 -0.6677472591400146 -1.4043900966644287
2.474926471710205 0.5653354525566101 0.7720268368721008
2.190297842025757 -0.052211612462997437 1.1674575805664062
0.9287984371185303 -0.09261766076087952 -0.1709730178117752
0.991908073425293 1.406235933303833 -0.3286822736263275
2.1848652362823486 0.245812326669693 -1.4703980684280396
-1.4128457307815552 0.49246132373809814 -1.402729868888855
1.8290239572525024 0.6411556601524353 -0.9090530276298523
-2.537074089050293 0.035535216331481934 -0.8029571175575256
1.8817780017852783 0.12719517946243286 0.4268052875995636
3.100001335144043 0.06701019406318665 -1.3742344379425049
1.9776511192321777 0.8049795031547546 -0.5200325846672058
0.49611711502075195 0.1530819535255432 0.9798235297203064
-2.1786885261535645 -0.6888898611068726 1.4663820266723633
-2.137946844100952 0.32599279284477234 -0.9720185995101929
-0.3510463237762451 0.19089379906654358 -0.5611053705215454
-1.3785783052444458 0.8656710386276245 -1.0582884550094604
-1.0389978885650635 -0.01882016658782959 -0.8520876169204712
2.4074952602386475 0.4748042821884155 -0.9221314191818237
0.21129482984542847 0.8821556568145752 -0.9048128724098206
0.6576302647590637 1.0959221124649048 -0.8632696270942688
-1.649412989616394 0.48868072032928467 -1.1966811418533325
-1.6832160949707031 -0.1143733561038971 -0.4076864719390869
1.3021644353866577 0.00023251771926879883 -0.9368764758110046
1.553888201713562 1.0733916759490967 0.35907307267189026
-0.8283035755157471 -0.28266388177871704 -0.26576149463653564
-2.2749483585357666 -0.34059613943099976 -0.9262741208076477
-1.1807395219802856 0.14297163486480713 1.4819008111953735
0.2979322075843811 1.2981089353561401 0.7958247661590576
2.0831027030944824 1.0022116899490356 0.6732900738716125
-1.4185781478881836 0.22489117085933685 -0.5196523070335388
-2.58292293548584 0.0649305135011673 0.44838038086891174
1.7738542556762695 1.052411675453186 -0.678632378578186
1.88865327835083 1.0276747941970825 0.36986246705055237
-2.711277484893799 0.39187222719192505 -0.36900630593299866
3.014453649520874 -0.6601846814155579 -1.26155686378479
1.9838263988494873 0.5481300950050354 -0.8851374387741089
1.0471863746643066 0.534534752368927 1.277773380279541
0.6513657569885254 0.6274890899658203 -1.008707880973816
-0.5738969445228577 0.987593412399292 1.18961763381958
1.626234531402588 0.06266055256128311 0.10214538872241974
1.6878383159637451 0.695502758026123 0.12764208018779755
-1.4063254594802856 -0.6387626528739929 -1.3327945470809937
0.6866601705551147 0.483431875705719 1.2698700428009033
1.1579811573028564 0.040306925773620605 -0.9798202514648438
-1.6885343790054321 0.555280864238739 -0.41612401604652405
1.6833900213241577 -0.09068542718887329 -0.5930967926979065
1.9787499904632568 0.04337407648563385 0.34436100721359253
-1.3825082778930664 -0.040295928716659546 -0.9366413950920105
0.959221601486206 0.7553260326385498 1.0201143026351929
2.1612253189086914 0.26251524686813354 -0.3340248763561249
0.7061559557914734 -0.1198062151670456 -0.3788403868675232
3.097752094268799 0.6326457858085632 0.3278573751449585
-1.2919425964355469 -0.04753001034259796 0.7100818157196045
-1.7561933994293213 0.5061753988265991 -0.6156771183013916
2.48630952835083 -0.6821528673171997 1.3815021514892578
1.4911103248596191 0.10392482578754425 0.9712092876434326
0.7080633640289307 0.3711419403553009 -0.8190454840660095
0.23455622792243958 0.09206414967775345 -0.6570616364479065
-2.1120550632476807 0.8756337761878967 -0.5511658787727356
1.3083964586257935 -0.13144847750663757 0.4365655481815338
2.316291093826294 -0.967077374458313 1.2720558643341064
0.8301200866699219 1.06108558177948 -0.831277072429657
2.785964250564575 0.5696650743484497 -1.464892864227295
-2.1583943367004395 0.22320598363876343 0.09419398754835129
1.2755390405654907 0.8286031484603882 -0.826995849609375
-1.9077457189559937 0.9774680733680725 1.0388314723968506
-1.4429175853729248 -0.8179571628570557 -0.9573065638542175
-2.7138748168945312 0.9569684267044067 -0.5794084072113037
-0.30520737171173096 0.1519467979669571 0.168792724609375
-0.8856348395347595 -0.6322306394577026 -1.2258148193359375
0.4428410232067108 0.2831588387489319 0.9905852675437927
2.8253562450408936 0.0871841236948967 1.5472625494003296
-1.2858368158340454 0.824541449546814 0.97072833776474
1.46458101272583 0.18639054894447327 -0.6086733341217041
-0.9973916411399841 -0.6839792132377625 1.4029419422149658
-2.3420588970184326 0.16051165759563446 1.1593014001846313
-0.27828866243362427 0.23107099533081055 0.10394401103258133
2.9572372436523438 0.799239456653595 1.1603286266326904
-2.060372829437256 0.2180624008178711 1.1640796661376953
-0.8530658483505249 1.0013269186019897 0.7167086005210876
1.7320771217346191 -0.3393518924713135 -0.843329668045044
-0.2527240812778473 1.0211862325668335 0.9787102341651917
2.996178388595581 0.49444615840911865 0.984808087348938
-2.125501871109009 -0.6497507095336914 -1.3057937622070312
-0.13216355443000793 0.165568009018898 0.06477943807840347
-1.2765222787857056 0.8870291709899902 1.012798547744751
-1.3406190872192383 1.1152441501617432 1.1561204195022583
-2.3181347846984863 0.5984318256378174 0.1330454796552658
-2.433882713317871 0.07936952263116837 0.008993304334580898
-1.0530972480773926 -0.7461756467819214 1.1525477170944214
-2.353811264038086 0.3692701458930969 -0.439168781042099
-1.7133119106292725 -0.24310210347175598 -0.08763909339904785
-2.5701539516448975 1.2701656818389893 0.9905838966369629
-2.134157657623291 0.2583492398262024 1.139350414276123
-1.7328314781188965 0.17184540629386902 0.7213221192359924
0.7634115815162659 0.0665062963962555 -0.35939016938209534
0.7174829244613647 -0.10875406861305237 0.11977045983076096
0.6920886039733887 0.2715993821620941 -1.0155147314071655
3.0538835525512695 0.7158071994781494 -0.9506362676620483
-1.590674638748169 -0.2844810485839844 1.2348122596740723
0.4552018642425537 0.10419998317956924 -0.6605859398841858
1.4707581996917725 0.948394775390625 0.12255822867155075
-0.012792717665433884 0.26837483048439026 -0.8494732975959778
2.6954293251037598 0.3777455687522888 -1.0106829404830933
0.08042843639850616 0.9919081330299377 1.2150180339813232
1.9711313247680664 0.8245570659637451 0.3347800672054291
0.22888199985027313 0.5870150327682495 1.0374295711517334
1.657510757446289 -0.03785140812397003 -1.021496057510376
-1.446074366569519 0.2978682518005371 -0.05061086639761925
2.908673048019409 -0.2939395308494568 1.0059679746627808
-1.8095335960388184 0.5717796087265015 -1.1602014303207397
-2.552971601486206 0.8746873736381531 1.095849633216858
-0.3051241338253021 0.17557145655155182 1.3002221584320068
1.101091742515564 1.1580493450164795 0.3221740424633026
-1.5739083290100098 0.39759767055511475 1.4355405569076538
2.986593008041382 0.667724072933197 -1.0514346361160278
2.548085927963257 0.6316617727279663 -1.0387135744094849
3.0344231128692627 0.8145676851272583 1.0382617712020874
-1.0750268697738647 0.7081282138824463 -0.7816041707992554
-1.2858532667160034 -0.9167487621307373 -1.1269761323928833
2.808839797973633 0.4450886845588684 -0.13307245075702667
1.7255879640579224 0.4064691662788391 -0.1188613772392273
-1.3830946683883667 0.30920547246932983 0.13572393357753754
-0.48625585436820984 0.20387911796569824 -0.6721658706665039
-0.8690136075019836 -0.2669944167137146 1.255722999572754
2.558833599090576 0.9197356700897217 1.1279834508895874
-0.7057353854179382 -0.12818202376365662 -1.120585322380066
-1.1221331357955933 0.17482389509677887 -0.7579736113548279
-1.288931965827942 0.2344193160533905 -0.9314148426055908
-1.5717869997024536 -0.9215223789215088 1.0498675107955933
2.6162798404693604 0.9759424328804016 0.5145254135131836
-0.15424761176109314 0.08892970532178879 1.0171394348144531
2.2576112747192383 -0.9608901739120483 1.5365957021713257
-0.9371777772903442 -0.0417138934135437 -0.568670392036438
2.671144962310791 -0.6796131134033203 1.1626087427139282
2.1131293773651123 -0.4018261730670929 -0.8736581206321716
-2.238699436187744 0.022013232111930847 0.5528134107589722
2.6582236289978027 0.21962490677833557 -0.33152955770492554
-0.975697934627533 -0.23412105441093445 -0.17654387652873993
3.0565621852874756 -0.593256950378418 1.0977953672409058
3.0177412033081055 0.16831716895103455 -1.4312644004821777
-0.05354001745581627 0.15175612270832062 -0.09603286534547806
-0.9589754343032837 0.5825470089912415 0.5792516469955444
-1.168793797492981 0.5404175519943237 -1.3432234525680542
2.2724609375 0.08300763368606567 -0.9134494066238403
-1.3961738348007202 -0.3657243251800537 -0.10039547085762024
1.271586298942566 1.0389573574066162 -0.2782251238822937
-1.464443564414978 -0.6384150981903076 1.0020760297775269
-2.525113582611084 1.208548665046692 -0.7066500186920166
1.7291059494018555 0.5326194763183594 -0.41533735394477844
2.6861507892608643 -0.28654542565345764 1.3955810070037842
-1.0708521604537964 1.0144602060317993 -0.6444305181503296
3.068557024002075 -0.2033403515815735 -1.4525009393692017
1.8613531589508057 -0.6803615093231201 1.097452163696289
1.2129372358322144 0.6809279918670654 1.2719141244888306
0.9148802161216736 1.4971469640731812 0.9000592827796936
1.105929970741272 0.5135799050331116 -0.8243572115898132
0.3721853196620941 -0.11707597970962524 -0.8029823303222656
-1.7172549962997437 1.0471819639205933 -1.050246000289917
-1.243566870689392 0.5148860216140747 -1.155108094215393
1.6658856868743896 0.3881857991218567 1.3474700450897217
-1.2323380708694458 0.3432064652442932 0.5157186985015869
1.6342829465866089 0.07624486088752747 -0.17274044454097748
-1.0757094621658325 0.6877727508544922 0.9924746751785278
-1.9918891191482544 0.08453168720006943 -0.8015431761741638
-2.2545294761657715 -0.124005988240242 0.4578138291835785
1.6420557498931885 1.034907341003418 -0.9230741262435913
1.8133070468902588 0.8675636053085327 -0.43407222628593445
0.5283223390579224 1.4221047163009644 0.8202970623970032
0.7666662931442261 0.7078732252120972 1.2439182996749878
-0.8325473666191101 0.7037837505340576 0.4708656370639801
-0.9472273588180542 0.3654608428478241 0.8805977702140808
0.6021580696105957 0.9118598699569702 1.2193399667739868
3.0095016956329346 -0.20799791812896729 -0.8350818753242493
-0.5545076727867126 0.5332724452018738 -0.9355412721633911
1.3226591348648071 -0.13169103860855103 0.3763774633407593
0.6251314282417297 -0.17729178071022034 -0.3706483244895935
-1.860945224761963 0.2597460150718689 0.7542742490768433
-1.1799755096435547 0.14270301163196564 0.8584914207458496
1.4244928359985352 0.8870280385017395 1.2511409521102905
1.1668727397918701 0.05199518799781799 -0.6735077500343323
-1.3051174879074097 -0.11080761253833771 -0.973996639251709
-1.9008064270019531 -0.8392446041107178 1.5080559253692627
2.724630832672119 0.49559056758880615 0.5781759023666382
0.20196613669395447 0.14324899017810822 0.5285647511482239
-1.4439746141433716 -0.20388324558734894 1.2188292741775513
1.108413815498352 1.1397043466567993 -0.9414029121398926
1.2664451599121094 0.5741351246833801 -1.0278574228286743
-1.6533153057098389 1.179102897644043 -0.8782277703285217
0.498368501663208 0.6281764507293701 -0.8218311071395874
2.413684844970703 0.34851306676864624 -0.9025620818138123
1.3786003589630127 -0.14036458730697632 0.6372435688972473
-0.4605925977230072 -0.10677163302898407 -0.9150674343109131
-1.6693944931030273 0.6255197525024414 -0.6106273531913757
-1.1430917978286743 0.805253267288208 -1.0032683610916138
-2.2860302925109863 -0.4332376718521118 1.3209317922592163
1.1344295740127563 -0.08616034686565399 -0.8867630958557129
-0.6282793283462524 0.0914529338479042 1.2782955169677734
-0.36958375573158264 -0.03459759056568146 1.1997654438018799
-0.9233219027519226 0.7298882007598877 0.08626023679971695
2.3122644424438477 -0.5011667609214783 -0.46373239159584045
-1.8076738119125366 -0.20416951179504395 -1.061530590057373
2.4763948917388916 -0.39431875944137573 1.036171317100525
2.807699680328369 -0.37589144706726074 -1.4737646579742432
2.2055845260620117 0.8271352052688599 0.23508165776729584
1.9755644798278809 1.0143660306930542 0.8324530124664307
3.1239514350891113 0.13688382506370544 -0.14931847155094147
0.23943933844566345 -0.11275854706764221 -0.1291656643152237
2.1439013481140137 0.37110447883605957 -1.0868734121322632
2.2424423694610596 0.5550000667572021 -0.6898645758628845
-0.9852110147476196 0.743902325630188 -0.08042361587285995
-0.4525584578514099 0.3692387342453003 -0.9992821216583252
-1.2706689834594727 -0.7370857000350952 -1.4178404808044434
-1.6748592853546143 0.3098139762878418 0.7413398027420044
2.5027666091918945 0.20107242465019226 0.7515984177589417
0.7800245881080627 -0.16855910420417786 -0.2057069092988968
1.5525479316711426 -0.13541722297668457 0.3543369174003601
3.1199045181274414 -0.11409342288970947 1.195879340171814
-2.607743740081787 0.3446075916290283 0.07786382734775543
2.570060968399048 0.0007776916027069092 1.5725491046905518
1.6776747703552246 -0.18423812091350555 -0.7489320635795593
2.4100468158721924 -0.18058720231056213 1.3053030967712402
-2.395192861557007 -0.023736700415611267 -0.6856330633163452
2.3058242797851562 0.8329272270202637 -0.4001128375530243
0.5988855957984924 -0.13235503435134888 0.44737887382507324
-0.07465766370296478 0.37748104333877563 1.2905070781707764
0.656102180480957 0.3133072257041931 1.2559720277786255
-0.7925392985343933 -0.19678641855716705 -0.1767074167728424
1.4997411966323853 0.007232725620269775 0.4710546135902405
0.9328635334968567 0.028478115797042847 -0.9297306537628174
2.6115362644195557 0.2333463430404663 -1.3998496532440186
2.505655288696289 -0.5050974488258362 -1.3628489971160889
1.3416510820388794 -0.015524327754974365 -0.9603890776634216
-0.7150152325630188 -0.14396584033966064 -1.3014427423477173
1.8114416599273682 0.5435488820075989 -0.5277286171913147
-0.09513288736343384 0.2512219548225403 1.283235788345337
-1.7579221725463867 -0.009220778942108154 0.7895610928535461
3.0630738735198975 0.6372905969619751 1.063581943511963
-2.5408072471618652 1.2747715711593628 0.953590989112854
-0.8504946827888489 -0.5861636996269226 -1.2907592058181763
1.9954606294631958 0.09938917309045792 -0.90257728099823
-1.6410101652145386 0.24693943560123444 -1.383249044418335
-1.4726765155792236 0.11951835453510284 -1.0465434789657593
2.191675901412964 -0.8921127319335938 1.0491617918014526
-1.8045990467071533 1.0884672403335571 -0.9908790588378906
2.391453504562378 0.11598794162273407 -0.68585205078125
-1.6912952661514282 0.44075530767440796 -1.201898455619812
-0.2610195577144623 0.9035437107086182 1.0606884956359863
0.06917919963598251 0.18862265348434448 -0.8197490572929382
0.30134138464927673 0.13058145344257355 -1.0169316530227661
2.666454792022705 -0.6607239842414856 -1.4729530811309814
-2.0487096309661865 -0.5057697892189026 -1.4032824039459229
3.144887685775757 0.3046721816062927 -0.11958977580070496
3.0638794898986816 0.8395349383354187 -0.7248080968856812
-1.0467172861099243 0.24395498633384705 -1.371073603630066
-1.9987808465957642 0.6082286834716797 0.5903080105781555
-1.9199697971343994 0.06950894743204117 1.380357265472412
-0.15807226300239563 0.19918131828308105 0.42267775535583496
2.6572115421295166 0.9979153871536255 -0.19990479946136475
-0.25885021686553955 0.4048059284687042 -1.0725841522216797
-1.29459547996521 -0.050564467906951904 -1.271697998046875
-1.4498720169067383 0.5901227593421936 -1.4107184410095215
-2.091057538986206 0.8839990496635437 -1.0253956317901611
-1.476013422012329 0.3436605632305145 1.1096735000610352
0.9959535598754883 0.24207745492458344 0.9297714233398438
2.934077024459839 0.9552014470100403 -0.18442857265472412
-0.7997429370880127 -0.17902669310569763 0.5059568881988525
-2.3956680297851562 -0.11759620904922485 1.1259431838989258
-0.6173035502433777 0.5551326274871826 1.3017252683639526
-0.24122969806194305 0.7846988439559937 0.6135748028755188
0.4496731162071228 0.07189018279314041 -0.5895623564720154
2.9877684116363525 0.9107680916786194 0.3474072217941284
2.3460655212402344 0.959773063659668 1.0834662914276123
0.46430253982543945 0.10370713472366333 0.4830808639526367
1.8475301265716553 0.12254641950130463 -1.4598959684371948
1.8841652870178223 1.0421077013015747 -0.20767982304096222
-0.7164435982704163 -0.16545194387435913 -0.8914923071861267
-1.3991594314575195 0.3014030456542969 -0.6949634552001953
-1.5307247638702393 -0.044830068945884705 1.4617973566055298
2.4812748432159424 -0.36811208724975586 1.3301116228103638
