ply
format ascii 1.0
element vertex 813
property float x
property float y
property float z
end_header
-0.1755691021680832 1.2970253229141235 0.11455703526735306
1.0427355766296387 0.4887034296989441 -0.5176560282707214
0.3339187502861023 0.7627989053726196 -0.3791891038417816
2.1652278900146484 0.2706947326660156 0.46534669399261475
-0.5221980214118958 0.5794841051101685 -0.01015501283109188
2.008096218109131 0.05928927659988403 0.044684749096632004
-1.5672606229782104 -0.5363694429397583 0.6869176626205444
-2.058072566986084 0.49646592140197754 0.8178979158401489
-1.6712448596954346 -0.008297741413116455 0.21419262886047363
1.0782283544540405 0.02579382061958313 0.4144033193588257
-1.5813859701156616 -0.03446587920188904 -0.14310187101364136
-0.8410140872001648 -0.5078803300857544 0.8304573893547058
1.6358656883239746 0.3685351014137268 0.2511262595653534
0.5250687003135681 -0.4142082929611206 -1.2005971670150757
1.9608076810836792 0.038054853677749634 -1.4555978775024414
-1.8464421033859253 0.1371653974056244 0.3805515170097351
0.08668296039104462 -0.08508867025375366 1.3899462223052979
0.11759841442108154 0.8522677421569824 -0.7880182862281799
0.7772040963172913 -0.075346440076828 -0.960007905960083
0.3291742205619812 0.2577108144760132 0.014892703853547573
-1.9559125900268555 0.007708385586738586 -0.3710114359855652
-1.8631346225738525 0.04795956611633301 1.1575785875320435
-1.1077309846878052 0.24596013128757477 0.03128978982567787
1.4276604652404785 -0.3912057876586914 0.37144699692726135
0.7393970489501953 0.01578843593597412 -0.777250349521637
1.7642204761505127 -0.21728692948818207 -0.21587547659873962
-1.1603565216064453 0.6791226267814636 0.29953551292419434
-1.066319227218628 -0.001367419958114624 0.5910560488700867
0.992367684841156 -0.04002396762371063 -0.7553326487541199
-0.1426512897014618 -0.2630559802055359 -0.8652312159538269
1.253596305847168 0.43075984716415405 -0.8863705396652222
0.8356578350067139 -0.5414918661117554 0.12164346873760223
-0.2473938763141632 0.7572410702705383 -0.44988206028938293
1.3615537881851196 0.07963600754737854 -0.5590406060218811
2.3642396926879883 -0.5488015413284302 0.6968497633934021
1.6641491651535034 -0.20074205100536346 -0.8436846137046814
0.659672737121582 0.14502890408039093 0.8888914585113525
1.3839983940124512 -0.22834420204162598 0.03697245195508003
1.570512056350708 -0.3269089162349701 0.7544407248497009
-0.07130902260541916 0.7465438842773438 -0.4065185487270355
-0.7854610681533813 0.11578233540058136 1.0420920848846436
0.9563274383544922 -0.03461867570877075 0.29860246181488037
-1.663939118385315 0.011773273348808289 0.48692429065704346
0.10212633013725281 0.9788856506347656 -0.7113772630691528
0.9006304740905762 -0.49265971779823303 -0.982583224773407
1.3726091384887695 0.5444045066833496 -1.2631146907806396
-1.2562819719314575 -0.2842139005661011 1.3722845315933228
-1.7545353174209595 -0.2702415883541107 -1.0978517532348633
0.5687291026115417 0.06293830275535583 0.07288329303264618
2.110466480255127 0.6518411636352539 0.9395374059677124
-2.309077739715576 0.4863985776901245 -0.0718306377530098
0.7857682108879089 -0.3142091631889343 0.2977715730667114
0.7637436985969543 0.8310267925262451 -0.9007101058959961
-2.4363749027252197 0.0017938166856765747 0.27618613839149475
-0.16085800528526306 0.5440420508384705 -0.6821480989456177
-1.7863554954528809 -0.5771755576133728 -0.4667712152004242
-0.847470223903656 -0.5648389458656311 1.30673086643219
1.1139310598373413 -0.3309774100780487 -1.4347409009933472
2.1086483001708984 -0.5588008165359497 -0.4771884083747864
-1.246608018875122 -0.3853394687175751 -0.5298402309417725
0.13534748554229736 -0.015573859214782715 -0.2933979034423828
1.3698632717132568 0.7583187818527222 -0.9601009488105774
1.5431294441223145 0.2613828778266907 -0.4378315508365631
-0.4669528007507324 0.4512574076652527 -0.48385733366012573
-1.1137981414794922 -0.17394158244132996 -0.4454494118690491
-0.9832293391227722 -0.2092253565788269 1.4984499216079712
-2.0214710235595703 -0.25889644026756287 -0.9062492847442627
0.7093493342399597 -0.07925114035606384 0.30339691042900085
-1.336601734161377 0.9042247533798218 0.0005885933060199022
2.0282013416290283 0.644203782081604 -0.9110062122344971
0.40232837200164795 0.6080138683319092 -0.4322439134120941
1.4729855060577393 0.5329074859619141 -0.8118733167648315
0.03184259682893753 1.1987100839614868 -0.3353698253631592
1.19211745262146 -0.2511674165725708 -1.54767906665802
0.6431214213371277 -0.3589649796485901 -0.3578292727470398
-1.7439453601837158 -0.28103724122047424 -0.22525127232074738
-0.9395589828491211 -0.49754995107650757 1.0425454378128052
-1.1622470617294312 0.24523548781871796 0.17747926712036133
1.3860127925872803 -0.380551278591156 0.7711818218231201
-0.8859497904777527 0.26701435446739197 -0.8727739453315735
0.28570133447647095 1.0140348672866821 0.23003557324409485
0.4083506166934967 1.2699469327926636 -0.538561999797821
2.187030792236328 0.04037848114967346 0.7163172364234924
0.3185051679611206 0.7053787112236023 0.0521215982735157
-1.4125117063522339 0.7068127393722534 1.6061049699783325
-0.9973916411399841 -0.2786273956298828 -1.0104103088378906
-2.277991533279419 -0.43244409561157227 -0.787747323513031
1.0627615451812744 -0.022492006421089172 0.5104731321334839
-1.9291036128997803 0.29093360900878906 1.0009583234786987
0.6936178207397461 -0.5814758539199829 0.5270713567733765
-1.3464984893798828 -0.03771376609802246 -1.5182459354400635
-1.8759640455245972 0.30741602182388306 -0.8362734317779541
-1.844913363456726 0.10178771615028381 -1.0595712661743164
-0.6183313727378845 0.8078269958496094 -0.39033043384552
-1.5556294918060303 0.709368109703064 0.5412262082099915
-1.3634943962097168 0.030801594257354736 0.10630714893341064
0.4462953507900238 0.28202319145202637 0.5410031676292419
-1.7486374378204346 0.5673948526382446 -0.15076449513435364
0.24623112380504608 0.18453095853328705 0.018846523016691208
1.548887014389038 0.4727305471897125 -0.832909107208252
0.472851425409317 0.7915294170379639 -0.23249979317188263
1.706099033355713 -0.4706709384918213 -0.9020050764083862
0.5234138369560242 1.0651618242263794 -1.0687484741210938
0.6670345664024353 0.5464844107627869 -0.20944969356060028
0.40062716603279114 0.5952076315879822 -0.08750102669000626
-0.8160560727119446 0.20857082307338715 -0.26436829566955566
0.22976148128509521 -0.5529293417930603 0.40121230483055115
-1.652168869972229 -0.3379777669906616 -1.0260485410690308
2.0272021293640137 -0.6260286569595337 -0.24305452406406403
-2.0613670349121094 -0.2505401372909546 0.36040303111076355
2.0192012786865234 -0.6635977029800415 -0.08252527564764023
0.14955024421215057 0.8674145340919495 -1.4999459981918335
1.4101485013961792 -0.5708180069923401 -1.2561429738998413
2.1903040409088135 -0.5238369703292847 -0.32992681860923767
1.4954890012741089 -0.5515438318252563 0.2838028371334076
-1.8126282691955566 -0.15391720831394196 -0.7992318272590637
-1.1287041902542114 -0.09764999151229858 1.5406185388565063
0.9567907452583313 -0.1652342677116394 -1.1949560642242432
1.0533331632614136 0.7382026314735413 -1.0209050178527832
1.2538776397705078 0.04894267022609711 -0.17682498693466187
-0.867929220199585 -0.4592994749546051 -0.7406996488571167
-1.0311750173568726 0.29125452041625977 1.224489688873291
1.7045751810073853 -0.1633603423833847 0.18170839548110962
-0.4978100657463074 -0.4647359251976013 -1.0232162475585938
1.6069399118423462 0.419123113155365 -0.22828353941440582
-2.3307547569274902 0.4370518922805786 0.8623665571212769
-0.6544196009635925 0.5497938394546509 -0.33745959401130676
-0.39222049713134766 -0.24416016042232513 0.5435378551483154
-0.6431765556335449 0.4709635376930237 -0.62691730260849
1.7852768898010254 -0.12383328378200531 -0.9680771827697754
2.8978822231292725 0.37298592925071716 -0.3394290506839752
1.7284183502197266 -0.6393413543701172 0.1822236329317093
-1.0058166980743408 0.8886843919754028 -0.08627152442932129
-1.460344672203064 -0.3124445676803589 -0.4278264343738556
1.5708705186843872 -0.13059580326080322 1.559478759765625
1.4430657625198364 0.4499298334121704 0.4154587686061859
-0.0034413933753967285 0.06870788335800171 -0.6423597931861877
-0.5371096134185791 -0.024449512362480164 -1.2663002014160156
-2.179499864578247 0.2608882784843445 0.6509883403778076
-1.2590886354446411 -0.3220326900482178 -0.568812906742096
0.4876766502857208 -0.2114514410495758 0.31167519092559814
1.9005839824676514 -0.27263176441192627 -0.8001391291618347
0.9629344940185547 -0.09143514931201935 1.4392168521881104
-1.11353600025177 -0.5951659083366394 -0.9257349967956543
0.13634559512138367 1.214621901512146 -0.17242690920829773
1.489061951637268 0.44127362966537476 0.3719053864479065
-0.9174041152000427 -0.02326039969921112 -1.3201334476470947
1.7268316745758057 0.12940455973148346 -0.3779619336128235
0.44087791442871094 0.7842971086502075 -0.2818439304828644
-1.1623616218566895 1.3007506132125854 0.1935412585735321
-1.0677943229675293 0.26419246196746826 -1.6113698482513428
0.08674783259630203 -0.5330595374107361 0.20027022063732147
-0.8649618625640869 -0.6563202738761902 0.8250829577445984
0.8788920640945435 0.739161491394043 0.31888100504875183
1.9326236248016357 0.1150360107421875 -0.15843260288238525
-0.20288603007793427 0.5422290563583374 -1.170030117034912
0.6162278652191162 0.1321232169866562 1.2659971714019775
-1.6426584720611572 -0.29829561710357666 0.5984886288642883
1.9879873991012573 0.0035048574209213257 0.30751553177833557
1.901296854019165 0.2300146073102951 -1.0749624967575073
2.361176013946533 0.08593818545341492 0.014258313924074173
1.2157894372940063 -0.09417836368083954 0.3637828230857849
0.5159427523612976 0.9937046766281128 0.5229013562202454
0.6565282344818115 0.33111119270324707 1.0522081851959229
0.29855555295944214 -0.22261884808540344 -0.3847833573818207
-2.379671573638916 -0.4755183458328247 -0.09125492721796036
2.0445303916931152 0.34323662519454956 -0.11276189982891083
-1.2910784482955933 0.6437644362449646 -0.5799988508224487
0.08919448405504227 0.8871920108795166 0.3528992235660553
1.025011658668518 0.3536304831504822 -0.8307245373725891
2.0079030990600586 -0.2823159098625183 -0.6973233819007874
1.811307668685913 -0.5231735706329346 1.0350457429885864
0.12205599248409271 0.7363869547843933 -1.4673529863357544
-0.005767162889242172 1.0352303981781006 -0.6717861890792847
-0.28267785906791687 -0.1877620965242386 -0.44385969638824463
-2.2148773670196533 0.490004301071167 -0.054722484201192856
1.1902607679367065 0.5507116913795471 -0.2666721045970917
0.23572394251823425 -0.5334000587463379 -0.8692916631698608
-2.1912941932678223 0.5959532260894775 0.9107451438903809
2.1112492084503174 -0.5305168628692627 0.24253597855567932
0.5857924818992615 -0.303425133228302 -0.22376768290996552
1.1952288150787354 -0.2116769403219223 0.8633458614349365
0.3767634630203247 0.06851175427436829 0.6748710870742798
2.0502398014068604 0.5921933054924011 0.3038869798183441
-1.3413081169128418 1.0957834720611572 1.367089033126831
0.9858136773109436 0.005155205726623535 -1.045145034790039
-2.452005624771118 -0.37770533561706543 -0.11563850194215775
0.670726478099823 0.1624874472618103 -0.6408491134643555
-2.254000425338745 0.03011554479598999 1.2812429666519165
-0.47442007064819336 -0.18318022787570953 0.962123453617096
-0.18275156617164612 0.030328840017318726 -0.3680106997489929
0.5611439347267151 0.6261655688285828 1.0665196180343628
-0.4497727155685425 0.9956855773925781 0.3329079747200012
-1.0207425355911255 -0.305308997631073 -0.42532554268836975
0.17462055385112762 0.29812175035476685 -0.4965265393257141
1.9806913137435913 -0.5607368350028992 0.4982941150665283
1.7676860094070435 0.6466214060783386 0.24512046575546265
-0.962228536605835 0.03343518078327179 0.44174879789352417
1.8533388376235962 -0.09083126485347748 -0.31439727544784546
-0.800348162651062 0.0011322498321533203 0.8796703815460205
2.5414228439331055 -0.3385271430015564 0.909375011920929
-1.236627221107483 -0.43491458892822266 -0.713856041431427
-0.03760974109172821 0.29895979166030884 0.8065314888954163
0.623973548412323 1.0692740678787231 0.9175037145614624
1.2528493404388428 0.5844201445579529 0.5370138883590698
1.6868689060211182 -0.2728177309036255 -0.8282090425491333
-0.5602679252624512 -0.183327779173851 0.9489321112632751
-1.817534327507019 -0.2785111665725708 1.2519700527191162
-0.6478654146194458 1.0204442739486694 -0.3134446442127228
3.1007068157196045 -0.41392749547958374 0.34414616227149963
2.6623144149780273 -0.22714906930923462 0.7096542716026306
0.7624821066856384 0.7915462255477905 -0.029505152255296707
2.1218700408935547 -0.5157910585403442 -1.2214219570159912
-0.04918551445007324 -0.5063812732696533 0.6300926804542542
-1.083972454071045 -0.3818904161453247 -0.7154384851455688
-0.6701179146766663 0.8274965286254883 -0.09055735915899277
2.0502445697784424 0.4439493417739868 -0.716447651386261
1.4734351634979248 0.28426140546798706 -0.701224684715271
1.068960189819336 -0.299458384513855 0.67243492603302
1.5482412576675415 -0.5215367078781128 0.6703670024871826
1.882883906364441 -0.3005857765674591 0.048853907734155655
0.8662270903587341 0.42468979954719543 -1.0326290130615234
2.218909502029419 0.36730507016181946 -0.04474484920501709
2.43830943107605 -0.5657649040222168 -0.28576451539993286
-1.0259244441986084 0.5684136152267456 0.9453293681144714
-0.0182366780936718 1.2407559156417847 0.649389922618866
-0.13779133558273315 0.5689188838005066 0.426002562046051
0.5497921705245972 -0.3282601833343506 0.9950496554374695
-0.21666064858436584 -0.6541458368301392 -0.050248295068740845
1.0226062536239624 0.02833455801010132 -0.23278369009494781
1.8837740421295166 0.28802597522735596 -0.18683503568172455
0.11518046259880066 0.34026843309402466 -1.3315751552581787
0.8861439824104309 0.22544363141059875 1.2634111642837524
-0.4461010992527008 0.553818941116333 -1.3527201414108276
-1.341761827468872 0.10751038789749146 0.9257168173789978
0.09397894144058228 0.9984211325645447 0.5118463039398193
1.6520289182662964 -0.5889427065849304 0.13905060291290283
-1.5183769464492798 -0.4317929744720459 1.0369442701339722
-0.5563459396362305 -0.2864841818809509 0.3878251910209656
-1.3118754625320435 -0.5071778893470764 0.6216497421264648
-1.3751497268676758 -0.5626672506332397 -0.16903193295001984
-0.4689849019050598 0.9435087442398071 0.5867756605148315
0.9543175101280212 -0.3093934953212738 0.6314191222190857
1.9616820812225342 0.2753352224826813 0.7332216501235962
2.1759533882141113 0.5329784154891968 0.3135361671447754
-0.5320671796798706 0.903649091720581 0.4243954122066498
-0.22856679558753967 0.2538929581642151 1.0482721328735352
2.4399197101593018 0.40433070063591003 0.3833824098110199
1.100193977355957 0.8559872508049011 -0.61895751953125
-1.190651297569275 0.20705750584602356 0.046005815267562866
-0.7440358400344849 -0.016697078943252563 0.7088330984115601
-1.6349899768829346 -0.14300435781478882 0.721010148525238
0.646182656288147 -0.02607104182243347 0.9803040623664856
1.2385234832763672 0.330377459526062 -0.20775191485881805
0.7634735107421875 0.260539710521698 0.43754056096076965
0.02131158858537674 -0.411620557308197 -1.254823923110962
-1.6944416761398315 0.37307536602020264 0.0503825768828392
-1.1406282186508179 0.6829724311828613 -0.8267459869384766
0.5095162987709045 0.37826257944107056 1.0913382768630981
0.6715484261512756 -0.005199164152145386 -1.3181250095367432
-0.837924063205719 0.35636550188064575 0.011945115402340889
2.122391700744629 0.6133063435554504 0.6819007992744446
1.5478270053863525 0.18384811282157898 0.16031432151794434
-1.0408024787902832 0.24443557858467102 0.3746257722377777
-1.742899775505066 -0.07537242770195007 0.12045759707689285
-0.6805697083473206 -0.18564145267009735 -0.6448118686676025
-2.2826528549194336 0.056728020310401917 0.8320736885070801
1.2101272344589233 -0.5964239835739136 -0.11843183636665344
1.899531602859497 -0.20129907131195068 0.9503514170646667
2.496588945388794 0.4890190660953522 -0.5837461352348328
-0.2840074598789215 0.9957124590873718 0.22494280338287354
2.054614782333374 0.628427267074585 1.018272042274475
1.0165767669677734 0.9899969696998596 0.038356173783540726
0.6487257480621338 0.782105565071106 0.2631014287471771
-1.9349244832992554 0.20811858773231506 0.20434704422950745
2.0256056785583496 0.5311985015869141 -1.309080958366394
-2.4251210689544678 0.4213312864303589 0.04816259443759918
-1.3585736751556396 -0.7061982154846191 0.4523868262767792
1.5782171487808228 -0.10692103207111359 -0.6574679613113403
1.5461207628250122 -0.10589329898357391 0.7094051241874695
-1.945847749710083 -0.6026651263237 0.08606410771608353
1.607606053352356 -0.16204297542572021 0.8609887361526489
1.2772427797317505 0.7294877767562866 -1.0624126195907593
-1.167816400527954 0.6068136692047119 0.6012862920761108
0.0379524752497673 0.15209947526454926 1.3086411952972412
1.8696131706237793 0.2344226986169815 0.4996103048324585
-0.6256542205810547 -0.011151984333992004 -1.2486969232559204
2.2199435234069824 0.47788098454475403 1.0322258472442627
-1.286397933959961 -0.4598655700683594 0.8582086563110352
-1.9384490251541138 0.3874717652797699 1.1431583166122437
-0.5255580544471741 -0.03075811266899109 0.9868063926696777
1.9643275737762451 0.19121168553829193 -1.2191946506500244
1.4722659587860107 -0.5264272689819336 -0.1820652186870575
-0.7468031644821167 -0.04149468243122101 -0.6221137046813965
-1.2260208129882812 -0.29057157039642334 0.7858150005340576
-1.0173949003219604 -0.010027393698692322 -0.06435289978981018
-1.0988476276397705 -0.5600426197052002 0.5542548894882202
-0.4784204363822937 0.249666228890419 -0.06070055812597275
2.020911693572998 0.1901782751083374 1.1915340423583984
-0.7033270597457886 0.5363725423812866 -0.3385047912597656
1.9752321243286133 0.35458552837371826 -0.5946853160858154
1.4604469537734985 -0.04045510292053223 0.9179744720458984
0.517326295375824 0.2392057478427887 -0.599136233329773
0.2266804724931717 1.2579271793365479 0.8438353538513184
1.2262719869613647 0.35052290558815 0.4443660080432892
-0.8924643397331238 0.598457932472229 0.4796164035797119
-0.15155410766601562 -0.5484578609466553 0.7885544896125793
0.5432088971138 0.11690777540206909 -0.4879101812839508
-0.6507908701896667 0.20634053647518158 -1.0737171173095703
-2.538961410522461 0.4306480288505554 -0.8001417517662048
0.06484395265579224 -0.1937297135591507 0.38197383284568787
-1.7458820343017578 -0.2792245149612427 0.5951608419418335
-0.8598801493644714 0.6658679246902466 0.2397235929965973
-1.5968399047851562 0.852107048034668 0.6324723362922668
1.9505552053451538 -0.32257866859436035 1.3130650520324707
1.5122880935668945 0.4720802307128906 -0.6538938879966736
2.991968870162964 -0.014783695340156555 -0.6097688674926758
3.294548988342285 -0.42116278409957886 0.17351120710372925
1.1490020751953125 -0.2738935947418213 -0.12235186249017715
1.147571086883545 0.3749661445617676 -1.431854009628296
0.5974178910255432 0.26212865114212036 1.022112488746643
-0.4734828472137451 -0.2847447395324707 -0.20245468616485596
0.8595236539840698 0.09109602868556976 -0.6990281939506531
2.0443460941314697 0.4595766067504883 1.279970645904541
-0.5731860399246216 0.4243324100971222 -0.2930945158004761
1.4272761344909668 -0.3578377366065979 1.3638794422149658
0.6749723553657532 -0.0999794602394104 0.7932894825935364
1.686592698097229 0.3039854168891907 0.05124117434024811
1.8382467031478882 0.3681201636791229 -0.2679581046104431
-0.6447207927703857 1.2887184619903564 0.011330122128129005
-0.4967508912086487 -0.10972952842712402 0.628572404384613
-1.2394051551818848 -0.18286995589733124 0.5302571058273315
0.07246165722608566 0.7302495837211609 -0.017500638961791992
-1.5994302034378052 1.0475614070892334 -0.10555967688560486
-0.6965683698654175 0.7218080759048462 -0.72957843542099
0.7263956069946289 -0.3289710283279419 0.9965354800224304
0.6170933842658997 -0.02302055060863495 -0.7813735008239746
1.6407463550567627 0.6944299936294556 -0.10001197457313538
0.1622564196586609 -0.5415511131286621 0.5165285468101501
2.2308249473571777 0.18135714530944824 -1.0659781694412231
-2.253420114517212 -0.30507659912109375 1.2826088666915894
1.590611219406128 0.7199909687042236 -1.1939129829406738
0.7963346838951111 -0.2155652642250061 0.45282360911369324
2.296661853790283 0.5208642482757568 -0.7432434558868408
2.244351387023926 0.041124194860458374 -0.4170370399951935
2.9726481437683105 -0.2012525200843811 -0.6003562211990356
0.21604716777801514 1.041895866394043 0.6934061050415039
1.5581629276275635 0.729263424873352 -1.0580193996429443
-1.5183463096618652 1.038710594177246 -1.1819669008255005
-0.682964026927948 0.1951100379228592 0.3813523054122925
0.8690577149391174 0.8007656335830688 1.1470870971679688
-0.9965595006942749 0.10116773843765259 -1.2421307563781738
-1.4448463916778564 -0.04155445098876953 -1.206477403640747
-0.11317111551761627 -0.30681321024894714 1.2935333251953125
1.0493665933609009 0.4982994794845581 -0.18315063416957855
2.3996102809906006 0.33025309443473816 0.3048877716064453
2.81200909614563 -0.0013013184070587158 -0.6102997660636902
-0.8055358529090881 0.5073480606079102 -1.176462173461914
-1.770147681236267 -0.202158585190773 0.691142201423645
-1.134628415107727 -0.17268677055835724 0.5508094429969788
1.3565454483032227 0.3717467784881592 -0.34150370955467224
1.9017382860183716 0.34327831864356995 -0.1699112057685852
-0.772749125957489 0.4897339344024658 -1.5267926454544067
-0.5529575347900391 0.13510866463184357 1.0082927942276
-0.5672205686569214 -0.3094941973686218 1.09088134765625
-0.8492438197135925 -0.6307475566864014 -0.05883422866463661
1.7968168258666992 0.11169296503067017 -0.3860677480697632
-0.42248132824897766 -0.10822732746601105 0.7459770441055298
-0.3435242772102356 -0.5115000009536743 0.29432573914527893
-1.0073167085647583 0.18984496593475342 -0.09509402513504028
0.9200659990310669 0.09816701710224152 0.15724481642246246
-0.08029577136039734 0.9093718528747559 -0.23173324763774872
-2.2923965454101562 -0.14276209473609924 1.0713982582092285
0.8707110285758972 -0.2549719214439392 -1.4260796308517456
-0.14865317940711975 0.8522281050682068 -0.6567388772964478
-0.468848317861557 -0.4521617293357849 0.567456841468811
1.8219361305236816 0.010254040360450745 -1.4909090995788574
1.5191220045089722 -0.6474360823631287 0.8110458850860596
2.5670390129089355 -0.5186244249343872 -0.4672740697860718
-1.398643970489502 0.3768561780452728 -1.612000584602356
0.9624348878860474 -0.5840931534767151 1.6309500932693481
-2.1993374824523926 0.08719143271446228 0.18836933374404907
-1.2111698389053345 0.0019494593143463135 0.706869900226593
0.8810778260231018 0.3200415372848511 -0.26705241203308105
-1.6371839046478271 0.07249778509140015 -1.2510675191879272
1.728885531425476 0.485784649848938 0.044595055282115936
1.2362263202667236 0.8239665627479553 -0.12247679382562637
0.061234667897224426 0.888504683971405 1.2359774112701416
-1.9863249063491821 0.748444139957428 1.0399136543273926
1.7928149700164795 -0.0795934647321701 -0.16687282919883728
-1.5940601825714111 0.2994729280471802 -0.8815960884094238
-1.3597315549850464 -0.33718276023864746 -0.04562266543507576
-0.4269733428955078 0.3284013867378235 1.1415965557098389
-1.5968319177627563 -0.5486375093460083 0.4163438081741333
0.7099056839942932 0.042151689529418945 0.9161683320999146
-1.4543395042419434 -0.3952483832836151 -0.6694704294204712
1.1321702003479004 0.13020485639572144 0.5351096391677856
1.7526159286499023 0.44710773229599 0.2400796115398407
-0.1258479654788971 0.9655047655105591 -0.8789297938346863
-0.4665984809398651 -0.5562034845352173 0.636152982711792
-2.3678183555603027 0.12494543194770813 0.9049108028411865
2.129136562347412 -0.11959414184093475 0.7211257815361023
-0.953957200050354 0.21462136507034302 0.07046123594045639
-1.7495325803756714 0.8492442965507507 -0.37101414799690247
1.0066101551055908 0.18448804318904877 0.2553839683532715
2.333308219909668 -0.5435159802436829 0.614902913570404
1.3617055416107178 0.014790356159210205 -0.7220335602760315
-1.0490754842758179 0.3326159715652466 1.2385295629501343
-1.2938865423202515 -0.548530101776123 0.32721540331840515
2.00222110748291 0.6281089186668396 -0.4272589385509491
1.220910906791687 -0.5718896985054016 0.3200899362564087
-1.893440842628479 -0.29897427558898926 0.8382614254951477
-0.7089443206787109 -0.2881219983100891 -1.0529460906982422
-0.324023962020874 0.5985963940620422 -0.7804986834526062
-1.917973279953003 0.3422985076904297 0.33242395520210266
1.2106602191925049 0.3414692282676697 -0.30278730392456055
-1.0041402578353882 1.043384075164795 0.08060083538293839
0.9401254653930664 0.9133391976356506 0.9992676377296448
1.4742276668548584 -0.2241445779800415 -1.5328497886657715
2.0252513885498047 -0.15623821318149567 1.180896520614624
2.373155355453491 0.3448323607444763 0.17752988636493683
-0.9190280437469482 0.6931726336479187 0.04384199157357216
-0.428136944770813 -0.5175113081932068 0.6329280138015747
-1.1430678367614746 -0.14058561623096466 -0.9868329167366028
1.6816868782043457 0.156772643327713 -0.7735745906829834
-0.15081056952476501 -0.5650031566619873 -0.32885241508483887
0.08714345097541809 -0.08334413170814514 -1.0468943119049072
-0.9279639720916748 0.8553318977355957 -1.4343327283859253
1.515101432800293 -0.5097973346710205 -0.8106291890144348
1.166591763496399 0.40346986055374146 -0.7904127240180969
0.38480979204177856 0.1322425901889801 0.1788128763437271
-0.07104028016328812 1.3009637594223022 0.3332037031650543
-0.9405331611633301 -0.24197468161582947 0.6857331991195679
2.4285106658935547 0.15072669088840485 0.009086612612009048
-0.064559206366539 0.8253846168518066 0.14601226150989532
-0.6865435838699341 0.5319838523864746 1.1432029008865356
-0.9515546560287476 -0.5649979114532471 1.052956223487854
-0.6699555516242981 0.5551925301551819 -0.1176978051662445
-1.6268882751464844 -0.1274246871471405 -1.0673240423202515
-0.6368027329444885 -0.41965252161026 -0.7839389443397522
-0.4779886305332184 -0.49279356002807617 0.9015193581581116
2.0555999279022217 0.23404285311698914 -1.2071030139923096
-0.8200511932373047 -0.03000149130821228 -1.393218755722046
-1.0452842712402344 0.07268789410591125 0.7099854946136475
-1.7562021017074585 0.5297210216522217 0.6383569836616516
-1.6890108585357666 0.4529711902141571 0.3934760093688965
-1.0692403316497803 -0.5661012530326843 -0.008377679623663425
0.33987393975257874 0.9146155118942261 0.5206096172332764
1.5504721403121948 -0.04833608865737915 -1.4042611122131348
-2.010014772415161 1.0090702772140503 0.45703577995300293
-0.3819894790649414 0.1007906049489975 -0.3963054418563843
-0.9172794222831726 -0.10034453868865967 -1.3498361110687256
2.5420753955841064 -0.4980887472629547 -0.5926491022109985
-1.1783275604248047 0.70389324426651 -0.1589987576007843
0.7586965560913086 0.8321061730384827 1.0550049543380737
1.8245290517807007 0.04368390142917633 0.840412437915802
1.6605502367019653 0.670222818851471 0.13721689581871033
-1.1086030006408691 1.0922620296478271 -1.1441117525100708
-0.3219207525253296 -0.2564048171043396 -0.6435009241104126
-1.0940903425216675 1.0977387428283691 -1.05873441696167
1.8504831790924072 0.10854008793830872 0.36651912331581116
1.0694999694824219 0.4774318337440491 0.4638781249523163
1.932362675666809 0.17754212021827698 0.5563363432884216
1.6570823192596436 -0.5433616638183594 -0.25081688165664673
0.8179691433906555 -0.17787352204322815 0.5989369750022888
-1.4987064599990845 -0.3561161160469055 -0.7269493341445923
-1.3945844173431396 0.02125711739063263 -0.9283820390701294
-0.4400081932544708 -0.5489033460617065 0.036843668669462204
0.3941459357738495 0.6724867820739746 0.5429545044898987
-0.38373881578445435 -0.35161370038986206 -1.515891671180725
1.3950039148330688 -0.2703825831413269 -0.715279221534729
1.9098389148712158 0.678946316242218 -0.5380896329879761
2.077944278717041 0.6250390410423279 -0.18920370936393738
-1.2348575592041016 0.20057329535484314 0.8200132250785828
-0.8746219873428345 -0.5777190327644348 0.3207593858242035
1.4857313632965088 -0.4280380308628082 1.5881441831588745
0.8690974116325378 -0.5264936685562134 0.3716217577457428
-0.2856524586677551 -0.32011497020721436 0.24744413793087006
1.3793892860412598 -0.17870473861694336 -0.1398645043373108
1.94583261013031 0.44980064034461975 -0.6527616381645203
-1.1585320234298706 -0.04995808005332947 1.4292203187942505
-1.1353756189346313 0.05078214406967163 0.7392033934593201
-2.0302796363830566 -0.27095213532447815 -0.16882717609405518
1.16774582862854 0.3813774585723877 -0.6496027708053589
-1.9810832738876343 0.015690311789512634 1.1548492908477783
1.4391868114471436 -0.0619242787361145 0.10303475707769394
-1.322151780128479 0.5680602788925171 -0.41798627376556396
0.2640644609928131 0.7871047854423523 0.40756934881210327
0.4149533808231354 0.41641709208488464 0.2792966067790985
-0.23525434732437134 -0.5273292064666748 -0.3819374144077301
1.5631442070007324 0.39181575179100037 -0.467428058385849
0.6184769868850708 -0.10109329223632812 -0.004082986153662205
2.6235544681549072 -0.5411345958709717 0.03669736161828041
0.8918976187705994 0.011536911129951477 -0.28712400794029236
-0.42938122153282166 -0.0972411185503006 0.741047739982605
1.4360309839248657 -0.32116758823394775 0.7495647072792053
-1.234058141708374 0.07704544067382812 -0.6383457183837891
-1.2461479902267456 0.2369854748249054 0.9436021447181702
-1.4204862117767334 0.29846179485321045 -0.6124334335327148
3.1088225841522217 0.0013808906078338623 -0.5870606899261475
-0.7393857836723328 0.9105717539787292 0.11247678846120834
-0.17810240387916565 1.0798118114471436 -0.9437268972396851
0.3552096486091614 1.031043291091919 -0.9890183210372925
1.5594974756240845 0.7371823787689209 -1.2036137580871582
2.4927353858947754 -0.4537248909473419 0.9021266102790833
1.0458964109420776 -0.24327333271503448 -0.6234273910522461
-0.5111416578292847 -0.3083798587322235 -1.0028401613235474
-1.6935707330703735 0.40039920806884766 0.5321283936500549
-2.276268720626831 0.5816178321838379 0.009404921904206276
2.2855377197265625 -0.3705065846443176 0.18763507902622223
-0.5288788080215454 -0.32324349880218506 -0.9225179553031921
-2.0619161128997803 -0.4451955556869507 0.6069878935813904
1.4746299982070923 -0.31754666566848755 -0.5688902139663696
-1.7096819877624512 0.22938388586044312 -0.09579353779554367
0.0076836347579956055 0.7126380205154419 0.054622069001197815
-1.776568055152893 0.9483912587165833 -0.1368529498577118
1.4246782064437866 -0.07594643533229828 0.004388968925923109
1.2992408275604248 0.35906100273132324 -0.557283341884613
1.1519486904144287 -0.26552626490592957 0.9681817293167114
0.3850649297237396 0.8792721033096313 -0.5008906126022339
-0.35085999965667725 -0.20393526554107666 -1.391516923904419
-1.567976713180542 -0.5505061149597168 -0.7606099843978882
1.6588364839553833 0.6266255378723145 0.09512707591056824
1.1516011953353882 0.42275315523147583 0.05992226302623749
0.193411722779274 0.9765279293060303 0.5540599226951599
-1.3460915088653564 0.2985047698020935 -0.9787532687187195
-1.852744221687317 0.32303762435913086 -0.610127329826355
1.4265929460525513 -0.1994553506374359 -1.0024486780166626
2.0565483570098877 -0.5424447655677795 -0.8603918552398682
1.4680737257003784 0.1805540919303894 -0.1972905993461609
-1.7431745529174805 -0.5233442783355713 0.7249739766120911
0.9746319651603699 0.7889142036437988 0.15657970309257507
0.5081185698509216 0.463851660490036 -1.0056339502334595
-0.34665605425834656 0.6899750232696533 -0.6379485726356506
-1.3272453546524048 1.0044838190078735 -0.8951638340950012
-2.0688726902008057 -0.23207363486289978 0.4100683331489563
0.9319921135902405 -0.5330196619033813 0.9825780391693115
-0.29281851649284363 -0.4293724298477173 1.1933774948120117
2.1430935859680176 0.6578089594841003 -0.029449084773659706
-0.030240140855312347 1.200358271598816 0.5728643536567688
-1.3105798959732056 0.6655874252319336 0.04351259395480156
-1.6528303623199463 -0.373449444770813 0.7895243763923645
-0.6260616183280945 0.20413066446781158 -0.9278578162193298
0.031811513006687164 -0.3846762776374817 -1.2869044542312622
1.315568447113037 0.02522057294845581 -0.09666319936513901
1.4740536212921143 -0.2752760052680969 1.6158500909805298
-1.0268725156784058 -0.33339840173721313 -0.08826065808534622
-0.6634445786476135 0.18478843569755554 0.8006038665771484
-0.788926899433136 0.18737424910068512 1.2345048189163208
0.935064971446991 1.0101410150527954 0.4730178117752075
-0.694393515586853 -0.022050023078918457 -1.0531688928604126
-2.506723642349243 0.5026118159294128 -1.2583346366882324
-1.0858547687530518 0.335904061794281 -0.10005442053079605
-0.4638168513774872 1.0475010871887207 0.7197622060775757
0.2517283260822296 1.1712257862091064 0.3951590061187744
1.2075631618499756 0.4381014406681061 0.22929315268993378
1.7422770261764526 0.05805177986621857 0.5243646502494812
-2.2092373371124268 -0.4541296064853668 -0.3306722044944763
-0.8879685997962952 1.2921867370605469 0.40867775678634644
1.6877013444900513 -0.10379655659198761 -0.3084337115287781
-0.06375525146722794 1.0186114311218262 -0.3154017925262451
2.148581027984619 -0.5063987374305725 0.18851818144321442
-0.11449281126260757 0.6205269694328308 -0.444773405790329
-0.9910297393798828 -0.3742906451225281 -0.23978613317012787
-0.8119854927062988 0.6043136119842529 -0.23295898735523224
-1.8536396026611328 0.5831059217453003 0.5922399759292603
0.7387993335723877 0.5644115209579468 -0.5366764664649963
0.6653751134872437 -0.5412987470626831 0.9789329767227173
-0.47172942757606506 0.6968832015991211 -0.4119533896446228
0.41938847303390503 -0.5338498950004578 0.5307765007019043
0.47980260848999023 0.252999484539032 -0.9666141271591187
1.9105443954467773 0.6510165333747864 0.8257642984390259
-0.30944061279296875 1.0757783651351929 -0.8470629453659058
1.3957054615020752 -0.5597708821296692 0.38324764370918274
-0.0028710737824440002 0.5388041138648987 -0.9680252075195312
-1.7326207160949707 0.23823010921478271 0.07433672994375229
3.2648799419403076 -0.3957352340221405 0.27877604961395264
0.8631411194801331 0.6402314305305481 1.1819545030593872
-0.43748337030410767 0.15528146922588348 -0.22307616472244263
1.4098397493362427 -0.278315007686615 0.7926957011222839
2.079986095428467 0.6120830178260803 0.09882613271474838
-0.8543915748596191 0.658335268497467 -1.473008155822754
-1.0316011905670166 -0.5831974744796753 0.3947233259677887
1.6988036632537842 -0.11712475121021271 0.669819712638855
-1.3821057081222534 1.0609773397445679 0.6213875412940979
0.3434407711029053 -0.24682989716529846 -0.839101254940033
1.6948565244674683 -0.3333614468574524 -0.36863306164741516
1.1940765380859375 0.024442285299301147 -0.7204219102859497
0.19997942447662354 0.4288521409034729 -0.7314619421958923
-1.7746683359146118 -0.33704084157943726 -0.4520551264286041
-1.4295600652694702 1.2047053575515747 -0.41856756806373596
0.2844414710998535 0.5518327951431274 -1.4211336374282837
1.0949115753173828 -0.33096617460250854 -1.327061653137207
1.1477553844451904 -0.07759970426559448 -0.033464763313531876
-1.8822801113128662 -0.20179982483386993 1.2033348083496094
2.055530548095703 0.6612902879714966 -0.18787066638469696
1.4718786478042603 -0.5610363483428955 0.5126148462295532
1.2133994102478027 0.30418455600738525 0.5623108148574829
-0.46289825439453125 0.675141453742981 0.17836035788059235
-1.7189353704452515 1.0420875549316406 0.12792597711086273
-0.9280957579612732 -0.2781473398208618 -0.5651163458824158
-1.4430286884307861 -0.5268595814704895 -1.4437419176101685
1.31086266040802 -0.5001049041748047 1.660383939743042
-1.2871960401535034 0.23809869587421417 -0.06682254374027252
0.7419926524162292 -0.20223034918308258 0.3283454179763794
-0.43865489959716797 0.07734473049640656 -0.5620894432067871
-2.4759905338287354 0.5022256970405579 1.0249568223953247
0.2736450135707855 0.34897273778915405 0.39178594946861267
2.271031379699707 0.12930333614349365 0.3406291604042053
-1.9842026233673096 0.8153762817382812 -0.7676953673362732
0.35020628571510315 -0.5537216663360596 1.3414595127105713
-1.151448130607605 -0.5597059726715088 -0.33660221099853516
0.33851248025894165 -0.20913678407669067 -0.16959676146507263
0.9627256393432617 0.4028048515319824 -0.3757421374320984
1.0620510578155518 -0.5540893077850342 0.6505149006843567
1.1332980394363403 0.19427090883255005 0.21387648582458496
-0.39404669404029846 -0.05140538513660431 0.6198927760124207
0.405621737241745 -0.07910408079624176 -0.07628180831670761
-1.183730959892273 -0.47076982259750366 -1.469537615776062
-1.8495713472366333 0.49342119693756104 1.3461071252822876
0.9529383182525635 0.4222559928894043 0.547053337097168
0.7676822543144226 -0.3487800359725952 -0.4875985383987427
-0.9256866574287415 -0.3545995354652405 -0.5736833810806274
-0.4779345393180847 -0.5606635808944702 -0.9199073314666748
1.1655293703079224 0.42485445737838745 -1.0687392950057983
2.509554862976074 -0.04984220862388611 0.28929707407951355
0.0409737229347229 0.008852288126945496 -0.043537940829992294
-1.005753517150879 0.9367337226867676 0.4857182204723358
-0.607678234577179 -0.21810874342918396 -0.3105267286300659
1.0860826969146729 -0.1483880877494812 -0.5017971396446228
2.0597283840179443 -0.3263978064060211 0.5843645334243774
-1.1201180219650269 0.3929113447666168 -0.6029938459396362
-0.9854997396469116 0.5127375721931458 0.5503374338150024
0.6484523415565491 0.512334942817688 0.1448514759540558
-1.5526690483093262 -0.5356833934783936 -0.06440960615873337
1.4642770290374756 0.2727101445198059 -0.28629639744758606
-1.594862937927246 -0.26065003871917725 -0.09263072162866592
1.5710225105285645 0.6271995306015015 1.1876354217529297
2.582998514175415 -0.04942682385444641 -0.6064439415931702
-0.7750152945518494 -0.5491337776184082 -0.4180806875228882
1.845931053161621 0.11713041365146637 -0.3470139503479004
0.153713658452034 0.1896352469921112 -0.9812910556793213
1.9800812005996704 -0.1286303848028183 0.22668808698654175
-0.8398728370666504 0.5234385132789612 0.6406358480453491
-1.6948966979980469 -0.3170105218887329 -0.4712564945220947
-1.5576374530792236 -0.24038848280906677 0.047063399106264114
0.6646589040756226 0.8836844563484192 -1.439004898071289
2.483466625213623 -0.253527969121933 0.12126443535089493
-0.20121213793754578 0.6550547480583191 -0.5003739595413208
1.0917017459869385 0.19408559799194336 -1.3012089729309082
-0.8534467220306396 -0.5062944889068604 0.9161183834075928
-0.8138354420661926 0.9080332517623901 -0.3974849283695221
1.9529770612716675 -0.012942776083946228 -1.4576793909072876
0.26469486951828003 -0.1889786720275879 0.5030602812767029
0.16802920401096344 -0.2661047577857971 0.15978136658668518
-1.1021077632904053 -0.47429966926574707 -0.6759161353111267
-1.34666907787323 -0.3294622302055359 -0.2358877807855606
-0.9048291444778442 -0.5633953213691711 1.2574173212051392
1.9291549921035767 -0.19907817244529724 -0.6092158555984497
1.5335811376571655 0.5058830976486206 -0.5944527387619019
-1.3233503103256226 0.030509471893310547 -1.6034860610961914
1.6330763101577759 0.11425274610519409 -1.1400117874145508
-1.2490347623825073 -0.4351849853992462 -1.195560097694397
-0.9535090923309326 -0.6420916318893433 -1.2155280113220215
-1.6471503973007202 0.3747090995311737 -0.2562636137008667
-0.2922922968864441 -0.2796133756637573 -0.4146398603916168
1.7391724586486816 0.013960719108581543 0.8497132062911987
0.4469018578529358 0.05674375593662262 0.5040695667266846
1.4614930152893066 -0.16597208380699158 -1.5651458501815796
1.7471073865890503 -0.2633635997772217 -0.5670971870422363
1.144339680671692 0.3560827970504761 0.4995374381542206
1.0321813821792603 0.4001447856426239 -0.5332452058792114
0.5763253569602966 -0.1918996125459671 -0.7301444411277771
1.994551658630371 -0.07575251162052155 -0.15587376058101654
-1.298435926437378 0.7535802125930786 -0.36402350664138794
0.7061551213264465 -0.5350837707519531 0.4393186569213867
1.3062695264816284 -0.45327332615852356 0.8005325794219971
-0.4671632647514343 -0.08400531113147736 -0.5921089053153992
-0.6142429113388062 -0.38974729180336 -1.1263060569763184
0.191461443901062 0.323469877243042 -0.6517611742019653
1.1027296781539917 0.10073599219322205 0.2987518608570099
-1.580954670906067 0.2586649954319 0.6180485486984253
-0.7215175628662109 0.5221282243728638 -0.1369892656803131
2.699794292449951 0.14733774960041046 -0.2006346881389618
-2.9988222122192383 0.39818131923675537 0.48271825909614563
1.9874351024627686 0.07982249557971954 1.0805222988128662
-1.8745970726013184 0.3682429790496826 1.0948103666305542
1.847855567932129 -0.019354820251464844 0.02719387412071228
0.9382497668266296 0.3673142194747925 -0.2852795124053955
-1.8619223833084106 -0.3860411047935486 -0.2369956225156784
-2.057058095932007 -0.650789201259613 0.36108097434043884
-1.1081644296646118 -0.28139251470565796 0.7857658863067627
-1.2795007228851318 0.030202776193618774 -1.2805118560791016
0.9672611951828003 0.2744588851928711 -0.4489581286907196
-0.26939573884010315 0.9321185350418091 0.4850336015224457
-1.1558082103729248 -0.45808055996894836 -0.8399131894111633
1.4884064197540283 0.2611318528652191 0.089827761054039
-1.4369754791259766 -0.3249679207801819 0.31440824270248413
2.3466949462890625 -0.4570274353027344 -0.8038787841796875
-1.9822064638137817 0.6168127059936523 -0.2795652151107788
-0.31772381067276 -0.1151137501001358 1.435736060142517
0.2767513394355774 -0.03277112543582916 -1.2632614374160767
-2.1523985862731934 -0.479280948638916 0.0388755276799202
1.9201085567474365 -0.5959829092025757 -0.9091317057609558
-1.0808583498001099 -0.36181262135505676 -0.1959599256515503
-1.8289406299591064 1.0740865468978882 0.38212814927101135
0.02104642242193222 -0.533997654914856 -0.40638622641563416
0.3633207678794861 0.011854171752929688 0.13164809346199036
1.6931647062301636 -0.49391594529151917 -0.6248798370361328
-1.7323122024536133 -0.46548697352409363 -0.5741294622421265
0.2647506594657898 0.6395048499107361 1.2403154373168945
1.5844802856445312 0.2490430474281311 0.5316964983940125
1.8960298299789429 0.33165454864501953 -0.09920235723257065
-2.8724775314331055 0.3398648500442505 0.7194534540176392
3.079270601272583 0.1324365735054016 1.1343107223510742
0.533800482749939 0.18110841512680054 0.03922653943300247
1.7991774082183838 -0.35673147439956665 0.9867036938667297
2.0045580863952637 -0.2216498851776123 -0.1492687314748764
0.542847752571106 -0.26169368624687195 -0.01982002519071102
1.0149900913238525 0.7522618174552917 -1.1910357475280762
2.317687749862671 0.530543863773346 -0.6022207736968994
2.3056843280792236 -0.5629383325576782 -0.298433393239975
-0.9657445549964905 0.4464816451072693 -1.4142673015594482
1.1298015117645264 -0.13251422345638275 0.8535655736923218
0.21399182081222534 -0.5005934834480286 -1.0586713552474976
-1.4335204362869263 0.3585438132286072 -0.7360977530479431
-2.0711264610290527 0.15256552398204803 1.3238266706466675
-0.010523922741413116 1.361722469329834 -0.45255252718925476
1.0761003494262695 0.8557137250900269 0.8021852374076843
1.5805588960647583 0.7050654888153076 0.6979735493659973
1.8820620775222778 0.24535241723060608 -0.1340433955192566
-0.3474845886230469 -0.37004995346069336 -0.2332901656627655
1.3839658498764038 -0.3785427212715149 -1.1946580410003662
0.20693683624267578 0.21398726105690002 -1.3313120603561401
1.2599260807037354 -0.14299613237380981 -0.4686209261417389
0.4079802334308624 0.6889821887016296 -0.6754118800163269
0.2224961221218109 1.0834195613861084 0.8389153480529785
3.2248740196228027 0.1569415032863617 0.22827403247356415
2.0545592308044434 -0.4439936578273773 0.7737231850624084
0.5525104999542236 -0.39166849851608276 1.1216232776641846
-0.37062960863113403 -0.5906593799591064 -0.20327162742614746
-1.349962830543518 -0.02022133767604828 -0.4563836455345154
0.8242892026901245 0.2083292454481125 0.28240928053855896
1.613607406616211 0.6485121250152588 0.261900931596756
0.6410670876502991 0.44824087619781494 -1.393175482749939
-1.9618487358093262 -0.27368372678756714 0.5466297268867493
1.2176393270492554 0.6920446157455444 -1.0615367889404297
-1.3251663446426392 0.07075482606887817 -0.8578000664710999
0.4932402968406677 0.3170818090438843 -0.7016205191612244
1.905017375946045 -0.1500544548034668 -1.4814536571502686
1.6903568506240845 -0.6294954419136047 -1.1814111471176147
0.9228676557540894 0.9016921520233154 0.08639141172170639
0.09301689267158508 -0.6318619251251221 0.438170462846756
0.254997581243515 1.1070951223373413 -1.3089227676391602
-1.3346214294433594 -0.5621724128723145 0.3660077452659607
-0.22730505466461182 -0.35291069746017456 1.1132680177688599
0.5248068571090698 0.7639155387878418 1.1368988752365112
2.18186616897583 -0.41242942214012146 -0.16705812513828278
0.5154786109924316 0.014850571751594543 -0.5886452794075012
1.2195426225662231 0.3986120820045471 0.09430607408285141
0.12765882909297943 0.3177017569541931 -0.5059056878089905
0.12151358276605606 0.7508253455162048 0.0005035323556512594
0.4431755542755127 0.1916676014661789 0.2729002833366394
-1.2314997911453247 -0.3233126997947693 -0.011837597005069256
-0.7209619283676147 -0.048712357878685 -0.9173885583877563
-2.1114611625671387 0.8799242973327637 -0.04610796272754669
1.328473448753357 -0.30543702840805054 -1.2370961904525757
1.855591058731079 -0.18463289737701416 0.8392451405525208
1.6500524282455444 0.22370581328868866 -0.336977481842041
-0.9149286150932312 0.5240116119384766 -0.3580363690853119
1.2628737688064575 0.02903604507446289 0.37169182300567627
2.1778411865234375 -0.3936305046081543 -0.723305881023407
2.295386552810669 -0.06832617521286011 0.7604977488517761
-0.2826903760433197 -0.5730365514755249 0.949926495552063
-0.9842526912689209 -0.5200440883636475 -1.041651725769043
-1.4716434478759766 0.12075372040271759 -0.4936198592185974
-0.33044302463531494 -0.5439856052398682 -1.7921831607818604
1.6739197969436646 -0.2977324426174164 0.10470116883516312
-1.6144498586654663 1.1287846565246582 -1.2285621166229248
1.6350349187850952 -0.32239940762519836 -0.6476738452911377
3.2493786811828613 -0.12919427454471588 0.15877069532871246
1.1981894969940186 0.5923033952713013 0.6659457683563232
1.4499967098236084 0.5954136848449707 0.9623479843139648
0.5362472534179688 0.08710440993309021 -0.07421963661909103
0.4256075322628021 -0.24879416823387146 -0.9041649103164673
-1.5525072813034058 0.16811737418174744 0.7051256895065308
2.116194009780884 0.10756421089172363 -0.08403584361076355
-0.38633328676223755 0.061187222599983215 0.86846524477005
1.3354229927062988 0.11674119532108307 -1.098712682723999
-0.5780483484268188 0.26524558663368225 -0.7367094159126282
0.20717079937458038 0.3848828673362732 -0.538589358329773
-0.4966563880443573 -0.35925033688545227 0.7155972123146057
-1.3955847024917603 -0.6533998847007751 -0.9613072872161865
0.7179556488990784 -0.0023849010467529297 -0.630100667476654
1.894150733947754 0.014271095395088196 -0.04882634058594704
2.8065226078033447 -0.12215520441532135 0.5227674841880798
1.3096263408660889 -0.3635101318359375 1.1278276443481445
1.805873155593872 -0.10863517224788666 0.015074972063302994
1.3270881175994873 -0.5350404977798462 0.30005043745040894
0.37780797481536865 -0.5300614833831787 0.4722400903701782
-1.505656361579895 1.0523557662963867 -0.6615821123123169
0.49748727679252625 0.3039831817150116 0.496272474527359
1.9667603969573975 -0.4722633957862854 0.5416909456253052
-0.30795326828956604 -0.02108284831047058 -0.43360552191734314
0.9333831071853638 -0.5625573396682739 1.0700697898864746
1.6414381265640259 -0.48080259561538696 0.47939208149909973
2.42417573928833 -0.5443509221076965 -0.7533231973648071
-2.0671064853668213 -0.1603880375623703 0.9732646346092224
-0.19134730100631714 0.7553508281707764 0.8511092662811279
1.8931293487548828 -0.48146960139274597 0.25308358669281006
1.2630341053009033 -0.04744008183479309 -1.4559948444366455
0.3727748692035675 0.25030332803726196 1.2890526056289673
-0.48558565974235535 0.17619940638542175 -0.8221985697746277
