ply
format ascii 1.0
element vertex 812
property float x
property float y
property float z
end_header
-1.0429391860961914 -0.4530467391014099 0.3064458966255188
1.3990263938903809 -0.47392886877059937 -0.2856350839138031
0.7225045561790466 -0.2411779761314392 0.04829831048846245
-1.610990047454834 0.0465998500585556 -0.646755039691925
-0.5654630064964294 0.5859289765357971 1.1811437606811523
0.12161321938037872 0.37753233313560486 -0.3313397765159607
1.7631802558898926 0.3333721160888672 -0.9147063493728638
0.23035567998886108 -0.46504145860671997 0.5028192400932312
1.8359853029251099 -0.4188805818557739 -0.22523434460163116
1.8937013149261475 0.5162593126296997 -0.6622444987297058
0.0714094415307045 -0.2748444676399231 -1.1623207330703735
-1.0144643783569336 -0.454806387424469 0.17502520978450775
1.2887978553771973 1.0382630825042725 0.15439973771572113
2.217120885848999 -0.2551065683364868 1.1508965492248535
-1.3683881759643555 0.19098056852817535 -1.014804720878601
-0.1171337440609932 0.29163858294487 -0.4860837459564209
0.9042735695838928 0.3494475185871124 0.2937476634979248
0.04567418247461319 0.81409752368927 -0.7985790371894836
-2.212191104888916 0.4450327754020691 -0.1798003762960434
1.1535227298736572 -0.21529357135295868 0.30800145864486694
-2.5692546367645264 -0.17323067784309387 0.3405436873435974
-1.1287431716918945 -0.30566883087158203 -0.45908960700035095
-0.7545191049575806 0.45611336827278137 -0.6842820644378662
0.8746211528778076 0.41292035579681396 -0.30658581852912903
-2.122460126876831 -0.32716941833496094 1.224125862121582
-2.444998264312744 0.4178907871246338 -0.5460231304168701
-1.0618553161621094 0.560819685459137 -0.0677461177110672
-2.2017810344696045 -0.37615397572517395 0.5831165313720703
-1.1664659976959229 -0.3617960810661316 -1.3075768947601318
-0.9616320133209229 -0.4330969750881195 -0.06715943664312363
0.8213165402412415 0.9354643821716309 0.9166290163993835
-1.4865772724151611 0.5263805389404297 -0.14056327939033508
0.047796569764614105 0.034126102924346924 -0.4483012855052948
0.1607031524181366 0.9152382016181946 0.5453135967254639
1.6921157836914062 0.5524406433105469 0.6561059355735779
-0.5849518179893494 0.7450110912322998 -0.39954134821891785
-1.0246341228485107 -0.0868728756904602 1.2111098766326904
-1.1850621700286865 0.9420720338821411 0.8179897665977478
1.4265527725219727 0.6173833608627319 0.24621498584747314
3.6975929737091064 -0.5395669937133789 -0.08039537072181702
-1.7889710664749146 0.7675400972366333 0.6272744536399841
1.990111231803894 -0.3974236845970154 0.43813782930374146
2.004271984100342 0.840288519859314 -0.04009441286325455
0.6089747548103333 1.0848772525787354 -0.13853400945663452
0.45584651827812195 1.011938452720642 0.6048676371574402
-0.7984462380409241 -0.24149635434150696 -0.43985891342163086
0.8261606097221375 -0.3759399652481079 0.7047185897827148
2.2652835845947266 0.6906194686889648 -0.0022852090187370777
0.5079748034477234 0.6089547872543335 -0.19136294722557068
1.5225493907928467 1.0689451694488525 0.32175302505493164
1.679184913635254 0.36283087730407715 -0.15521840751171112
-1.466430902481079 0.8616785407066345 0.5328696966171265
2.181417465209961 0.7618451118469238 -0.49937039613723755
-1.471261739730835 1.2462913990020752 0.6676163673400879
-1.7072727680206299 0.035235583782196045 -0.14257806539535522
1.315201759338379 0.6938915252685547 -0.33358532190322876
2.0985524654388428 -0.5119220614433289 0.4355853497982025
-0.10344943404197693 0.3238554298877716 0.78156977891922
1.610316514968872 1.0091636180877686 -0.6572830080986023
3.128617525100708 -0.4868507385253906 -0.2829384207725525
-1.718126654624939 0.05578227341175079 0.007200575899332762
0.8664459586143494 -0.10599681735038757 -0.8781555891036987
1.2664401531219482 -0.44951874017715454 -0.4727381765842438
-2.2958149909973145 -0.07934169471263885 1.1126234531402588
1.5754444599151611 0.47800320386886597 -0.3298632800579071
-1.6991950273513794 1.1406810283660889 0.0532965324819088
-0.576707124710083 -0.2042652815580368 0.28955593705177307
1.6439526081085205 -0.4369572103023529 -0.10220925509929657
1.2259106636047363 0.2271096557378769 0.895508885383606
-0.43844592571258545 1.1436935663223267 -0.4705072045326233
2.2299699783325195 -0.08300939202308655 -0.36347371339797974
-0.25619664788246155 -0.4084199070930481 -0.037679221481084824
0.8728034496307373 0.9939640164375305 0.4075965881347656
1.3690520524978638 0.0367463082075119 -0.2965508997440338
-1.3164541721343994 -0.40421658754348755 1.2273008823394775
0.2673831582069397 0.9056373238563538 -0.10256516933441162
-0.17776216566562653 -0.3045068383216858 -0.24125322699546814
2.3465096950531006 0.5093279480934143 0.375400573015213
-1.7431578636169434 0.21947935223579407 -0.860203206539154
-0.9900632500648499 0.3740527033805847 0.44478675723075867
-0.5058610439300537 0.03928565979003906 -0.46106380224227905
1.8642371892929077 -0.15341617166996002 -0.2548694610595703
1.2635376453399658 0.08166667819023132 -0.062025245279073715
0.6575105786323547 0.16354332864284515 -1.092892050743103
0.6104169487953186 0.07840745151042938 1.1394293308258057
1.197924256324768 0.6152321696281433 0.3580285608768463
0.6795164942741394 0.7155455350875854 1.0840765237808228
1.1359381675720215 1.1066148281097412 -0.2860201895236969
-0.5921611785888672 1.157841682434082 0.4990018606185913
0.4936332106590271 0.28805696964263916 -0.3976803421974182
-1.0459271669387817 0.05028446018695831 -0.7813153862953186
-1.8771135807037354 -0.31853675842285156 -0.6183696389198303
-1.6049997806549072 0.0962933897972107 -0.5469534397125244
0.6359654664993286 0.02403956651687622 0.10965024679899216
1.737119436264038 -0.0650823563337326 -0.12338265031576157
0.44286441802978516 0.07426972687244415 -0.1184784322977066
0.05883195996284485 -0.11745290458202362 0.4088389575481415
0.9587941765785217 0.9631131291389465 -1.2568819522857666
-0.6096984148025513 0.2811771035194397 -0.14924375712871552
2.5416507720947266 -0.04819907248020172 0.8297008872032166
-1.367226481437683 0.9906783103942871 0.466962605714798
-1.0525692701339722 0.6784387826919556 0.3712421953678131
0.9569694995880127 -0.19808374345302582 0.9916790723800659
1.5501527786254883 -0.41159650683403015 -0.10756506025791168
-0.216013103723526 0.5804225206375122 -0.45366930961608887
-2.4780948162078857 -0.2961231768131256 0.7135330438613892
-0.20626068115234375 -0.449174702167511 -0.44256019592285156
-0.7393376231193542 0.8381296396255493 -0.25955963134765625
1.1059123277664185 -0.2628887891769409 -0.0595281720161438
-0.58669513463974 0.06515046954154968 -0.2254386991262436
0.4008934497833252 0.7599589824676514 -0.15244929492473602
3.182171583175659 -0.13362078368663788 0.9298917055130005
-0.7895430326461792 0.8549089431762695 -0.18140342831611633
-2.7200310230255127 0.5957193374633789 0.1542108952999115
0.7592254877090454 -0.5241395235061646 -0.4580792784690857
-1.600412368774414 0.9812426567077637 0.20623630285263062
-1.8946090936660767 -0.04727207124233246 0.668464183807373
-3.09169864654541 0.15336032211780548 0.0002501830458641052
2.904815673828125 0.03569675236940384 1.0473911762237549
-1.7803044319152832 0.7715915441513062 -0.7565298676490784
-1.3703711032867432 -0.2383391261100769 -1.3207341432571411
-0.9478257298469543 0.39237847924232483 0.30079054832458496
-0.7730262875556946 -0.08107233047485352 0.4169835150241852
0.047711677849292755 0.6476616859436035 0.1119183897972107
-0.45100703835487366 0.6558947563171387 0.11833832412958145
1.351177453994751 1.1603164672851562 0.4673451781272888
1.5049911737442017 -0.38842591643333435 -0.631974458694458
1.689530849456787 0.41033935546875 -0.6143550276756287
1.2523735761642456 -0.35274064540863037 -0.03899451717734337
-0.31814494729042053 0.20865070819854736 1.2400743961334229
-1.4978727102279663 0.934347927570343 1.2042973041534424
2.268146514892578 0.3233417570590973 0.009625988081097603
-0.12106439471244812 0.6168745756149292 0.633755087852478
-2.0034916400909424 -0.3590022325515747 0.7462379336357117
-1.0435070991516113 -0.36062243580818176 0.5146019458770752
-1.534402847290039 0.255462110042572 0.9705222249031067
0.6939110159873962 0.6178812384605408 0.7405826449394226
1.0998455286026 0.2262488603591919 1.2143977880477905
1.2309677600860596 0.8056405782699585 0.4326367974281311
-1.5470651388168335 0.7183523178100586 -0.4079478085041046
1.5665512084960938 -0.053579673171043396 1.1720854043960571
-0.046008992940187454 0.2604599893093109 0.7307766079902649
-1.9700884819030762 -0.17435680329799652 -1.1457160711288452
-0.17423294484615326 -0.2620767652988434 -0.1422080248594284
0.9777501821517944 1.0154420137405396 -0.590901792049408
1.9204277992248535 -0.4542120695114136 -0.05247178673744202
0.8582602143287659 0.7050180435180664 0.17439773678779602
-1.041290044784546 0.7472745776176453 1.1008983850479126
-0.06371982395648956 -0.46846336126327515 0.5250675082206726
-0.2740522027015686 0.3182351887226105 -0.05338200554251671
2.418085813522339 -0.2835400104522705 -0.13342440128326416
-2.5502161979675293 -0.11933141946792603 0.011593651957809925
-0.35935455560684204 -0.4189770817756653 0.04968009889125824
1.712167501449585 0.14719383418560028 -0.6697283387184143
0.11473361402750015 0.2382255643606186 -0.44812726974487305
0.5745086073875427 1.1029390096664429 -0.4533649682998657
-1.1768689155578613 -0.20457500219345093 -1.28501558303833
-1.4765560626983643 0.8119657635688782 0.16782324016094208
1.2144277095794678 0.5620460510253906 -0.7125798463821411
-0.5189804434776306 -0.1337166428565979 -0.11639079451560974
-1.7794491052627563 0.7532921433448792 0.3757438063621521
-0.36629602313041687 0.8738734126091003 -0.7039282917976379
-1.6155256032943726 -0.29746702313423157 0.09473396092653275
-0.6243662238121033 0.48133382201194763 0.6424676179885864
1.0896260738372803 1.0847973823547363 -0.06890574097633362
0.21332688629627228 0.6356264352798462 -1.0866005420684814
-0.226063072681427 0.809926450252533 -0.6644375324249268
0.11377858370542526 -0.07297153770923615 0.467068076133728
0.3577973544597626 0.9485968351364136 -0.7781721353530884
0.561680793762207 0.14211405813694 0.5433578491210938
0.662706196308136 0.23533153533935547 0.49813464283943176
-1.0352109670639038 1.086895227432251 -1.124431848526001
1.3840892314910889 0.9647323489189148 -0.4807479679584503
1.1658790111541748 0.11930300295352936 -0.36560606956481934
-0.395325630903244 1.1211570501327515 0.3809635043144226
-1.479851484298706 0.25364288687705994 -1.2957864999771118
-0.25913864374160767 1.1421892642974854 -0.5411298871040344
1.2691118717193604 -0.08327539265155792 -0.7994520664215088
-0.23785987496376038 -0.320794939994812 -0.14189447462558746
0.7315552830696106 -0.027449026703834534 -0.6071957349777222
-1.777125358581543 0.5752224326133728 1.100247859954834
-0.9436344504356384 -0.1129140853881836 0.8795171976089478
-0.5216187834739685 0.5377345681190491 0.2559783160686493
0.1151278167963028 -0.1635594367980957 0.3069109320640564
0.5274174213409424 -0.4669189453125 0.561120331287384
-2.1844334602355957 -0.3698909282684326 -0.011089036241173744
1.5420067310333252 0.06485377252101898 -0.6907897591590881
2.080071210861206 0.20201784372329712 0.034099120646715164
1.9015718698501587 0.8031938076019287 0.9768473505973816
-0.28582170605659485 0.7764606475830078 -0.9079306721687317
0.4129217267036438 1.0204004049301147 -1.0196791887283325
1.8494718074798584 -0.07618691027164459 0.2915549576282501
-1.5374047756195068 -0.35190916061401367 0.03628163784742355
0.9092319011688232 0.24581043422222137 1.2105798721313477
0.41204649209976196 0.02225227653980255 0.08991817384958267
-1.2067420482635498 0.5259974598884583 -0.8097213506698608
1.7915996313095093 -0.2596706748008728 -0.8387958407402039
-0.2197008579969406 0.33023732900619507 0.15912842750549316
-0.07059606164693832 0.43974587321281433 0.35612213611602783
-0.6558387875556946 0.40123677253723145 -1.1555955410003662
-1.3252453804016113 0.23337234556674957 -0.08891429007053375
0.5135085582733154 -0.41214463114738464 0.157578706741333
1.7213705778121948 0.6581845283508301 -1.4137979745864868
0.29150277376174927 1.1588433980941772 0.08958998322486877
-0.020541265606880188 1.1271158456802368 0.08700194954872131
-1.6569501161575317 0.7102394700050354 0.6552952527999878
-0.4021802842617035 0.47489452362060547 0.5643033981323242
0.9990569949150085 0.042553603649139404 -0.8387314081192017
0.3708301782608032 0.7029784917831421 -0.63187175989151
-1.8290654420852661 -0.07289312779903412 0.7817685008049011
0.3196898102760315 0.5956457257270813 0.04750750586390495
0.23462985455989838 -0.39434805512428284 -0.3764113485813141
-1.8578063249588013 0.3864699602127075 -0.27077504992485046
0.5124964714050293 0.6992611289024353 -0.24666593968868256
-1.6117362976074219 0.015647530555725098 -0.5091734528541565
0.3556859493255615 0.0878421813249588 0.285174697637558
-1.5513538122177124 1.2297543287277222 -0.32371142506599426
-2.1395397186279297 -0.2158670276403427 0.28790485858917236
1.6286920309066772 0.18249934911727905 0.24995772540569305
-1.7639966011047363 0.49425846338272095 0.3533421456813812
-0.12687884271144867 -0.18983562290668488 1.1754695177078247
-0.6113259792327881 1.1897770166397095 0.09416590631008148
-1.7328052520751953 0.4209679961204529 -0.20980291068553925
1.3086236715316772 -0.4045654237270355 0.4321262240409851
0.6813901662826538 1.1505028009414673 -0.015949368476867676
-0.13553938269615173 0.9366014003753662 0.4169350862503052
-0.07659251242876053 -0.4428213834762573 0.0316859632730484
-1.0486258268356323 1.1672968864440918 0.1838720589876175
-0.21043378114700317 -0.35537928342819214 -0.05296197161078453
-1.2208231687545776 0.4009554982185364 -0.03515607491135597
-2.157259464263916 0.6263118982315063 -1.3168976306915283
0.6336012482643127 -0.09907840192317963 0.5585298538208008
-2.425196647644043 0.6320939660072327 0.3635188043117523
-2.446848154067993 0.4135585427284241 0.9534364938735962
1.5873792171478271 0.22623120248317719 -0.5924454927444458
-1.3802704811096191 0.9954020977020264 -0.5981534123420715
0.30386319756507874 0.6541582942008972 1.1673595905303955
-2.432109832763672 0.25642329454421997 0.04175116866827011
-2.313342571258545 0.5462077260017395 -0.6029250025749207
-2.3591232299804688 0.4212122857570648 -0.08783834427595139
-1.6890714168548584 -0.03522995114326477 0.9317456483840942
0.6069955825805664 0.46654191613197327 1.088812232017517
0.4628239572048187 -0.4426020383834839 0.469865620136261
-0.7070605158805847 1.0387934446334839 0.6113241910934448
0.9331175684928894 -0.2616724967956543 -1.14255690574646
2.1898903846740723 -0.18529252707958221 -0.3270922601222992
0.8272422552108765 -0.39046284556388855 0.3733425736427307
-3.3213744163513184 0.4771059453487396 0.7555216550827026
-0.3286121189594269 0.4154423773288727 0.4568369388580322
-1.7247778177261353 0.19215095043182373 -0.34857913851737976
-0.8838059902191162 0.9664995670318604 -0.3647131025791168
-1.757088303565979 0.48150187730789185 -0.21057051420211792
1.7661409378051758 -0.12093643844127655 -0.5952866673469543
0.7077587842941284 1.1535104513168335 -0.003352654166519642
0.626234769821167 0.22152230143547058 -0.7494933009147644
2.351475238800049 0.5716207027435303 0.19725747406482697
0.541307806968689 0.5602831840515137 -0.48472264409065247
2.6113016605377197 0.04634065926074982 -0.2333250343799591
0.8319070339202881 0.9026615619659424 -0.6501860618591309
-1.9033576250076294 1.1641463041305542 0.039490021765232086
1.0208550691604614 0.7669857740402222 -0.12064409255981445
0.9643275141716003 -0.4424797296524048 0.44540050625801086
-0.8699002861976624 0.7190761566162109 0.211908221244812
1.3624638319015503 0.12290579080581665 -0.33800071477890015
-0.16028867661952972 0.645255982875824 0.4564685523509979
-1.3353067636489868 0.46848422288894653 -0.47750717401504517
-2.0423169136047363 0.3030039668083191 0.15873293578624725
-0.7244799137115479 0.5522850751876831 0.5507838129997253
-2.1895430088043213 0.9516786336898804 0.988217294216156
-1.5511186122894287 -0.11868222057819366 0.023327356204390526
0.6470375061035156 0.06797097623348236 -1.0642460584640503
-0.9699838757514954 0.45102882385253906 -0.6962629556655884
0.8134953379631042 -0.49885064363479614 -0.02556518465280533
0.43276605010032654 0.7655297517776489 -0.39659276604652405
1.319261908531189 0.5138791799545288 1.3036082983016968
1.1459544897079468 -0.4529799520969391 -0.7292588353157043
-0.20106618106365204 -0.06519638001918793 -1.0737919807434082
0.034655775874853134 0.3067033290863037 0.7155659198760986
-1.0212048292160034 -0.18365435302257538 0.30690497159957886
-0.2308073341846466 -0.16078557074069977 -0.8716484308242798
1.7096961736679077 -0.12895739078521729 0.0414685383439064
-0.7200599312782288 0.9130460023880005 -0.7598169445991516
-1.7284802198410034 -0.2053288370370865 -0.7401556968688965
0.7518125176429749 -0.22974762320518494 -1.176797866821289
1.3119827508926392 0.6580411195755005 0.5088692903518677
-1.4657893180847168 0.6571518778800964 0.6031786203384399
0.8510797619819641 0.05766363441944122 0.2416636347770691
-1.5840015411376953 0.5985400080680847 -0.7134054899215698
0.25316429138183594 -0.1166161596775055 -0.06796950101852417
1.9634590148925781 -0.46802690625190735 -0.5121647715568542
-1.1690376996994019 1.0811630487442017 1.0581134557724
0.8328433632850647 -0.14351734519004822 0.27363303303718567
-0.336668461561203 0.43889838457107544 0.16565953195095062
-1.3264713287353516 0.33007603883743286 0.586999237537384
2.0098893642425537 -0.4581780433654785 -0.11455974727869034
0.4280422627925873 0.7193241715431213 -0.2107037901878357
0.2947268486022949 0.9032627940177917 1.0121839046478271
-1.8414493799209595 -0.34545955061912537 0.46793827414512634
-1.8827643394470215 0.8077611923217773 0.7966644167900085
2.4188663959503174 0.39898139238357544 -0.755337655544281
-2.1246731281280518 0.6877911686897278 -0.4759208559989929
-0.35034286975860596 0.321108341217041 -0.0687333419919014
-1.6707261800765991 0.6664680242538452 0.5949138402938843
1.4921762943267822 -0.10739642381668091 -0.29907330870628357
-1.2671228647232056 -0.425262987613678 1.0055896043777466
-1.7387044429779053 -0.31246447563171387 0.6708779335021973
-2.3748600482940674 -0.3433651924133301 -0.2813670337200165
-1.2740581035614014 0.5665903091430664 -0.23538026213645935
-2.3995821475982666 0.6681885719299316 -0.5005294680595398
-0.3137664794921875 0.5975199341773987 -0.7967666387557983
-2.444701671600342 0.7034050226211548 -0.2448117882013321
0.6410301923751831 0.5021349787712097 -1.0227532386779785
-2.2164876461029053 0.47769513726234436 -0.4359963536262512
0.794581949710846 0.8750759363174438 1.2390973567962646
0.22567051649093628 0.8837856650352478 -0.3732473850250244
-2.2018513679504395 1.2390230894088745 0.1650025099515915
-1.234818458557129 0.07604171335697174 0.5258618593215942
0.1867906153202057 0.4747513234615326 -0.3881910443305969
-0.05635304003953934 -0.3950585126876831 1.0035905838012695
-0.5181530714035034 0.07893973588943481 -0.09974957257509232
-0.3571510314941406 0.033763691782951355 0.5590325593948364
0.41125816106796265 0.5800559520721436 0.6042422652244568
1.9497491121292114 -0.34385180473327637 0.7347924709320068
-0.2233288288116455 0.7509378790855408 -0.9782924056053162
1.1868438720703125 0.7421451210975647 0.437147855758667
-1.6100282669067383 -0.20192138850688934 0.07243400067090988
-1.5480093955993652 0.5997949242591858 -0.2653683125972748
-0.12759007513523102 -0.04334577918052673 -0.18594595789909363
1.4651856422424316 1.043616771697998 -0.21856936812400818
-0.3610841631889343 -0.27288007736206055 0.7752120494842529
1.5096441507339478 0.8154616951942444 0.6666421294212341
-0.5187855362892151 -0.07246670126914978 -0.15015248954296112
-0.7709758877754211 -0.16231702268123627 0.03264520689845085
-1.2217726707458496 0.82466059923172 -0.45953115820884705
0.30698421597480774 1.1070959568023682 -0.3953433036804199
-0.709426999092102 0.24188922345638275 0.29909461736679077
-1.2727699279785156 0.5641565322875977 0.09435170888900757
0.06170814484357834 -0.44789835810661316 -0.3016315698623657
-3.1381332874298096 0.7254965305328369 0.12113265693187714
1.5001682043075562 0.01427246630191803 0.04781583696603775
-0.611915111541748 -0.20654724538326263 0.38908764719963074
1.8359564542770386 0.31006816029548645 0.8818734884262085
-1.4993420839309692 0.34774744510650635 -0.7970737814903259
-0.4549909234046936 0.6260881423950195 -0.17684657871723175
-1.2035832405090332 -0.08731204271316528 0.3830893337726593
-1.4778693914413452 0.7947171926498413 0.24068422615528107
1.000681757926941 -0.3178859353065491 0.9929459691047668
0.49930575489997864 0.5210235118865967 0.18517018854618073
1.0400028228759766 -0.2575329542160034 1.0987403392791748
-0.2907562255859375 -0.21179920434951782 -0.22893141210079193
-0.3369855284690857 -0.4762825667858124 0.2521452009677887
2.236417293548584 0.590440034866333 0.2498566061258316
1.394355058670044 -0.06821295619010925 -0.13351128995418549
-1.237460732460022 1.0505530834197998 0.5186097025871277
1.0126028060913086 0.8141952157020569 0.47745174169540405
-1.2145717144012451 -0.4432010054588318 -0.1651231348514557
-2.195840835571289 0.39523065090179443 -1.2679729461669922
1.6740134954452515 -0.1613020896911621 0.28524211049079895
0.2586594820022583 0.513464093208313 1.2639291286468506
-1.6092915534973145 0.3932987153530121 -0.7399352192878723
-2.0011379718780518 1.0500597953796387 0.6534134745597839
-1.8186140060424805 0.7668319940567017 -1.1112680435180664
1.0818185806274414 0.7887977361679077 1.2367699146270752
0.7072178721427917 0.9574856758117676 0.9849345088005066
-2.6696999073028564 -0.11039717495441437 0.9967314004898071
0.2517431378364563 0.7879213094711304 -0.48575764894485474
2.1645102500915527 0.7106730341911316 -0.14517353475093842
1.5131314992904663 0.09928902983665466 1.0824966430664062
-1.074799656867981 0.24730683863162994 -0.9599754810333252
1.2288436889648438 -0.046777740120887756 -0.05172894522547722
-0.1152319684624672 -0.45017677545547485 -0.46918076276779175
0.5758817791938782 0.029560506343841553 -0.7112141847610474
0.7872079610824585 -0.22536493837833405 -0.4140937030315399
-1.3033030033111572 -0.08381567895412445 0.19953639805316925
2.3827314376831055 0.044520288705825806 -0.16378770768642426
2.0790743827819824 -0.1603734791278839 -0.45074546337127686
-1.1055221557617188 0.1376170814037323 0.2714161276817322
0.6756316423416138 0.2703933119773865 -0.24250707030296326
2.3678243160247803 -0.4943998456001282 -0.6933590173721313
1.2281522750854492 0.8832308650016785 0.2145007699728012
-1.4055025577545166 -0.40765902400016785 -0.13553273677825928
-0.4663580656051636 1.1548106670379639 -0.3816283047199249
-0.20312166213989258 -0.36366620659828186 1.1631231307983398
1.4901295900344849 -0.23609307408332825 0.4782955050468445
0.21110188961029053 -0.20799751579761505 -1.1099640130996704
0.46751371026039124 -0.4078957736492157 -0.5565024614334106
-1.1318252086639404 0.04657968878746033 -0.2639264166355133
0.5288107395172119 0.21206814050674438 -0.3708448112010956
-2.580732583999634 0.6363742351531982 -1.0239607095718384
-0.6149312853813171 0.9856044054031372 0.7204940915107727
-1.4666600227355957 0.16333648562431335 1.2336676120758057
1.2294825315475464 -0.11937141418457031 -0.05181574448943138
-1.506758213043213 0.6987013816833496 0.039139602333307266
1.8572131395339966 0.7523301839828491 -0.4053153395652771
2.2112767696380615 0.7760351300239563 -0.1484149992465973
0.9010064601898193 0.5497194528579712 0.07457466423511505
-0.18863213062286377 1.0271724462509155 -0.3636971414089203
-0.8718054890632629 0.7039611339569092 -0.6318433284759521
-2.2066256999969482 1.198624610900879 -0.012945380061864853
1.6543505191802979 0.21211059391498566 -0.8607892394065857
-0.8881649971008301 -0.08952370285987854 0.18497510254383087
0.33703523874282837 0.26804208755493164 -0.15500116348266602
1.2522773742675781 0.4374978840351105 0.016806334257125854
-0.45961564779281616 -0.23913326859474182 1.6206191778182983
0.7602012753486633 -0.19172683358192444 -0.13934890925884247
-0.8763750791549683 -0.024905338883399963 -0.23368307948112488
-0.7253594398498535 0.4367087185382843 0.383774995803833
-0.39952516555786133 0.16616223752498627 0.22119484841823578
-0.43487146496772766 0.17570224404335022 0.028823591768741608
2.707897663116455 0.17494621872901917 -0.22515985369682312
-0.9359093904495239 0.0895749181509018 -1.1579002141952515
-1.3152778148651123 -0.3464871942996979 -1.3185343742370605
-0.8987904191017151 -0.4572165012359619 0.5844278931617737
1.976346731185913 0.23323442041873932 0.04508545994758606
-1.420164942741394 0.26190412044525146 0.9803338050842285
-0.03801935911178589 0.41310226917266846 -0.27999114990234375
1.5340449810028076 0.5131341218948364 -0.09241743385791779
-0.8367154002189636 -0.41051945090293884 0.6361653208732605
1.66157865524292 -0.4121871590614319 1.0423330068588257
-1.3299387693405151 0.1487606316804886 -0.4438377022743225
-0.6042067408561707 0.5344101190567017 0.6961148977279663
1.4092247486114502 0.5302821397781372 -0.9981178045272827
1.5403028726577759 1.0081546306610107 0.46900415420532227
0.10084943473339081 0.4059234857559204 0.18255046010017395
1.3921788930892944 0.30808550119400024 0.8010194301605225
-1.016568899154663 -0.23026958107948303 -0.34800174832344055
-1.594849944114685 -0.16252417862415314 -0.8145436644554138
0.2494085282087326 0.9501176476478577 -0.15215714275836945
1.2615200281143188 -0.24124546349048615 0.7991108894348145
0.006275013089179993 0.2645666301250458 0.39515045285224915
-0.24701058864593506 -0.07708294689655304 -1.1872109174728394
1.0927329063415527 0.277072548866272 -1.0295026302337646
-1.3258389234542847 -0.40284043550491333 0.7159069776535034
-1.0392853021621704 0.38182586431503296 1.2546857595443726
-0.4036722779273987 1.154249668121338 0.3325890004634857
0.27076998353004456 -0.4393225908279419 0.8233296275138855
-2.51838755607605 1.3047850131988525 -0.5045908689498901
-0.5718364119529724 1.134642243385315 -0.2975790500640869
-1.6531230211257935 1.2272288799285889 0.4790312647819519
0.9101843237876892 0.38219067454338074 0.476813405752182
1.2313973903656006 0.09307506680488586 0.05279942601919174
0.34891417622566223 1.1326037645339966 -0.03046855516731739
-1.2138878107070923 0.9438977241516113 -0.9216040372848511
0.3555818498134613 0.975496768951416 0.707496702671051
-1.0072989463806152 -0.3552691638469696 0.4270309507846832
1.6171714067459106 -0.12166553735733032 -0.3515688180923462
0.732987642288208 0.9571040868759155 0.9490989446640015
-0.5552486777305603 -0.33913862705230713 0.3580408990383148
-1.3215270042419434 0.5999269485473633 -0.15810073912143707
-0.20777952671051025 0.9054856300354004 0.594215452671051
2.2188754081726074 0.7078249454498291 -0.09865517169237137
-1.6357319355010986 0.43309953808784485 -0.19415472447872162
0.30665820837020874 0.005080059170722961 -0.7882566452026367
2.34450364112854 -0.28937268257141113 -0.3801516890525818
0.7324385046958923 0.1127576231956482 0.6102057099342346
-0.36894091963768005 1.1354868412017822 -0.5497631430625916
0.6285730004310608 -0.20630750060081482 -0.25359323620796204
-0.2330603301525116 -0.11792241036891937 -0.4499128758907318
-0.0836181491613388 0.6387838125228882 0.6625537276268005
-0.8122845888137817 0.26024213433265686 0.9642251133918762
1.8172886371612549 -0.2539482116699219 1.1877273321151733
-2.456594467163086 1.1191388368606567 0.2952205538749695
1.5868960618972778 0.4263206124305725 1.2149103879928589
-2.150085687637329 0.20797649025917053 0.3042268753051758
0.984595000743866 0.22871895134449005 0.25287583470344543
0.965379536151886 -0.4321371018886566 -0.3781754672527313
1.032294750213623 -0.4285404682159424 -0.7470264434814453
0.2522195279598236 0.9503148794174194 -0.13778430223464966
-0.7973203659057617 -0.47832977771759033 0.5566708445549011
-1.9038954973220825 -0.1473059207201004 0.40436989068984985
0.1729457676410675 0.691897451877594 -0.7862113118171692
-0.40200820565223694 0.3669208884239197 0.36675381660461426
-0.040357913821935654 -0.22539259493350983 0.21365374326705933
-0.9909048676490784 -0.1176709532737732 -1.085038185119629
2.2954509258270264 0.1384407877922058 0.41259482502937317
-1.2655627727508545 1.1256861686706543 -0.34195733070373535
-2.616896867752075 0.6129976511001587 0.00484850350767374
-2.447629690170288 0.4963541030883789 -0.5452474355697632
0.24962155520915985 0.1042504608631134 -0.43490561842918396
-2.0082345008850098 0.061423033475875854 -0.5858864188194275
-0.018623951822519302 0.27520760893821716 -0.25307440757751465
-2.035008430480957 -0.2039153277873993 -1.1294012069702148
-1.2892051935195923 -0.03379400074481964 -0.4357333779335022
-2.2486929893493652 0.9928723573684692 -0.24440838396549225
-2.8739583492279053 -0.05070081353187561 1.1654807329177856
1.787008285522461 0.5278576016426086 1.2643200159072876
0.5455546975135803 -0.44653305411338806 0.3595661222934723
-0.6056152582168579 0.842847466468811 -1.0166090726852417
-0.5172439813613892 -0.3529081344604492 -0.14153222739696503
0.6429464221000671 0.9859456419944763 0.4889431595802307
-1.5569943189620972 1.1709105968475342 0.7728090286254883
1.1411304473876953 0.22172734141349792 0.018698614090681076
0.6864769458770752 0.7316340804100037 -1.0471142530441284
1.8788261413574219 0.22580833733081818 0.29378849267959595
-1.0704796314239502 -0.4235391318798065 -0.7451624274253845
0.4316260814666748 1.1963982582092285 -0.03078416734933853
1.1321567296981812 -0.053299859166145325 0.5662606954574585
-1.1625049114227295 1.072845458984375 -0.20299670100212097
-0.056599557399749756 -0.21521659195423126 0.4621301293373108
-1.8389136791229248 0.2707826495170593 0.47379735112190247
0.5462631583213806 -0.3732989430427551 0.19501225650310516
1.436699390411377 0.6520309448242188 -0.6227723360061646
-0.21925242245197296 0.9246079325675964 0.5895771980285645
1.632627248764038 -0.14814350008964539 -0.4444372057914734
-1.1121968030929565 0.3103176951408386 -0.20772603154182434
-2.09965181350708 0.722262442111969 0.39376381039619446
-0.7363771796226501 0.26645660400390625 -1.2158268690109253
0.9167026877403259 1.033713698387146 0.1237751767039299
0.8380107283592224 -0.2415330857038498 -0.2531781494617462
-1.3872530460357666 0.9718037843704224 0.26132237911224365
2.835092306137085 0.4345005750656128 0.31340527534484863
1.1150062084197998 1.0533887147903442 -0.5316291451454163
-2.4457850456237793 1.2144862413406372 -0.5525180101394653
2.649665355682373 -0.24162615835666656 -0.5532817244529724
2.3089652061462402 0.47688931226730347 -0.8667030334472656
1.537223219871521 1.0317413806915283 -0.14476068317890167
-0.9150250554084778 0.5164124965667725 0.92704176902771
1.1217434406280518 -0.01103411614894867 0.06996715068817139
2.2562732696533203 -0.024249568581581116 0.36372002959251404
-0.8523731827735901 0.7171589732170105 -0.174727201461792
1.9580680131912231 0.1669449657201767 -0.4244643747806549
0.9567432403564453 -0.15217871963977814 -0.6582239866256714
-1.7653534412384033 -0.08105522394180298 0.8110088109970093
-1.1699551343917847 -0.18734875321388245 0.46138519048690796
-0.2365330010652542 0.4259718656539917 -0.007788131013512611
-1.0300008058547974 0.11166474223136902 -0.03630278632044792
2.243682622909546 -0.5236558318138123 0.5576381087303162
-0.5271382331848145 0.7603839039802551 -0.4263775646686554
0.9231765866279602 1.0396579504013062 -0.6028093099594116
-0.15313342213630676 0.9214705228805542 -0.39638862013816833
-2.0560169219970703 1.2126586437225342 -0.6987879276275635
-0.26399585604667664 -0.5506839752197266 -0.022774312645196915
1.878397822380066 -0.26314738392829895 0.8588840961456299
-1.3346353769302368 0.33599328994750977 -0.1381983608007431
-1.0893628597259521 0.013678178191184998 0.2436082363128662
-0.025580063462257385 -0.31539636850357056 0.015625815838575363
0.6937860250473022 0.40038812160491943 0.032583706080913544
-2.0726282596588135 0.2788029909133911 -0.8438230156898499
1.3195750713348389 0.9436463117599487 -1.467703104019165
1.1342673301696777 1.0587965250015259 0.16644538938999176
-0.15456295013427734 0.995917797088623 -0.020207548514008522
0.7398545742034912 0.9732590913772583 -1.034176230430603
-2.1510732173919678 0.21228176355361938 -0.2736806571483612
-1.6700716018676758 -0.41848671436309814 -0.56400066614151
1.0773258209228516 -0.007702082395553589 -0.704706072807312
1.5216470956802368 0.8084064722061157 0.8928468823432922
-1.0844755172729492 -0.2083246260881424 0.17389550805091858
2.9574179649353027 0.34420645236968994 0.23645702004432678
-1.150553584098816 1.0066654682159424 0.4945172965526581
0.8527673482894897 0.5131360292434692 1.1924411058425903
0.08226556330919266 0.6233525276184082 -0.09520827233791351
-0.14468340575695038 0.8967412710189819 -0.06416939944028854
1.2204217910766602 0.5834680199623108 -1.027174472808838
2.1461901664733887 -0.04367457330226898 -0.08696579933166504
-1.67637300491333 0.1315004527568817 1.1359010934829712
0.524833083152771 1.0042128562927246 0.5000061392784119
-1.788273811340332 1.1878327131271362 0.5473458170890808
-0.8817838430404663 0.9996029138565063 -1.0826680660247803
1.1850509643554688 -0.47295141220092773 0.866106390953064
1.3888542652130127 -0.42859187722206116 -0.7791743874549866
1.4050986766815186 0.4052887558937073 -0.06983735412359238
-0.42683613300323486 0.6515522003173828 0.5030298829078674
1.924902319908142 -0.18866854906082153 0.1141994297504425
0.592447817325592 1.007802128791809 0.48575156927108765
2.1922152042388916 0.3689500689506531 -0.3864526152610779
0.29961535334587097 0.4248177111148834 -0.5995885133743286
0.4399039149284363 0.9842296838760376 0.743102490901947
0.6997090578079224 0.5897151827812195 -0.06688044220209122
0.10725145041942596 -0.35506781935691833 0.9493973851203918
0.4923866093158722 -0.050490498542785645 0.11750764399766922
-0.8294599056243896 0.5842157006263733 0.30797359347343445
1.3195959329605103 1.1522959470748901 -0.09114102274179459
0.09421026706695557 0.20515359938144684 0.20031921565532684
-1.638228416442871 0.8103780746459961 0.08528660982847214
1.893271803855896 -0.20489102602005005 -0.3947743773460388
1.6572335958480835 0.6760483384132385 0.6563122272491455
0.08489762991666794 -0.28351619839668274 0.9881685376167297
1.1960068941116333 -0.2774706482887268 0.6268587112426758
-0.033541567623615265 -0.47134077548980713 0.5424863696098328
1.6842150688171387 0.2616921067237854 -0.6951369643211365
-2.427415370941162 0.6616590023040771 -0.22946804761886597
2.0812745094299316 0.4536488950252533 0.6419632434844971
0.07435086369514465 0.8158278465270996 -0.02143704891204834
1.1755961179733276 0.5384008884429932 0.13991564512252808
-0.07040576636791229 0.12111257016658783 -0.04657531902194023
1.9306678771972656 0.25736844539642334 1.1459953784942627
2.4830949306488037 0.14076001942157745 0.046913936734199524
0.1972169429063797 -0.39485594630241394 -0.37496426701545715
-0.834331214427948 -0.3337501287460327 0.4751639664173126
0.2875124514102936 0.6220674514770508 0.261101096868515
-1.330515742301941 0.3285371661186218 0.8178807497024536
2.1215898990631104 -0.34585586190223694 -0.01445345301181078
-2.1042540073394775 0.8961716294288635 0.3338531255722046
2.399012565612793 0.6055785417556763 0.034370508044958115
1.8317055702209473 0.34868454933166504 -0.22053119540214539
1.17795729637146 1.0308911800384521 0.45155712962150574
0.7241965532302856 1.1342689990997314 0.07793881744146347
-2.3406102657318115 0.7698627710342407 0.023862401023507118
2.468498468399048 -0.4114431142807007 0.48622503876686096
0.7643778920173645 0.3094765543937683 -0.2225504219532013
-0.37501272559165955 -0.13782308995723724 -1.2122759819030762
0.2696358561515808 1.0499659776687622 0.8406021595001221
1.5045751333236694 1.030185580253601 -0.7221904993057251
2.437162160873413 0.31052887439727783 -0.6403431296348572
2.701704740524292 0.5564940571784973 -0.646161675453186
2.45137882232666 0.6175732612609863 -0.09685907512903214
0.34795093536376953 -0.08766262233257294 0.5199642777442932
-0.9281554222106934 0.919484555721283 -0.4420214295387268
1.454179048538208 -0.3991498351097107 -0.24526481330394745
2.5128908157348633 -0.4616326093673706 0.7780129313468933
-0.5656116008758545 -0.26336395740509033 -0.4612388014793396
0.8176397085189819 0.7117805480957031 0.08486524224281311
0.7299128174781799 0.6621423363685608 -0.17695467174053192
-1.690834403038025 -0.2845571041107178 -0.3985529839992523
0.9583176374435425 -0.35124287009239197 0.05779022350907326
-1.0711172819137573 0.38671764731407166 -0.22068290412425995
0.5340909361839294 0.6678742170333862 0.2570022940635681
2.493276357650757 0.4438821077346802 0.18140478432178497
-1.1269755363464355 0.32892125844955444 -0.4534202814102173
-2.0405995845794678 0.19832836091518402 -1.225822925567627
0.5525631308555603 0.845980167388916 0.17939157783985138
2.14249587059021 -0.3437318205833435 0.42799872159957886
-2.6089398860931396 -0.2819817066192627 0.7630178332328796
2.67708683013916 -0.20474457740783691 1.0706164836883545
-1.7439100742340088 0.46765315532684326 0.315162718296051
1.2248475551605225 -0.0346502810716629 0.3302832543849945
1.5455355644226074 -0.4292989671230316 1.0100337266921997
2.2906761169433594 0.03162193298339844 0.4313119947910309
-2.6648547649383545 1.1528428792953491 -0.2796323597431183
-0.7053260207176208 -0.13826563954353333 0.11100854724645615
1.4866869449615479 0.634860634803772 -0.3606415092945099
-2.3808507919311523 1.2430710792541504 -0.3966175317764282
0.5731595754623413 0.5726704597473145 -0.3538679778575897
1.6135276556015015 0.24471542239189148 -0.9541206955909729
-1.3335416316986084 0.14823444187641144 -0.19776611030101776
2.4532268047332764 -0.3881779909133911 0.5609660744667053
2.812770128250122 -0.07645660638809204 -0.10055938363075256
2.1299080848693848 -0.5270748138427734 -0.09463717043399811
-1.5799921751022339 -0.21341650187969208 0.3559267520904541
-1.648374319076538 0.599128007888794 0.6418872475624084
-0.42310088872909546 -0.13918742537498474 0.20511460304260254
0.4196021854877472 -0.39317411184310913 -0.09027794003486633
-0.8206069469451904 0.8646199107170105 0.11513768881559372
-1.3138699531555176 0.31351345777511597 0.5852366089820862
2.056899070739746 0.6802709102630615 0.939915120601654
-1.7204715013504028 0.0773053914308548 0.4211418926715851
1.1027369499206543 -0.20224446058273315 -0.22918500006198883
0.3142167329788208 0.2811434268951416 -0.11908648908138275
-1.4274845123291016 0.010605856776237488 0.37759828567504883
-1.9677528142929077 0.5852886438369751 -0.7268646359443665
-1.479322910308838 0.9602565765380859 1.0947004556655884
1.9703260660171509 -0.027092307806015015 -0.6338492035865784
-1.4001810550689697 0.5018953084945679 -0.27448800206184387
-0.8654765486717224 0.16215786337852478 -0.26700785756111145
-2.149712085723877 1.2199127674102783 0.2745148539543152
-1.262081265449524 0.7317091226577759 -1.087470531463623
-0.3282496929168701 0.437088280916214 -0.25775405764579773
-1.2159289121627808 0.7129929065704346 1.2468398809432983
-2.4023733139038086 0.7306882739067078 0.074008509516716
1.4325003623962402 0.2767232358455658 -0.9992287158966064
-0.5245872139930725 0.9894323945045471 -1.145743727684021
0.5983931422233582 0.9220632314682007 -0.39011576771736145
-1.5960588455200195 0.9643318057060242 0.1205892562866211
-1.1039390563964844 -0.024222180247306824 -0.7019423246383667
-2.3724284172058105 -0.15324272215366364 -1.0925085544586182
-1.2592852115631104 -0.28890323638916016 0.46333909034729004
0.6078335642814636 0.3713037371635437 0.22286593914031982
-0.8762515187263489 0.5181612968444824 1.2259401082992554
0.7473562359809875 0.15590253472328186 -0.02962859906256199
0.38475877046585083 1.0769833326339722 0.31612521409988403
-0.9402071237564087 -0.2506299316883087 0.8278796076774597
-0.27727827429771423 0.9825636744499207 -0.9152929186820984
1.9766967296600342 -0.36031877994537354 -0.4585094153881073
0.45365071296691895 -0.25361406803131104 0.07588036358356476
-1.7253947257995605 -0.17209114134311676 -0.1168101504445076
1.4303561449050903 0.4354472756385803 0.7884706258773804
-0.027150705456733704 0.31906017661094666 0.34662431478500366
0.6658531427383423 0.8673371076583862 0.08246709406375885
-0.5512747168540955 -0.027397021651268005 -0.3685886859893799
-2.5832724571228027 -0.35169148445129395 0.39139410853385925
-1.907098650932312 -0.38279226422309875 1.143540859222412
-1.4844011068344116 1.1472752094268799 1.214804768562317
1.8625493049621582 -0.12571944296360016 -0.2953943610191345
1.2754595279693604 -0.43717679381370544 0.2784222662448883
1.4675112962722778 -0.4116570055484772 0.5242829918861389
0.31730562448501587 0.06377270817756653 0.8650892376899719
-2.0888562202453613 1.0747026205062866 -0.6396787762641907
-2.0507242679595947 0.07350426912307739 0.8172938823699951
0.8746039867401123 1.0394195318222046 0.4071314036846161
-8.172914385795593e-05 1.043489933013916 -0.9563977718353271
0.21125540137290955 -0.27957069873809814 0.5819301009178162
-0.9357705116271973 0.878877580165863 -0.15283066034317017
0.890710711479187 -0.38679665327072144 -0.4041273593902588
-1.5436450242996216 0.5592806339263916 0.7822151780128479
-0.3414461612701416 -0.17282958328723907 -0.3692609667778015
0.33433204889297485 0.17947278916835785 0.13047702610492706
0.4907169044017792 0.09307566285133362 0.8583804368972778
1.8720523118972778 0.003211304545402527 0.13999409973621368
-1.3659005165100098 -0.26267075538635254 -0.17653712630271912
-0.8749975562095642 1.1222337484359741 -0.7950929403305054
0.2912623882293701 -0.03914974629878998 -0.6590994596481323
-2.6819229125976562 0.24962176382541656 0.8592653870582581
-0.41155245900154114 -0.1262717843055725 -0.25833240151405334
0.04711942747235298 0.0005258172750473022 -0.13886253535747528
-1.7558749914169312 -0.3151795268058777 0.16089461743831635
0.7337906956672668 -0.2966257333755493 -0.902505099773407
0.13549309968948364 1.0618027448654175 0.5588215589523315
-1.935752034187317 0.5905138254165649 -0.27575942873954773
-1.1546392440795898 -0.0891992598772049 0.22129738330841064
1.0212329626083374 0.34503018856048584 0.18697935342788696
1.0999618768692017 0.22421689331531525 -0.18515223264694214
-0.5462267994880676 -0.4563697576522827 0.008196745067834854
1.4787684679031372 -0.17965029180049896 0.040819644927978516
-2.274836540222168 0.2222745716571808 0.20374836027622223
-1.2057478427886963 1.017720341682434 0.35782915353775024
-0.6471683382987976 1.2895534038543701 0.4775127172470093
0.6048471927642822 -0.4305550158023834 -0.08732905238866806
1.7706295251846313 0.4560275077819824 1.2854117155075073
0.7337871789932251 -0.11264622211456299 -0.39690327644348145
-1.1549733877182007 1.10128915309906 1.0006611347198486
0.573018491268158 0.5508788824081421 0.7057127952575684
-1.8110020160675049 -0.40787431597709656 0.33624571561813354
0.12633667886257172 -0.4374343752861023 0.6468223333358765
0.8935723900794983 -0.16682778298854828 -0.05521576851606369
0.04540320485830307 -0.09334559738636017 0.8236963748931885
1.8604031801223755 0.3712831735610962 0.22017893195152283
2.547722101211548 0.12901753187179565 0.03313552588224411
2.4330315589904785 0.5116933584213257 0.5943940281867981
2.416041374206543 0.6646044850349426 -0.06562454998493195
1.6715701818466187 -0.14280222356319427 -0.8444550633430481
-0.8392918109893799 1.1759061813354492 -0.20958870649337769
1.2763105630874634 0.12073446810245514 0.2807552218437195
2.564785957336426 -0.178585022687912 0.13539455831050873
1.1312857866287231 -0.46303245425224304 -0.5596811175346375
1.9009038209915161 -0.08210408687591553 -0.8459042906761169
-1.8268827199935913 0.3883460462093353 -0.07069585472345352
1.5903619527816772 -0.08157013356685638 -0.21086819469928741
1.3843985795974731 1.1171138286590576 0.0730736032128334
1.6546599864959717 -0.4146660566329956 0.2512892484664917
1.176885962486267 1.0997639894485474 0.1520663946866989
1.433230996131897 0.40324127674102783 0.04810887575149536
2.338052272796631 -0.44215404987335205 -0.6924118995666504
-0.5463026165962219 0.2231297791004181 -0.7190065979957581
1.5319653749465942 -0.17462541162967682 0.3763679265975952
-1.362648367881775 -0.4772779941558838 -0.5609349608421326
0.24451518058776855 -0.03800077736377716 0.7738984823226929
-0.328938752412796 0.9891223907470703 -0.6279433965682983
2.4028921127319336 0.49226993322372437 0.6163842678070068
1.4641928672790527 -0.5138666033744812 -0.4126351773738861
0.7330504655838013 -0.4567229449748993 -0.35690122842788696
-1.9386359453201294 -0.11387179791927338 0.9445353150367737
-2.3675239086151123 -0.32725825905799866 -0.4360061287879944
-1.4880096912384033 0.07329243421554565 -0.5588069558143616
-0.507293164730072 0.04149423539638519 0.4270726442337036
0.20835812389850616 -0.21956570446491241 -0.16714772582054138
2.2044622898101807 0.49255409836769104 0.2987632751464844
-0.777122974395752 1.1464331150054932 -0.21658678352832794
-1.4801487922668457 0.6433743834495544 -0.6786307692527771
2.808738946914673 0.13171808421611786 0.7231769561767578
-1.2579900026321411 0.5015372037887573 -0.7451707720756531
0.5903505086898804 -0.2436903566122055 0.7134423851966858
2.328861713409424 -0.2935197353363037 -0.2134418934583664
-0.8995913863182068 0.021142080426216125 -0.5988405346870422
-0.10990376025438309 0.05945505201816559 -0.13496287167072296
1.1514737606048584 0.08291570842266083 -0.6194650530815125
1.1237903833389282 0.22687961161136627 0.8790627121925354
-1.1548177003860474 1.1103532314300537 0.9255965352058411
-0.4847218692302704 1.2054799795150757 0.6546762585639954
0.8059573769569397 0.8199290037155151 0.15353043377399445
-1.793546199798584 0.2719646990299225 -0.5698204040527344
-0.861294686794281 0.48001694679260254 -1.2312957048416138
2.8408379554748535 0.07169124484062195 -0.8415670394897461
1.5882810354232788 0.7673823833465576 0.6976075172424316
0.2799246311187744 -0.07702051103115082 -0.5521183609962463
-2.2565786838531494 0.24825319647789001 -0.25977542996406555
2.9324147701263428 -0.5135420560836792 -0.49501708149909973
1.0072731971740723 -0.026457369327545166 -0.28639328479766846
1.1878770589828491 -0.19779452681541443 -0.4797728955745697
1.331119418144226 0.64914870262146 0.03980967029929161
1.2368065118789673 -0.0646204799413681 0.7855845093727112
-0.4861449599266052 0.32190871238708496 0.8553539514541626
2.259859800338745 0.33124226331710815 0.7190377712249756
1.3711191415786743 -0.1655598133802414 1.197990894317627
1.7046594619750977 -0.3583311140537262 1.0248923301696777
-2.028970241546631 -0.31507712602615356 -0.0186745747923851
0.6978945136070251 -0.0465177446603775 0.6081264615058899
-0.7285680770874023 0.17667920887470245 -0.4947808086872101
2.4716434478759766 -0.3495027422904968 0.40578144788742065
1.3059495687484741 0.7770761847496033 0.01576346904039383
1.8957568407058716 0.557703971862793 0.31197670102119446
0.3177785277366638 0.5979128479957581 -0.7603208422660828
2.2836456298828125 0.7735720276832581 -0.38635116815567017
0.5043102502822876 0.5965350866317749 0.5745983123779297
-0.19204053282737732 0.038108497858047485 -0.9597185850143433
0.25036364793777466 0.5554394721984863 0.7427866458892822
1.1918708086013794 -0.04895403981208801 -0.38843509554862976
1.1250660419464111 -0.18822163343429565 -0.14084942638874054
1.7414051294326782 0.4488670825958252 1.0379844903945923
-0.2521442770957947 -0.4014355540275574 0.6036314964294434
-0.8660086989402771 0.6510801911354065 -0.028073042631149292
-1.345744013786316 -0.41357553005218506 0.5084185600280762
2.0065910816192627 -0.3323485851287842 0.9511108994483948
-0.9411113858222961 -0.02745094895362854 0.2994452118873596
0.7338664531707764 -0.06269116699695587 1.1796852350234985
1.396281123161316 0.3135310113430023 -0.09449249505996704
-1.343818187713623 1.2821550369262695 0.29286402463912964
1.7794033288955688 0.7818042039871216 0.20233061909675598
-0.3872506618499756 -0.38689517974853516 -0.03371761739253998
1.570195198059082 0.4146658182144165 -0.9148778319358826
0.16825556755065918 -0.19391611218452454 -0.030095353722572327
2.438903570175171 -0.07943275570869446 0.528091311454773
-0.8231137990951538 -0.43855684995651245 1.105729341506958
