ply
format ascii 1.0
element vertex 810
property float x
property float y
property float z
end_header
-0.17139911651611328 -0.34439077973365784 0.05186806619167328
-2.2181479930877686 -0.30904659628868103 -0.18457283079624176
-1.2299176454544067 -0.4965866208076477 -0.3002902567386627
-1.172866940498352 0.9605271816253662 -0.8873956799507141
-1.5711274147033691 -0.13042926788330078 0.7285385727882385
-0.650030791759491 1.0446528196334839 -0.6683650016784668
0.9806044101715088 0.29619428515434265 -0.41220977902412415
0.5147654414176941 0.047291457653045654 -1.010717511177063
-1.2753912210464478 -0.1502905786037445 0.4105561077594757
0.11892398446798325 -0.5317147374153137 0.14963845908641815
0.6348422765731812 0.6262308359146118 0.7240541577339172
-1.4439001083374023 0.4320192039012909 -0.3871338665485382
-1.2903447151184082 0.698124885559082 -0.07273751497268677
-0.7890003323554993 -0.45990630984306335 0.6845284700393677
-2.4362974166870117 0.6377922892570496 -0.2155379205942154
2.3629181385040283 0.33840513229370117 -0.3768317699432373
-1.3530699014663696 0.16021591424942017 1.246214747428894
-1.758949637413025 0.2992337644100189 -0.33599716424942017
-0.5070785880088806 -0.004092201590538025 0.5064051151275635
-1.853885531425476 0.2873895764350891 0.05950416997075081
2.282927989959717 -0.523565411567688 0.8978292346000671
-1.0259435176849365 -0.21895405650138855 -0.3712628185749054
0.34786200523376465 0.6196039319038391 -0.42409974336624146
-1.1058217287063599 -0.48391175270080566 0.4110037088394165
-0.26489436626434326 -0.3773365616798401 1.1771804094314575
1.1963772773742676 -0.4764351546764374 0.6095981597900391
-0.4470363259315491 0.8971428871154785 -0.32392507791519165
1.33101224899292 -0.46927860379219055 0.09074241667985916
1.5415043830871582 0.13835075497627258 -1.4199668169021606
1.50392746925354 -0.4821685254573822 0.3523535132408142
0.8478060364723206 -0.08958491683006287 0.11269562691450119
0.0925065279006958 0.6027026176452637 -0.4018588364124298
-0.9406347274780273 0.31336522102355957 -1.150449275970459
-0.5821180939674377 -0.3417903184890747 1.1403502225875854
-0.4354337453842163 0.5736827850341797 -0.4659653604030609
2.1280810832977295 0.4806399941444397 0.03316066414117813
0.8503261208534241 -0.512366533279419 -0.23412680625915527
0.013792671263217926 0.43720996379852295 -0.5314707159996033
0.9836540222167969 -0.46905362606048584 0.780852735042572
0.368336945772171 -0.3028276562690735 -1.3008360862731934
1.0824227333068848 -0.25478696823120117 0.42368751764297485
-0.011173952370882034 0.11120298504829407 0.24289481341838837
1.0989938974380493 0.265419602394104 0.7294862270355225
-0.7548543214797974 -0.1419484168291092 -1.3192470073699951
2.306063413619995 0.12781688570976257 -0.7035185098648071
-2.262178421020508 0.35189783573150635 -0.6361488103866577
0.8412929773330688 -0.49606209993362427 -0.16106896102428436
-2.212841033935547 0.04796241223812103 0.10417681932449341
1.6833715438842773 -0.03178933262825012 0.37810954451560974
0.3406255841255188 -0.5046801567077637 0.8680214285850525
-1.5324002504348755 -0.13721583783626556 0.6880651712417603
1.4140610694885254 0.5657983422279358 0.568289041519165
-0.9569885730743408 0.9895673990249634 -0.19679482281208038
1.3437496423721313 -0.038139015436172485 0.1980302929878235
0.35763314366340637 0.7988141775131226 0.07076754420995712
0.9073406457901001 0.2628139555454254 0.509760320186615
2.6785926818847656 0.42348358035087585 0.23066040873527527
1.2889561653137207 0.9314932227134705 -0.6144459247589111
0.6382647156715393 0.4160371422767639 -1.1875721216201782
-0.14719629287719727 -0.4964582026004791 0.5484458804130554
0.36272376775741577 -0.35132649540901184 -0.524795651435852
1.3461114168167114 -0.24688708782196045 -0.9311928153038025
-1.070945382118225 -0.2762390375137329 -0.2605922520160675
-0.6755656599998474 -0.2237544059753418 -0.05709652602672577
-0.8266043066978455 0.982142984867096 0.10924245417118073
1.9036566019058228 -0.4520312547683716 0.5250191688537598
-1.178410291671753 -0.3150789737701416 -0.794509768486023
-1.1422216892242432 -0.09395605325698853 0.7496907114982605
1.602724552154541 -0.4751706123352051 0.21503868699073792
1.2155734300613403 0.6247673034667969 0.5622000694274902
-0.1974998414516449 -0.4902263283729553 -0.810670793056488
2.322366237640381 0.47531795501708984 0.010273365303874016
0.9897154569625854 0.008832350373268127 -0.03712530806660652
0.7457861304283142 0.6121276021003723 -0.046469204127788544
1.7186654806137085 0.12494601309299469 0.29105448722839355
-1.3048311471939087 0.6344913840293884 0.20665684342384338
-1.049670696258545 0.02143433690071106 -0.15351137518882751
-1.804060459136963 0.7208043336868286 0.0741066038608551
1.8962639570236206 -0.1465073972940445 -0.0266437791287899
1.8659613132476807 -0.5075231194496155 0.2547605633735657
0.32734766602516174 0.24360185861587524 0.033380452543497086
0.5840567946434021 0.7731813192367554 1.7106120586395264
-1.0963361263275146 0.420727401971817 0.21690931916236877
-1.2607003450393677 0.39489537477493286 -0.5494602918624878
-1.002351999282837 0.5934931039810181 0.2350621372461319
-0.48676928877830505 -0.1366586983203888 1.0191733837127686
0.3173377215862274 -0.21682453155517578 -0.12204016000032425
-1.0167676210403442 -0.28469640016555786 -1.1425518989562988
0.8632634878158569 -0.02202378213405609 0.14042887091636658
0.2614594101905823 0.464704692363739 0.3310246765613556
1.1799081563949585 0.747075080871582 -0.1496826708316803
-0.5758183002471924 0.6661564111709595 0.3304738700389862
-1.35443115234375 -0.49499693512916565 -0.16358064115047455
2.22451114654541 -0.2603358030319214 0.5417228937149048
-1.048329472541809 -0.5933922529220581 0.9031118750572205
-1.104012131690979 0.49911636114120483 0.8570044040679932
0.48044553399086 -0.3011181354522705 -0.21241553127765656
-0.5168043375015259 0.3682866096496582 0.8325298428535461
-0.4650881588459015 0.9307975172996521 0.8216583132743835
-1.1350642442703247 -0.20390883088111877 0.0455489344894886
3.0301380157470703 0.267574280500412 0.9575369358062744
0.034512605518102646 -0.1896081268787384 0.2552143633365631
0.09321185201406479 -0.5143957734107971 0.5150244832038879
-2.157984733581543 0.2653018832206726 0.2197958081960678
0.7645581364631653 0.8481594324111938 0.4550640881061554
0.9732249975204468 0.01796695590019226 0.05636686086654663
2.713660955429077 -0.07023856043815613 0.3890582323074341
2.15047550201416 0.5528923273086548 0.26429417729377747
1.5210374593734741 0.15572144091129303 -0.13364024460315704
2.0566928386688232 -0.10931211709976196 0.25025948882102966
-0.7392264008522034 0.31424570083618164 0.2853837311267853
-1.3147722482681274 0.4282017946243286 -0.11596010625362396
-1.7490806579589844 0.19567401707172394 -0.9289038181304932
-0.14517280459403992 -0.3106583058834076 0.2452811300754547
-2.1245977878570557 0.6958856582641602 0.32786309719085693
-2.3020808696746826 0.29107463359832764 -0.6674306988716125
1.7582283020019531 0.5183985829353333 0.511025071144104
1.9445364475250244 -0.12189997732639313 0.3492319881916046
-0.9330922961235046 0.22114914655685425 0.4427945613861084
1.0294135808944702 0.5904606580734253 -0.08320891857147217
1.143099308013916 0.5475308895111084 0.8507021069526672
0.3813767433166504 -0.5092718005180359 0.7746670246124268
-0.6766771674156189 -0.4898843765258789 -0.4907943308353424
-1.1283159255981445 0.9416797161102295 0.250036358833313
0.08153976500034332 -0.27679526805877686 0.6669978499412537
-0.20432129502296448 0.5351223945617676 -0.6497460007667542
-0.619613528251648 0.2815786600112915 0.23152832686901093
1.0950134992599487 -0.4542463421821594 -0.672933042049408
-0.9723126292228699 -0.44444215297698975 -0.8866050243377686
0.8020058870315552 -0.4922647476196289 0.4888380765914917
-0.3699690103530884 -0.1642034649848938 0.5902441143989563
-1.835638403892517 -0.4321333169937134 0.5581212043762207
2.551685094833374 -0.30905258655548096 -0.4349111318588257
1.7147023677825928 0.3528215289115906 -0.292635053396225
0.1338980346918106 0.37368229031562805 0.5723264217376709
1.0433683395385742 -0.12985962629318237 -0.3852250576019287
-0.4251594543457031 -0.47926759719848633 0.5121612548828125
1.1418814659118652 -0.04758630692958832 0.6808786988258362
-0.7127847671508789 0.45763516426086426 -0.13345308601856232
-1.8283566236495972 0.5427250266075134 -1.070519208908081
0.09571173042058945 -0.1773165613412857 0.39975839853286743
0.4516538381576538 -0.35423630475997925 -1.2790377140045166
-0.21579307317733765 -0.0854322761297226 1.0717568397521973
-0.07639465481042862 -0.5348809957504272 -0.6389704346656799
1.9581727981567383 0.3989792466163635 0.13910670578479767
-2.3795433044433594 0.027181774377822876 -0.35876137018203735
0.9742200374603271 0.30198365449905396 -0.6352664232254028
-0.6507876515388489 0.12573200464248657 0.19743984937667847
-0.3341851532459259 -0.3116108775138855 0.8124613165855408
0.9487100839614868 0.42182669043540955 0.8624700307846069
2.727471351623535 0.22082075476646423 0.5118991732597351
-1.6938055753707886 -0.3981809616088867 -0.8500146269798279
-0.2127358317375183 0.09270374476909637 0.6310839653015137
-0.4104089140892029 0.9197210669517517 -0.48879536986351013
-0.1359543353319168 0.03807757794857025 -1.2077196836471558
1.1546980142593384 -0.4890548884868622 -0.1273544579744339
-0.024674467742443085 0.14460764825344086 -0.20962394773960114
0.3177572786808014 -0.18566659092903137 -0.25681760907173157
2.043485403060913 0.2628236413002014 -0.658004879951477
0.4236289858818054 0.44131994247436523 0.06522621214389801
0.6901952624320984 -0.49709272384643555 0.5570482611656189
-0.5549989342689514 -0.34226900339126587 -0.05557430535554886
2.8012940883636475 -0.32425302267074585 0.7425841093063354
0.6313855051994324 -0.47645795345306396 1.0012099742889404
-1.4473111629486084 0.4900253415107727 0.7785534858703613
-0.23710660636425018 0.0691831111907959 0.9903618097305298
0.07617196440696716 0.46374064683914185 -0.38864943385124207
1.9524633884429932 -0.2712818384170532 0.17289765179157257
1.4175750017166138 -0.4720156788825989 -0.540675938129425
-1.282379388809204 -0.23935271799564362 0.3208100199699402
1.818501353263855 -0.46845096349716187 -1.0326892137527466
-0.7045755386352539 -0.49795904755592346 0.6393952965736389
1.8232507705688477 -0.22495350241661072 0.5628076791763306
1.778186559677124 0.024885371327400208 -0.941642165184021
-0.3221828043460846 -0.1806219220161438 0.04200391098856926
1.0522280931472778 -0.4838539659976959 0.4729337990283966
0.5122920274734497 0.8610391616821289 -0.8995565176010132
1.2083001136779785 0.4270658493041992 0.873609721660614
-0.8565425276756287 -0.13692472875118256 -0.47929587960243225
-1.6967359781265259 0.21195818483829498 0.2175954282283783
-1.0354639291763306 0.8132827281951904 -0.36551669239997864
0.031073272228240967 -0.5030868649482727 -0.6977227926254272
0.34178316593170166 -0.5044408440589905 -0.2877967655658722
0.5273054838180542 -0.3010944724082947 0.47141143679618835
1.2925788164138794 0.06693972647190094 0.9807600975036621
2.392828941345215 -0.026311129331588745 0.16428159177303314
1.724474549293518 -0.13588814437389374 0.3276152014732361
0.13272450864315033 0.7035127878189087 0.5574216246604919
-0.30576372146606445 -0.2694254517555237 -0.14329643547534943
2.6159822940826416 -0.4244181215763092 -0.20327697694301605
-0.8298047184944153 -0.005029499530792236 -0.5686926245689392
1.5110546350479126 0.40150704979896545 -0.5196457505226135
1.050089955329895 0.6986523270606995 -0.389561265707016
1.9265410900115967 -0.5084512233734131 1.0175070762634277
-0.17174510657787323 0.17837843298912048 0.07786794006824493
-2.566594362258911 0.3739597797393799 -0.8343809843063354
0.2572612166404724 0.42410141229629517 -0.4434000253677368
-2.0037503242492676 0.15411634743213654 0.7043620944023132
-0.27136918902397156 -0.35134071111679077 -0.2643592953681946
0.13098540902137756 0.23483756184577942 -0.1821664571762085
-0.45178577303886414 -0.38463810086250305 1.1897552013397217
0.6710383296012878 0.5703961849212646 -0.14396141469478607
-0.548498272895813 -0.07770717144012451 -0.36873167753219604
-0.8753480911254883 0.7884771823883057 1.0910682678222656
-1.225048542022705 -0.19688352942466736 -1.1190698146820068
-1.0865952968597412 -0.48828721046447754 -0.4292721748352051
0.8397613167762756 -0.5579656958580017 0.11616668850183487
-0.466194212436676 -0.5098211169242859 -0.7671710252761841
1.2073452472686768 0.5195711851119995 0.2600512206554413
0.8500102162361145 0.4628104567527771 -0.3531664311885834
0.4064461290836334 -0.4994157552719116 0.5298241376876831
2.0960044860839844 -0.2730576992034912 -0.3645474314689636
-1.72791588306427 0.7609580755233765 0.7714055180549622
-0.753682553768158 -0.11180821061134338 0.2382151484489441
-1.1629990339279175 0.36301687359809875 -0.4677770435810089
1.6244419813156128 -0.1476459801197052 -0.8449200391769409
-2.009979486465454 0.07173684239387512 0.373301237821579
-0.21316133439540863 -0.5145191550254822 -0.5996821522712708
-0.8351635336875916 -0.49047964811325073 -0.44521304965019226
0.36814454197883606 -0.4796634912490845 0.2560204565525055
-1.2968857288360596 0.21004141867160797 0.18293356895446777
-0.9937604069709778 0.32175692915916443 -1.188878059387207
1.5271682739257812 -0.4601747691631317 -0.5532010793685913
1.468595027923584 0.09569346904754639 0.4044169783592224
-0.03971296176314354 0.5526935458183289 0.08980552852153778
1.7939858436584473 0.04637667536735535 0.431343138217926
0.8714746236801147 0.04230836033821106 1.0275236368179321
0.2769049406051636 0.97611004114151 0.060479968786239624
-0.8056948184967041 0.7457435131072998 0.7439068555831909
1.772673487663269 -0.4653959572315216 0.3948556184768677
-1.647515892982483 0.7141304016113281 -0.042462799698114395
1.96913480758667 0.22470003366470337 0.22376759350299835
-0.6375365257263184 -0.5229904055595398 0.4771616458892822
-0.08016325533390045 0.7414213418960571 0.08464894443750381
-0.05169270560145378 0.007546067237854004 -0.09289701282978058
-1.4000910520553589 -0.4801814556121826 0.07403776794672012
-0.2252759039402008 -0.0993150919675827 0.6390179991722107
-0.7010117173194885 0.5913784503936768 -0.23656065762043
-0.6414580941200256 0.8337603807449341 -0.6827346682548523
1.8959786891937256 0.15344831347465515 1.002208948135376
-0.03752465173602104 -0.32201313972473145 0.6610662937164307
-0.31070783734321594 -0.027631640434265137 1.2142887115478516
1.5733519792556763 -0.08374150097370148 0.6779316663742065
-0.23890364170074463 0.6289355754852295 0.23682443797588348
-0.19152802228927612 0.4509871006011963 -1.2252860069274902
-2.515052080154419 0.5795205235481262 -0.571000874042511
1.2717995643615723 0.2408912032842636 0.4214804768562317
-0.33237043023109436 0.45305848121643066 1.188469409942627
0.8527776002883911 0.7326884269714355 -0.9827887415885925
-1.1919695138931274 0.9121543169021606 0.23245549201965332
-0.13932795822620392 -0.025631338357925415 -0.3328550457954407
0.8015700578689575 -0.1415519267320633 -0.6502999663352966
-2.3349690437316895 0.06368973851203918 -0.34210678935050964
1.6688977479934692 0.16093167662620544 0.2174002230167389
1.8615020513534546 -0.44447800517082214 0.6874306797981262
-0.34948378801345825 -0.5176081657409668 -0.6817026734352112
1.9135487079620361 -0.3266593813896179 -0.8468124866485596
-0.8867782354354858 -0.48431238532066345 -0.7060372233390808
-1.5794962644577026 0.524034857749939 -0.15072602033615112
-1.1626994609832764 -0.14743249118328094 0.6494227647781372
1.1299803256988525 0.10171884298324585 -0.40110597014427185
-0.10927582532167435 -0.0124053955078125 -1.1765304803848267
-1.0902891159057617 0.5610082149505615 0.8661273717880249
2.175546169281006 -0.28755342960357666 0.4264272153377533
0.4399071931838989 -0.09564556181430817 -0.27849051356315613
0.6246975660324097 0.08457933366298676 1.1860301494598389
-1.234472632408142 -0.177963525056839 1.008332371711731
1.7054612636566162 -0.26001858711242676 0.048273537307977676
-0.660584568977356 -0.17129550874233246 -0.17395810782909393
1.1017118692398071 0.016018569469451904 -1.2362927198410034
2.0383265018463135 -0.11654244363307953 0.9743161201477051
0.4627789258956909 0.862372636795044 -1.0447536706924438
1.4090105295181274 -0.2996259331703186 -0.3814350366592407
0.04877351596951485 0.8291001319885254 -0.07546546310186386
-0.4885309338569641 -0.007515400648117065 -0.5952200293540955
1.3039098978042603 -0.09568971395492554 0.8760830760002136
1.8282899856567383 0.33525484800338745 -0.40593022108078003
0.8668270111083984 -0.07290980219841003 0.6486438512802124
0.05835557356476784 0.4144933521747589 -0.2278548628091812
-1.9013711214065552 0.9477686882019043 0.4271712601184845
1.5206539630889893 -0.36276185512542725 -1.1842176914215088
-1.446588397026062 -0.01727190613746643 0.16838112473487854
-1.9870904684066772 0.6842577457427979 -0.7827200889587402
-0.7362766265869141 -0.3232589662075043 1.1325366497039795
1.5318071842193604 -0.19425298273563385 0.1701258420944214
2.1149702072143555 -0.17797574400901794 0.647754967212677
-1.4904996156692505 -0.137895867228508 -0.9390938878059387
-0.8997981548309326 0.8521870374679565 -0.4260159730911255
2.3961341381073 -0.06975315511226654 0.4466913342475891
1.599208116531372 0.6431630253791809 0.5061638355255127
-0.10723918676376343 0.108258917927742 1.2026859521865845
-1.7234565019607544 -0.1627793312072754 0.4138951599597931
-0.4625578820705414 -0.023343652486801147 -1.0232242345809937
-0.7947874069213867 0.6193848848342896 -0.5239173769950867
1.7781563997268677 0.5525570511817932 -0.48292601108551025
0.13419581949710846 0.5897223949432373 -0.8429800271987915
-1.0533721446990967 0.14090126752853394 0.20285198092460632
-1.411332130432129 0.27360448241233826 0.22651366889476776
-2.159367322921753 0.643523097038269 -0.27689072489738464
0.2653767168521881 -0.49721458554267883 0.833064079284668
-0.037861648947000504 0.9486489295959473 -0.05363592505455017
-0.704355776309967 0.5066571235656738 0.9469459652900696
-0.8455831408500671 0.8624575138092041 -0.5718890428543091
-0.7663923501968384 0.7000080943107605 0.3205294609069824
1.644207239151001 0.04015438258647919 -0.37730568647384644
-0.365059494972229 -0.15614154934883118 0.4133263826370239
-1.4334993362426758 -0.16874800622463226 -0.6712449193000793
-1.7040092945098877 0.8536831140518188 0.20703540742397308
1.0486375093460083 -0.4840829372406006 0.34612753987312317
-0.5501939058303833 0.2623133063316345 -1.1123936176300049
-1.4197267293930054 0.10069127380847931 0.31974589824676514
-0.3808021545410156 0.022650480270385742 0.23588214814662933
-0.9338514804840088 0.2617592215538025 -0.2628740966320038
1.2225277423858643 0.26345276832580566 0.4314184784889221
-1.396356225013733 -0.4318053722381592 0.2629028260707855
-1.7848353385925293 0.27021753787994385 0.10712794959545135
-1.1462658643722534 0.5622138977050781 -1.1108077764511108
1.025179147720337 -0.29751265048980713 0.6242251992225647
3.504214286804199 -0.4736659526824951 0.6772405505180359
1.3820455074310303 0.6172464489936829 -0.5774944424629211
-2.413714647293091 0.5775532126426697 0.7659965753555298
-1.6025943756103516 0.7549511194229126 -0.3910859227180481
-0.5747492909431458 -0.46976786851882935 1.088370680809021
-2.338392972946167 0.31487226486206055 -0.1176227480173111
-0.5970622897148132 -0.5174167156219482 -0.2982465624809265
-0.2799156606197357 -0.5530744791030884 -0.7038201689720154
-0.20807571709156036 -0.291482150554657 -0.6573839783668518
1.1618024110794067 0.3460884690284729 -0.30604681372642517
-0.8533472418785095 -0.2769358158111572 -1.1741759777069092
0.2652146518230438 -0.420497864484787 -0.8629403710365295
-1.3530707359313965 -0.18266776204109192 -0.8676602244377136
0.589810848236084 0.10896819829940796 0.6210952401161194
2.096726417541504 0.19423812627792358 -0.2768896222114563
-0.933554470539093 0.6047651171684265 -1.1766753196716309
0.3324377238750458 -0.5043492317199707 -0.02324768528342247
-1.4040374755859375 0.4604870080947876 -0.7156281471252441
-1.2385550737380981 -0.4861355721950531 -0.8466022610664368
3.4224703311920166 0.01894836127758026 0.6128675937652588
0.562930703163147 -0.5082498788833618 -0.7487950921058655
-1.6910455226898193 -0.43310683965682983 -0.2054460495710373
1.2923102378845215 -0.17573364078998566 0.6377307176589966
0.47585809230804443 0.512721061706543 0.21161837875843048
1.6832009553909302 -0.48638826608657837 -0.525895893573761
-0.06787917017936707 0.23484909534454346 -0.15876911580562592
-0.27588313817977905 0.6618344187736511 0.19741329550743103
0.022675804793834686 0.21029815077781677 1.003387212753296
-0.8611359596252441 0.5273934602737427 0.696965217590332
2.1280300617218018 0.29027223587036133 -0.0013017557794228196
1.6354516744613647 0.5832256078720093 0.34984585642814636
-0.6882359981536865 0.4732806086540222 1.3025327920913696
2.415985345840454 -0.4081495404243469 -0.4185674786567688
2.4123916625976562 -0.2909514904022217 0.744221568107605
0.561954140663147 -0.12596510350704193 0.44801369309425354
1.9648306369781494 0.5615478157997131 -0.08995083719491959
0.47361820936203003 0.6241655349731445 0.9419307112693787
-1.2180933952331543 -0.49954503774642944 -0.5607427954673767
-0.33789893984794617 -0.010565876960754395 1.1906285285949707
-1.005721092224121 -0.40395092964172363 1.1489689350128174
1.60515296459198 0.6208242177963257 -0.047764819115400314
1.4198899269104004 0.09326738119125366 -0.8515799045562744
-1.1074910163879395 0.33014076948165894 0.9291254878044128
0.011763803660869598 -0.33664247393608093 -0.6695979237556458
-0.9632923007011414 0.4589630365371704 -0.6138540506362915
-0.8438825011253357 0.5965702533721924 0.7523409724235535
1.3393492698669434 -0.48706501722335815 0.16406331956386566
2.492426633834839 -0.12986701726913452 0.4435938894748688
-0.28291577100753784 -0.3086339235305786 0.7424556612968445
0.7134278416633606 -0.14168225228786469 -1.2774397134780884
-0.5290356278419495 0.27383744716644287 0.1255687028169632
1.2738622426986694 -0.49538367986679077 1.1243654489517212
-1.1167758703231812 0.5816258192062378 -1.1179991960525513
1.962906002998352 -0.22000037133693695 -0.7490591406822205
1.3869590759277344 0.4532708525657654 0.2542532682418823
3.0834426879882812 0.04503042995929718 -0.056252360343933105
1.3026134967803955 -0.49053025245666504 -0.2620967924594879
-1.3884673118591309 0.14980094134807587 -0.4966104030609131
-0.02012529969215393 0.017117127776145935 0.37211790680885315
-0.7496396899223328 -0.4875410497188568 0.12658601999282837
0.05314324051141739 0.9600414037704468 -0.6044044494628906
-0.40718182921409607 -0.18109433352947235 -0.019090857356786728
0.6819186210632324 -0.48202621936798096 -1.0475777387619019
1.0553046464920044 -0.46965187788009644 0.7549375891685486
-0.9862093329429626 0.67747962474823 0.21781733632087708
-1.763345718383789 0.5715417861938477 0.790058970451355
2.8276917934417725 0.18712976574897766 0.28734290599823
2.255248546600342 0.4807682931423187 0.24815119802951813
-0.5349376797676086 -0.16682492196559906 -0.23526987433433533
1.277642846107483 -0.21608911454677582 0.005211507901549339
1.9011105298995972 -0.5215597748756409 -0.0701037347316742
0.276373952627182 -0.5861153602600098 0.23560301959514618
-0.2604164183139801 0.7160353064537048 0.31807607412338257
1.2796480655670166 -0.49329254031181335 0.2520451545715332
0.5623354911804199 -0.21591627597808838 -0.10603538900613785
-1.5068037509918213 -0.43371087312698364 -0.661884605884552
0.672112226486206 0.8043528199195862 -0.38643819093704224
-0.32749462127685547 0.8524357676506042 0.28527724742889404
-0.38805586099624634 0.10822188854217529 -0.2408926784992218
1.4814672470092773 -0.3110685348510742 1.1918022632598877
-1.091256022453308 -0.2124309539794922 -0.09679701924324036
1.870600938796997 0.14211954176425934 0.5919446349143982
2.592700719833374 0.03254787623882294 0.5125520825386047
-0.13535183668136597 0.5515353679656982 -0.658643901348114
0.0649249479174614 0.008782774209976196 -0.7289485931396484
1.2718626260757446 -0.2826710343360901 -0.3322773277759552
0.7604753971099854 0.14743781089782715 -0.6534900069236755
1.3614387512207031 0.46676105260849 0.2432214468717575
-0.5050863027572632 -0.5235259532928467 0.169885516166687
0.5647364854812622 -0.49722641706466675 -0.4862419068813324
-0.7623957991600037 -0.19298885762691498 -0.44200003147125244
-0.24121922254562378 -0.16983380913734436 0.6070093512535095
-0.8344824910163879 0.02467861771583557 0.5490314364433289
1.0751478672027588 -0.34255361557006836 -0.24898222088813782
-1.4717628955841064 -0.46611469984054565 0.2766195833683014
0.9723396301269531 -0.3121945261955261 0.5582305192947388
-0.6123293042182922 0.6116468906402588 -0.16344337165355682
0.6207700967788696 0.503077507019043 -0.7884363532066345
-0.8441547751426697 0.09400926530361176 -0.6863663196563721
0.080747589468956 -0.4211393892765045 -1.2634587287902832
-0.30390414595603943 0.8955128788948059 0.17332406342029572
0.4743046760559082 0.22105519473552704 0.5616106390953064
-1.0059939622879028 -0.20194700360298157 0.55384761095047
-0.6524802446365356 0.5955753326416016 -0.18303881585597992
-0.05858767777681351 0.5522184371948242 0.9586947560310364
1.997289776802063 -0.17520016431808472 0.48082032799720764
0.08610823005437851 0.8089416027069092 -0.40349066257476807
0.015600182116031647 0.9693887233734131 -0.054915785789489746
-0.14685854315757751 -0.31546932458877563 0.6154645681381226
0.5742650628089905 0.4436718821525574 0.038695648312568665
-2.4521806240081787 0.4519912004470825 -0.24324046075344086
1.707699179649353 0.03188629448413849 -0.5540908575057983
2.0593340396881104 -0.07214319705963135 0.5119783282279968
0.8425382375717163 -0.5143191814422607 0.38977089524269104
0.9907828569412231 -0.03467981517314911 0.3557550311088562
1.0928106307983398 -0.1399311125278473 0.008471764624118805
-0.5300180315971375 0.9513956904411316 0.14556798338890076
1.9098371267318726 -0.4135388731956482 -0.9198719263076782
1.2471532821655273 0.39045363664627075 0.25532180070877075
0.2601741850376129 0.7566854357719421 -0.14336876571178436
1.8932340145111084 0.05689924955368042 -0.017733242362737656
0.45636871457099915 -0.13278354704380035 -1.199356198310852
1.2486335039138794 -0.12838715314865112 -0.35920801758766174
2.1029043197631836 0.07651807367801666 -0.39648938179016113
1.2088054418563843 0.4611089825630188 -0.051002077758312225
2.4320735931396484 -0.003430679440498352 0.42717787623405457
0.4261222779750824 -0.1530132293701172 0.31278666853904724
-0.6361278295516968 -0.5025169253349304 -0.21836459636688232
-0.9332846403121948 0.7582532167434692 1.0843466520309448
1.4096730947494507 -0.28669339418411255 -0.441081166267395
-0.6208832859992981 0.9775433540344238 0.407868891954422
2.792229175567627 0.3471043109893799 0.7620599865913391
-1.4290173053741455 0.5718972682952881 -0.41841357946395874
-0.08970717340707779 0.7145745754241943 -0.30192744731903076
1.0086472034454346 -0.11788378655910492 -0.9683502316474915
-0.724993109703064 -0.49780628085136414 -0.13860967755317688
0.357097864151001 -0.5046340823173523 -0.744485080242157
-0.47004881501197815 -0.25557804107666016 -0.1726832240819931
0.36199891567230225 -0.5076509118080139 -0.07589218765497208
1.6897788047790527 -0.43532538414001465 -0.5750030875205994
2.0295779705047607 0.06751063466072083 0.13186265528202057
0.027935691177845 -0.06340622901916504 0.002557390835136175
0.7997556924819946 -0.014009878039360046 -0.14101682603359222
-2.288364887237549 0.5551737546920776 0.8909300565719604
-0.8886727690696716 0.0166919082403183 1.198288917541504
1.6256247758865356 0.425489604473114 0.2345036119222641
2.6829349994659424 -0.07641766965389252 -0.3047592043876648
-1.5768333673477173 0.03920586407184601 -0.9165878891944885
0.22876472771167755 0.3932173550128937 0.9969549179077148
1.281923532485962 0.32348930835723877 1.2265831232070923
0.5255725383758545 0.06643036007881165 1.0466612577438354
0.22523412108421326 -0.5179552435874939 -0.7447308301925659
2.3393523693084717 -0.05594818294048309 0.030561106279492378
1.8768874406814575 0.1474657952785492 1.2448798418045044
2.362119436264038 -0.16738367080688477 1.1336702108383179
0.9642072916030884 -0.4874899983406067 0.40107840299606323
0.33307936787605286 0.4915703535079956 -0.19614985585212708
1.7943792343139648 -0.49694758653640747 -0.05306734889745712
0.9928524494171143 -0.4794709384441376 0.7159984707832336
0.17083048820495605 0.46411263942718506 -0.4177466332912445
-0.09072105586528778 0.9868982434272766 -0.2848236858844757
-2.0564491748809814 0.7232349514961243 0.02962445095181465
-0.4294363856315613 0.3075982332229614 0.6238770484924316
0.4896458387374878 -0.16182012856006622 -0.15735822916030884
-1.8185327053070068 -0.4275837540626526 -1.071156620979309
-0.09085279703140259 -0.5051587820053101 0.8732126951217651
0.109319768846035 1.003943681716919 0.3941740393638611
-2.0730202198028564 0.8071550130844116 -0.34412315487861633
-1.309541940689087 0.6320556998252869 0.16180454194545746
1.4557061195373535 -0.14953473210334778 -0.36257314682006836
-1.9260348081588745 -0.35672837495803833 0.8098286390304565
-1.7275294065475464 0.19683188199996948 0.4300784170627594
-1.660644292831421 -0.05754964053630829 -0.0999424085021019
-1.5461715459823608 -0.28214842081069946 0.016298236325383186
-1.2320767641067505 0.8830156922340393 -0.2734786868095398
0.33244821429252625 0.17430174350738525 -1.0127516984939575
1.5723925828933716 -0.07350234687328339 -1.0556330680847168
-1.0488471984863281 0.23107929527759552 0.8396514654159546
1.5285398960113525 -0.011275365948677063 0.03235914558172226
2.1271796226501465 0.20478834211826324 0.8033642768859863
1.8199509382247925 0.15844419598579407 -0.6931817531585693
2.4246740341186523 -0.23426254093647003 0.406792551279068
1.6343684196472168 -0.3612213730812073 -1.2214727401733398
1.7335851192474365 -0.4278075098991394 -1.091975212097168
0.2947894334793091 -0.2671056091785431 -0.3199257254600525
1.1849644184112549 0.10999093949794769 0.6101952195167542
0.25336170196533203 -0.5033085346221924 1.126024842262268
-1.6509809494018555 0.4072341322898865 0.6994160413742065
3.0503616333007812 0.03338785469532013 0.4628744125366211
1.4346823692321777 0.5938257575035095 0.8158582448959351
-1.034347653388977 0.6304683685302734 0.7890732884407043
-3.004810094833374 0.4353586435317993 -0.7326197624206543
0.4841890037059784 -0.4890229105949402 -0.37004905939102173
2.264301300048828 -0.41446807980537415 -0.31599971652030945
2.0221385955810547 0.33706480264663696 0.5209040641784668
2.3955509662628174 -0.4445423483848572 -0.14909781515598297
1.1809728145599365 0.568702220916748 0.27244269847869873
1.1121089458465576 -0.4755026698112488 0.1436309963464737
1.5247485637664795 0.0532008558511734 -0.7614054679870605
0.842578649520874 -0.2852060794830322 -1.3411400318145752
-0.335613489151001 0.49299710988998413 -0.5235281586647034
-1.2017130851745605 -0.49721020460128784 -0.46482253074645996
2.093156576156616 0.4060021936893463 -0.3526635468006134
-0.7238438129425049 -0.5890833139419556 -0.22670994699001312
0.39096519351005554 -0.1836419254541397 1.1700547933578491
2.1344778537750244 0.1781848967075348 0.2180035412311554
1.9279677867889404 0.2584038972854614 -0.04647167772054672
1.423061728477478 -0.31762921810150146 -0.6194657683372498
-0.10196936875581741 -0.4493824541568756 -1.2526867389678955
2.255072832107544 -0.5001097917556763 0.48906809091567993
-1.0705024003982544 -0.11745388805866241 0.8648940324783325
-0.3940536379814148 0.9547817707061768 -0.3519541919231415
-0.3908918797969818 0.11226959526538849 -0.046583011746406555
-0.4245450496673584 -0.14088505506515503 -1.0301209688186646
1.331957459449768 0.12142416834831238 0.6418586373329163
-1.6500881910324097 0.0381084680557251 1.001909852027893
1.6677758693695068 -0.18954917788505554 0.2494315505027771
0.8831171989440918 0.5086067318916321 -0.7926732301712036
0.014713495969772339 -0.5534238219261169 -0.31923559308052063
-0.07648009806871414 -0.5226880311965942 -0.5838453769683838
-0.4110126197338104 -0.5074527263641357 0.06363941729068756
-1.1168327331542969 0.7300981879234314 0.8817726373672485
-1.1986815929412842 0.03720247745513916 -1.1581450700759888
0.6082668900489807 0.43522748351097107 0.015630584210157394
-1.444120168685913 -0.005921944975852966 -0.4259452819824219
1.8339616060256958 -0.4358440041542053 -1.4760496616363525
1.0447301864624023 0.20822499692440033 0.08733475208282471
1.485135555267334 -0.08515109121799469 -0.975757360458374
1.901850700378418 -0.05098135769367218 -0.5652793049812317
2.308506488800049 0.3807787001132965 -0.9911954402923584
0.8955129384994507 0.3723662495613098 -0.5147243738174438
2.0385799407958984 0.34862571954727173 -0.2927590012550354
1.395379900932312 0.09843015670776367 0.3458309471607208
2.0951321125030518 0.025686219334602356 0.8570724129676819
-0.43100643157958984 0.7042875289916992 -0.6426219344139099
1.734960913658142 0.16819480061531067 0.22366702556610107
0.4522101879119873 -0.47371429204940796 0.8771152496337891
0.31593960523605347 0.9136253595352173 -0.6769426465034485
0.6989461183547974 0.40079763531684875 0.5375380516052246
1.478867769241333 -0.44195955991744995 -1.1501706838607788
1.8179925680160522 -0.11463972926139832 0.7907509207725525
1.0601239204406738 0.3544033467769623 0.7336242198944092
2.4254326820373535 0.10388706624507904 -0.45412930846214294
-0.031141676008701324 0.2226516604423523 0.0678115114569664
-1.7982580661773682 0.4188810884952545 0.3902246654033661
-1.771050214767456 0.19679251313209534 -0.8181722164154053
0.35349029302597046 0.4893978238105774 0.22708848118782043
2.5302088260650635 -0.025518864393234253 0.18619541823863983
-1.2156935930252075 -0.1844850480556488 0.21744926273822784
0.3741407096385956 0.4488142132759094 0.07890990376472473
0.7890852689743042 0.14455340802669525 0.43278953433036804
-0.046082377433776855 -0.2509831190109253 -0.00036655180156230927
0.13038486242294312 0.6321240067481995 0.551239550113678
0.2504328787326813 -0.19565875828266144 0.5335385203361511
-0.7871508002281189 0.35965728759765625 0.406320720911026
1.5262197256088257 0.32678118348121643 0.6845968961715698
-0.26517927646636963 -0.16556690633296967 -0.12207943201065063
1.9849656820297241 -0.48102492094039917 0.4436400830745697
-1.0008950233459473 -0.2761889696121216 -0.05147562921047211
0.4754340946674347 -0.5151429176330566 0.4727220833301544
-1.8661799430847168 -0.3887122571468353 -0.351423442363739
1.2048789262771606 0.06355176866054535 -1.064739465713501
0.7744313478469849 -0.4938601851463318 0.41580116748809814
0.14881302416324615 -0.5013650059700012 0.3743811547756195
0.7757123112678528 -0.027888208627700806 -0.28833556175231934
-1.5185956954956055 -0.28699684143066406 1.197307825088501
-0.16515685617923737 -0.3450511693954468 -0.12461751699447632
0.5796117186546326 0.4445536732673645 -1.257178783416748
-1.0166305303573608 0.8170633316040039 -0.28016847372055054
1.7944269180297852 0.47054216265678406 -0.32650768756866455
0.0737999752163887 0.03954029083251953 0.6885736584663391
0.786220908164978 0.458454966545105 1.3046029806137085
0.13480713963508606 0.6178244352340698 -0.11467399448156357
1.8858174085617065 -0.15888145565986633 0.03025027923285961
-0.3470028042793274 -0.0024603605270385742 1.227586269378662
0.3641596734523773 -0.20147716999053955 0.21085281670093536
2.5016260147094727 -0.1611335724592209 -0.07959769666194916
1.4749712944030762 -0.03121858835220337 0.4540040194988251
-0.7822614312171936 -0.3269781470298767 -0.3236854076385498
-2.6798057556152344 -0.276336669921875 -1.0962969064712524
3.5571305751800537 -0.18184363842010498 0.16946962475776672
1.5916389226913452 0.10996793210506439 -0.30658987164497375
0.0633808895945549 0.6723724007606506 0.8953788876533508
1.626357078552246 -0.4032689332962036 -0.917286217212677
-1.7623486518859863 0.39030423760414124 -0.7228363156318665
0.009966056793928146 0.061042532324790955 0.26012521982192993
1.0672693252563477 0.050458118319511414 -1.023512601852417
-1.7132539749145508 -0.1145501434803009 0.057313378900289536
-0.6267513036727905 0.219096839427948 -1.0990619659423828
-0.9487942457199097 -0.15380796790122986 0.9571019411087036
1.9721877574920654 -0.12466035783290863 1.1855524778366089
2.3344390392303467 0.49438929557800293 -0.18101903796195984
-0.9590737223625183 -0.23317627608776093 -0.1776275634765625
-1.4127689599990845 0.659298300743103 -0.7143340706825256
-0.3257136046886444 0.35744839906692505 0.8614866733551025
-1.2433035373687744 0.8637180924415588 -0.45554664731025696
1.296763300895691 0.2322710156440735 0.7882752418518066
-1.7238069772720337 0.6122679710388184 -0.08575909584760666
0.1904079020023346 -0.3505295217037201 -0.6339505910873413
1.6990067958831787 -0.5309774279594421 -0.7263553142547607
-0.3579530715942383 0.024333983659744263 -0.23499779403209686
0.05813198536634445 -0.517333984375 -0.2821871042251587
-0.4018213748931885 0.2355044186115265 -0.3832310140132904
-0.8131242990493774 0.037015557289123535 0.8643090128898621
0.35933917760849 0.18234005570411682 -0.6891080737113953
1.105481505393982 -0.2818564176559448 -0.5621528029441833
1.895703911781311 -0.41903507709503174 1.1514508724212646
1.639646053314209 -0.45471176505088806 1.208176612854004
2.2647721767425537 -0.15625175833702087 0.971838116645813
1.2520636320114136 -0.5811425447463989 0.46326613426208496
1.5327540636062622 -0.11110666394233704 -0.699209988117218
2.00373911857605 -0.25554388761520386 1.1009858846664429
2.2614905834198 0.008272454142570496 -0.3473196029663086
1.258810043334961 0.19592876732349396 -0.578910768032074
0.5301812291145325 0.8985906839370728 -0.5682123899459839
-0.14830529689788818 0.05716291069984436 -1.213956594467163
-1.9091912508010864 -0.42065542936325073 0.11989232897758484
-2.191380262374878 0.8357057571411133 0.11460724472999573
-1.4482349157333374 -0.15992827713489532 -0.32563528418540955
-0.9086036682128906 -0.33309847116470337 0.22204947471618652
0.24295549094676971 -0.052429646253585815 0.8265031576156616
-1.0078450441360474 0.6457357406616211 -0.17088206112384796
0.576919674873352 -0.5137414932250977 0.047665346413850784
3.07585072517395 -0.3617759346961975 -0.5427170395851135
2.243885040283203 -0.2084875851869583 -0.37812021374702454
0.7420631647109985 -0.53903728723526 -0.8409727811813354
-2.1438465118408203 0.6750746369361877 -1.002357840538025
0.19268295168876648 0.13460737466812134 0.17197947204113007
-1.7676421403884888 0.33542966842651367 -0.4473821222782135
1.348095417022705 0.16265523433685303 -1.0963150262832642
-1.2675549983978271 0.9045151472091675 0.22410191595554352
-0.25340721011161804 -0.004740923643112183 -0.0018822827842086554
0.0819343775510788 0.39876800775527954 -0.046874165534973145
1.2148112058639526 0.6590309143066406 -0.8418739438056946
0.5525984168052673 0.9405121803283691 0.23342783749103546
-0.08933044970035553 -0.46701735258102417 -1.2491523027420044
1.244928002357483 0.12485866248607635 -0.7045421004295349
1.0658655166625977 0.2985581159591675 0.5279589295387268
0.6973632574081421 0.59522944688797 -0.2639124393463135
-1.0291762351989746 -0.2200791835784912 0.5401229858398438
1.453481674194336 -0.47480496764183044 -0.7783398628234863
1.0434118509292603 0.10633249580860138 -1.2558386325836182
0.7472445368766785 0.31120216846466064 0.21066153049468994
-0.7856014370918274 0.42217394709587097 -1.2225548028945923
1.5406763553619385 0.03744968771934509 -0.34413859248161316
0.685745358467102 0.5547533631324768 1.1450186967849731
-0.5321630835533142 -0.5063132047653198 0.08409194648265839
0.5134882926940918 -0.5039008855819702 -0.18593604862689972
-1.3787623643875122 -0.4053785800933838 -0.48240888118743896
1.7408580780029297 0.5294561386108398 -0.8606797456741333
1.5551843643188477 -0.014810293912887573 0.5997820496559143
0.8853330612182617 0.7552323341369629 -0.5972145199775696
-0.5673912167549133 -0.41601890325546265 1.0389937162399292
-1.348722219467163 -0.504359245300293 -0.05977977067232132
-0.9295253157615662 -0.4111109972000122 -0.6847654581069946
1.1329677104949951 -0.4904937744140625 0.5590950846672058
-0.8412091732025146 -0.5070806741714478 0.053367145359516144
0.30802953243255615 0.9620964527130127 -0.23719964921474457
1.1922181844711304 -0.1759900450706482 -0.1273707151412964
-0.3793025314807892 -0.5011933445930481 -0.687107503414154
1.6609141826629639 0.24803239107131958 -0.7892941236495972
1.788040280342102 0.4487881362438202 1.1120837926864624
1.2610747814178467 0.02143046259880066 1.0779016017913818
0.18205660581588745 -0.498757004737854 0.45358046889305115
1.0430610179901123 0.2942153811454773 1.2120327949523926
2.2488842010498047 0.24792511761188507 -0.6601561307907104
-1.2550017833709717 0.3174036741256714 0.45558059215545654
0.7832645773887634 -0.1335231512784958 -0.2624601721763611
1.4881325960159302 -0.027364954352378845 0.5945418477058411
-1.4328795671463013 -0.4921085834503174 -0.5439806580543518
1.9567875862121582 -0.5064665675163269 0.1295681595802307
2.0359365940093994 -0.5215426087379456 0.32590100169181824
-1.6124310493469238 -0.4535377621650696 0.10584747046232224
0.8437854051589966 0.2214769870042801 -1.2572251558303833
1.1874641180038452 0.3113643527030945 -0.03394441306591034
-0.48615145683288574 0.07866571843624115 -0.5863781571388245
-0.8997869491577148 -0.06951898336410522 1.1707892417907715
-1.8400417566299438 -0.12594927847385406 -0.35444459319114685
-0.9169781804084778 -0.5102008581161499 -0.05770331621170044
-1.0786175727844238 0.5216470956802368 1.015434980392456
1.593247890472412 -0.23686666786670685 -0.18366652727127075
0.19802024960517883 0.23796400427818298 0.8231846690177917
1.7886884212493896 0.5058894157409668 0.6035848259925842
-0.32413721084594727 0.9401467442512512 0.2499680519104004
-1.8506449460983276 0.19857436418533325 -0.400369256734848
0.9481649398803711 0.12336188554763794 0.037089262157678604
1.4807231426239014 0.07617925107479095 -0.4057588577270508
0.5409638285636902 -0.29008686542510986 0.6377308964729309
-0.8255760073661804 0.961873471736908 0.6055776476860046
1.360227108001709 -0.33328860998153687 -1.2422733306884766
2.269106149673462 0.25916779041290283 0.45980608463287354
1.031995415687561 0.5674906969070435 -0.7878223061561584
1.581586241722107 -0.3102334141731262 0.12988005578517914
-1.119775652885437 0.3069687783718109 -0.762093186378479
-0.4542800486087799 0.5886470079421997 -1.2081115245819092
-0.21202149987220764 0.47320830821990967 -0.13301333785057068
1.566990613937378 -0.48944517970085144 -0.2945265769958496
0.2447563111782074 0.8473373651504517 0.9317488074302673
-0.9451188445091248 0.9393612146377563 -0.002471785992383957
-1.6057292222976685 -0.48937368392944336 1.063015341758728
0.44683539867401123 -0.2590872645378113 -0.6005194783210754
1.2369247674942017 -0.48762229084968567 -1.2969279289245605
-1.1175177097320557 0.42479538917541504 1.2504985332489014
-1.1783123016357422 0.4878144860267639 -0.6380493640899658
-0.1388528048992157 0.20426663756370544 -0.09484092891216278
0.3565678000450134 0.688757061958313 -0.4895520508289337
-0.7744981646537781 -0.48996737599372864 -0.5347021818161011
0.2842223346233368 -0.33210307359695435 -0.9831110835075378
1.7285572290420532 -0.09020417928695679 0.47427651286125183
2.6198644638061523 -0.24724020063877106 -0.49728843569755554
-1.9561883211135864 -0.04819279909133911 -0.5460723638534546
1.3698382377624512 -0.4711964428424835 -0.10719875246286392
-0.506269097328186 -0.23719774186611176 -0.9384968876838684
-0.6981335878372192 0.21583282947540283 0.2849094867706299
-0.7831546068191528 -0.017234131693840027 -0.21612860262393951
1.6196417808532715 -0.4316708743572235 1.236109733581543
0.08159193396568298 -0.5114668011665344 0.0833689421415329
1.678495168685913 -0.05748854577541351 -0.030004698783159256
1.9156097173690796 -0.03815847635269165 -0.02842569723725319
1.578678011894226 -0.48303884267807007 0.05936989560723305
-0.3960682153701782 -0.5270520448684692 -0.06375310570001602
-0.673427164554596 -0.4738798439502716 1.2385939359664917
0.40014466643333435 0.3487284779548645 -0.6954376697540283
0.6684315800666809 0.10782283544540405 0.5880971550941467
-0.7266343235969543 0.20225882530212402 -0.5836529731750488
1.4130109548568726 0.3373081386089325 -0.763776421546936
2.0818588733673096 0.08163248002529144 0.347819983959198
0.25016409158706665 -0.5044412016868591 0.2709924578666687
1.4509528875350952 0.12338435649871826 0.7698831558227539
-0.49313855171203613 -0.511543869972229 -0.25981125235557556
-0.9191259145736694 -0.017058148980140686 -0.06409863382577896
0.10048341751098633 -0.4843887388706207 -1.2135785818099976
-1.4404000043869019 -0.028116241097450256 1.2154641151428223
-1.5731741189956665 0.4045253396034241 0.6216429471969604
-1.252676248550415 -0.4966747760772705 0.5025879144668579
-2.0535826683044434 -0.39165204763412476 -0.25786054134368896
1.0968509912490845 0.40695634484291077 0.7407070994377136
-1.913386583328247 -0.09161177277565002 -0.6151965260505676
-0.6993535161018372 -0.5203238725662231 -0.451803058385849
0.9560372233390808 0.1775168925523758 0.03607981652021408
1.125030755996704 -0.47933411598205566 0.9005963802337646
-2.47222900390625 0.6484872698783875 0.6243193745613098
1.0704642534255981 0.41444605588912964 0.34783461689949036
-0.7054058313369751 0.5016825795173645 0.9023606181144714
-1.034607172012329 0.08406180143356323 -0.0059651779010891914
0.22953055799007416 0.2233095020055771 -0.7731715440750122
-1.6828079223632812 0.4639280140399933 0.346269816160202
0.7772456407546997 0.5982632637023926 -0.10539533942937851
-2.443720817565918 -0.15443643927574158 -0.25202733278274536
0.3704007863998413 -0.03132303059101105 -1.254119634628296
2.720391035079956 -0.44421786069869995 -0.002407919615507126
1.1704317331314087 -0.2182769775390625 -0.5571252107620239
0.35294756293296814 -0.2379494309425354 -0.21681486070156097
1.3086005449295044 -0.5557438135147095 0.07883228361606598
2.14204478263855 0.3301413655281067 0.017236463725566864
1.3619946241378784 0.4386017322540283 0.11075128614902496
1.7499451637268066 -0.49685031175613403 -0.43655702471733093
1.6812846660614014 -0.47895893454551697 -0.0073771849274635315
-1.8720486164093018 0.094688281416893 0.3473345935344696
-1.4627535343170166 0.652719259262085 -0.03473367169499397
-0.9137236475944519 0.20153801143169403 0.48092570900917053
1.2137049436569214 0.12117330729961395 -0.3743983209133148
2.2309041023254395 0.0647602379322052 0.40251868963241577
-1.7693123817443848 -0.09530617296695709 0.8381621241569519
2.2859039306640625 -0.2925899624824524 -0.6329625248908997
-0.811248242855072 0.75652015209198 0.869749128818512
-1.2609716653823853 0.1340773105621338 0.04850976914167404
-1.2620805501937866 -0.025539860129356384 0.9848954081535339
-1.6362099647521973 -0.46294352412223816 -0.16882891952991486
1.2723528146743774 0.5941435098648071 -0.021086454391479492
-1.026097059249878 0.06407701969146729 1.1954050064086914
-2.612067461013794 -0.28509199619293213 0.38157206773757935
3.108586311340332 -0.4393749535083771 -0.6593973636627197
-0.5785161256790161 -0.25082629919052124 0.43872126936912537
1.94844388961792 -0.1704186201095581 -0.5482627749443054
-0.2077704668045044 -0.51518714427948 0.5943678021430969
-1.7427217960357666 0.14071246981620789 0.8826915621757507
0.6291207671165466 0.47693678736686707 0.5242725014686584
-0.7603417634963989 -0.49841567873954773 0.2545293867588043
0.7928476333618164 0.26048800349235535 -0.8411077857017517
-0.47082799673080444 -0.4487743079662323 0.8289355635643005
0.1744682788848877 0.1642715036869049 0.6959078907966614
1.6553072929382324 -0.09219248592853546 0.3461199402809143
-1.8068046569824219 -0.4230581223964691 0.3300457298755646
-0.07061386108398438 -0.4767276644706726 -1.1924848556518555
1.973997712135315 -0.10055743157863617 -0.25872403383255005
-1.1712889671325684 0.7451838254928589 1.1906840801239014
1.6856223344802856 -0.0051530152559280396 0.40547975897789
0.5558463931083679 -0.5007197856903076 0.2914377748966217
1.0787616968154907 -0.20794036984443665 0.8842107653617859
-1.5798006057739258 0.5107322931289673 0.35987094044685364
-0.520509660243988 -0.4905964732170105 1.039828896522522
