ply
format ascii 1.0
element vertex 811
property float x
property float y
property float z
end_header
0.09400509297847748 -0.07464779913425446 -1.7254657745361328
-1.0920878648757935 0.3720024824142456 0.22227777540683746
-0.4234931468963623 -0.015840783715248108 -0.24424836039543152
-0.8608331680297852 -0.47124260663986206 -0.17635466158390045
-1.1052742004394531 0.6607656478881836 -0.19379395246505737
2.0103156566619873 -0.3579133450984955 0.16876564919948578
-1.6682932376861572 0.8570652008056641 -1.300765872001648
1.3382757902145386 0.1479341685771942 -0.8075348734855652
0.419112890958786 -0.24536024034023285 1.3469433784484863
-0.599688708782196 0.4870702922344208 0.6264070272445679
-0.8827579617500305 0.17091040313243866 1.1815476417541504
0.813051164150238 0.5123246908187866 -0.3755618631839752
0.5936469435691833 1.1350791454315186 -0.380991667509079
-0.5550446510314941 0.4370216131210327 0.500184178352356
-1.0305312871932983 -0.4533615708351135 0.3548215627670288
-1.5821900367736816 0.33404669165611267 0.15288490056991577
-1.053739070892334 0.05129678547382355 0.5268141627311707
-0.8238371014595032 0.430266410112381 1.3195886611938477
0.775390625 0.07528425753116608 0.6715418100357056
-1.4919421672821045 -0.07609835267066956 0.5826593637466431
-1.4366519451141357 0.44327110052108765 -0.28903037309646606
-0.7990559339523315 0.9781090617179871 0.11118657141923904
-1.345698356628418 0.5225117206573486 0.6255781054496765
0.9684349298477173 0.26692888140678406 1.3145160675048828
1.3811767101287842 -0.076345294713974 -1.396945595741272
-0.635377049446106 1.1011906862258911 -0.2736945152282715
-1.5897456407546997 0.4108566641807556 0.12051349133253098
-1.7177412509918213 -0.4422462582588196 0.5505285859107971
-0.5798047780990601 0.6919878125190735 -1.1350551843643188
-1.8593385219573975 0.0291774719953537 -0.9016311764717102
-1.3707585334777832 -0.46353012323379517 -0.5321522951126099
-0.5727375149726868 0.1837480515241623 0.5599782466888428
-1.2368637323379517 -0.03649866580963135 -0.6466822028160095
2.2167155742645264 -0.5133166909217834 0.8039224147796631
-0.08524171262979507 1.0696961879730225 0.2282630354166031
0.6524284482002258 1.0105245113372803 0.5824829936027527
1.2405190467834473 -0.08384944498538971 0.3998826742172241
-1.4694465398788452 -0.3269442319869995 0.36958175897598267
-0.7888277769088745 0.9870166182518005 -1.1048234701156616
-0.39111071825027466 -0.46092599630355835 -0.8340914845466614
-0.6347426772117615 -0.6120367050170898 1.3078968524932861
1.3492498397827148 0.3051118850708008 0.2754514515399933
2.217454195022583 0.4286281168460846 0.5121469497680664
-0.8049831986427307 0.16722671687602997 0.5921752452850342
-0.7763265371322632 0.5198870897293091 0.6919031739234924
-1.6005940437316895 0.3207225799560547 -1.0840318202972412
-0.8124101161956787 0.18008321523666382 -0.9881907105445862
1.20552659034729 -0.44255128502845764 0.5355907678604126
2.24680233001709 0.00849856436252594 0.022437680512666702
0.5732277631759644 0.7330504059791565 -0.7594889402389526
1.9348236322402954 -0.6605504751205444 -0.8191344738006592
1.45028817653656 -0.5328993797302246 -0.12213294953107834
-0.9329707026481628 -0.29404401779174805 0.8660883903503418
-1.5818724632263184 0.2670554518699646 0.5065668225288391
-0.47527575492858887 -0.4475274980068207 0.46789461374282837
0.1097690761089325 -0.30795568227767944 -0.1997414380311966
2.0582377910614014 0.2137172371149063 -0.03357822075486183
-0.609282910823822 -0.4875375032424927 0.3110623061656952
-1.4114967584609985 0.17075933516025543 0.7968137860298157
-1.0367908477783203 -0.5605482459068298 -0.608551561832428
1.1177269220352173 0.18862874805927277 0.8076341152191162
0.2287135124206543 -0.01904541254043579 1.3906512260437012
-1.187442660331726 -0.4603511095046997 -0.04107788950204849
-1.5189123153686523 0.9120087623596191 -1.0943472385406494
2.2731425762176514 0.2388816773891449 0.8202177286148071
-0.9146959781646729 -0.12210850417613983 -1.0171705484390259
-1.4333993196487427 0.24466796219348907 -1.216503381729126
0.5253081917762756 0.24892404675483704 -0.3972015082836151
0.03604789823293686 -0.5298531651496887 -0.28327056765556335
-1.5637550354003906 0.1525178700685501 -1.1136468648910522
-1.480929970741272 0.17105096578598022 1.2838395833969116
-1.787002682685852 -0.1407974362373352 1.1398284435272217
1.0585576295852661 0.3798168897628784 1.0382996797561646
0.6357377171516418 0.02537582814693451 -0.270865797996521
-0.766335129737854 0.3714277148246765 -0.9740816950798035
-0.9346358180046082 -0.4866553246974945 0.4628903269767761
-1.3100224733352661 0.6510189771652222 -1.0328657627105713
1.0189645290374756 -0.19452302157878876 0.9938700199127197
0.8045989274978638 0.8033322691917419 1.2956359386444092
0.45267269015312195 0.674036979675293 -0.47814950346946716
-0.0311969593167305 1.2095708847045898 0.24304810166358948
0.25152483582496643 0.7955390810966492 -0.3016783893108368
-2.1432690620422363 0.14507509768009186 0.5685298442840576
1.1047154664993286 0.49905824661254883 -0.625788688659668
1.0968598127365112 0.18735480308532715 0.36670225858688354
-1.837876319885254 -0.20137056708335876 0.7387451529502869
-0.36147820949554443 -0.1647569239139557 -0.7886928915977478
0.030574005097150803 0.3499153256416321 -0.8411028981208801
-1.4882347583770752 0.5537256598472595 -1.5678244829177856
-0.319876104593277 0.5975464582443237 -0.5627861022949219
0.8102845549583435 -0.402083158493042 -0.6066162586212158
0.45937928557395935 -0.13491082191467285 0.9597369432449341
-2.0483360290527344 0.31308725476264954 -0.14413416385650635
-0.49681490659713745 -0.2954988479614258 0.5556841492652893
1.6147438287734985 -0.14241352677345276 0.0137924300506711
-1.3923205137252808 -0.5418497323989868 -0.30135801434516907
-2.3396236896514893 0.5447594523429871 -0.9778580069541931
-0.6587165594100952 -0.44299381971359253 -1.0227327346801758
0.5265195965766907 0.7948994040489197 -0.6267189979553223
0.25462427735328674 0.28940874338150024 0.18691082298755646
0.5677450895309448 -0.15640820562839508 0.41936320066452026
0.8849065899848938 0.8154349327087402 -1.1189703941345215
-1.4864031076431274 0.059290602803230286 -0.9895205497741699
-1.1622517108917236 -0.4900249242782593 -1.1584254503250122
2.0207910537719727 -0.4522620439529419 -0.3028377890586853
-1.0511332750320435 -0.4543132483959198 0.6904363036155701
-1.2341358661651611 0.05745796859264374 0.204079270362854
1.2482085227966309 0.15972524881362915 0.06440455466508865
-0.7848427891731262 -0.09430666267871857 0.22798927128314972
0.3405366539955139 0.3016888201236725 -1.3905713558197021
-0.4857187271118164 0.058911487460136414 1.113013505935669
-2.051252841949463 0.17745235562324524 0.3980606198310852
2.190760374069214 -0.5066307187080383 0.41254284977912903
-0.8967381715774536 0.26609551906585693 0.02472018077969551
-0.08255918323993683 0.6416244506835938 -0.8426765203475952
0.744644045829773 0.6903747916221619 0.5292713046073914
-1.4496458768844604 0.2841847836971283 -1.1618300676345825
-0.2904130518436432 0.5170783400535583 -0.9156617522239685
0.9128686189651489 -0.19185498356819153 -0.7868985533714294
-2.105226755142212 -0.09593285620212555 -0.9068634510040283
1.4283368587493896 0.31470412015914917 0.18000541627407074
0.8903542160987854 -0.1884867250919342 -0.11942258477210999
1.6602258682250977 -0.268593430519104 0.4290441870689392
-1.3992125988006592 -0.5639017820358276 0.31213054060935974
-0.4599268436431885 0.09922297298908234 0.006879625841975212
-0.4334935247898102 0.4771777391433716 -0.02569122239947319
0.018657010048627853 -0.44745081663131714 -1.8695454597473145
-0.15831412374973297 0.9368164539337158 0.36988747119903564
-0.739574670791626 0.2357800006866455 -1.0035138130187988
3.2561147212982178 -0.4589368999004364 0.43752893805503845
-0.37229424715042114 0.6183509826660156 0.4377542734146118
2.1203160285949707 0.6131799221038818 0.029735302552580833
-1.6597309112548828 0.12508408725261688 0.5295048356056213
1.6202411651611328 0.2818347215652466 -0.3545665144920349
1.513681411743164 0.4385824203491211 0.901885986328125
0.4730335474014282 -0.12580612301826477 0.3506445288658142
0.9431270360946655 0.7097601890563965 0.27428367733955383
-1.7963534593582153 -0.25931501388549805 -1.5695847272872925
1.8521846532821655 0.4184596538543701 0.7785184383392334
1.3819942474365234 0.11932817101478577 0.39781248569488525
1.2826582193374634 -0.6235412955284119 -0.6607793569564819
-1.2416813373565674 0.6209001541137695 -0.6081963777542114
0.2570418119430542 -0.13739743828773499 1.368977665901184
-1.6569230556488037 -0.25318437814712524 -0.07452824711799622
0.10098735988140106 0.254714697599411 -0.5164321660995483
-1.0143563747406006 0.25575995445251465 0.4997684061527252
0.49244362115859985 0.8043780326843262 -0.07339601963758469
-1.3931446075439453 -0.03562074899673462 1.3315032720565796
-1.6446646451950073 1.015515923500061 0.09010033309459686
1.2019286155700684 0.08475443720817566 0.8608314990997314
0.021432988345623016 0.07161112129688263 -1.5580506324768066
1.7644543647766113 0.20719608664512634 -0.9853291511535645
-1.3889129161834717 0.40057826042175293 -0.2403191179037094
-2.3294365406036377 -0.15820471942424774 -0.999253511428833
-1.427937388420105 0.21448081731796265 -0.5370488166809082
-0.45620423555374146 -0.5054826736450195 0.43017691373825073
-0.1590820848941803 0.33949366211891174 0.6135345101356506
-0.23280097544193268 -0.5749549865722656 0.10305816680192947
-1.8775376081466675 1.0107076168060303 0.28050506114959717
2.1344690322875977 -0.23315006494522095 -0.20109421014785767
-1.3925950527191162 0.7631736993789673 -0.6407179236412048
0.18985243141651154 0.6214030981063843 -0.5293369889259338
1.6064176559448242 -0.5990902185440063 -0.38751474022865295
-1.1074098348617554 0.686510443687439 0.6892504692077637
-0.1629640758037567 0.6247233152389526 1.2864089012145996
-0.722258985042572 -0.16221190989017487 -1.1096605062484741
-1.1731398105621338 0.2037329524755478 0.45764613151550293
0.35278916358947754 -0.07457898557186127 0.5066636800765991
1.6854157447814941 -0.28622201085090637 -0.3418586552143097
-0.44486433267593384 0.05547681450843811 -1.0826438665390015
-0.6689857840538025 0.7298794388771057 -0.2678772211074829
-1.445760726928711 0.11794905364513397 0.6769299507141113
-1.3796956539154053 -0.3329418897628784 -0.3753616511821747
0.4870799481868744 -0.24918301403522491 -0.849846363067627
-2.1909520626068115 0.11583663523197174 -1.3369685411453247
-0.8411362171173096 -0.09966607391834259 0.5203768610954285
0.003200218081474304 0.593271017074585 0.6697939038276672
-1.9096479415893555 -0.00796307623386383 0.6398682594299316
-1.6028051376342773 0.37509387731552124 -0.7767966985702515
-0.5280779004096985 0.7809849977493286 0.6084060072898865
0.6514069437980652 -0.2351159006357193 -0.22573839128017426
-1.2208614349365234 0.20949149131774902 -0.976294994354248
0.8795813322067261 0.6456105709075928 -0.4163789451122284
1.2028300762176514 -0.5888124108314514 -1.2279813289642334
-0.394927054643631 0.2704588770866394 -0.28923386335372925
0.8906209468841553 0.2943193316459656 -0.9556320309638977
-1.4952980279922485 0.40049654245376587 0.28541022539138794
-0.5758196711540222 0.31329667568206787 0.8366191983222961
-1.2678121328353882 -0.5609964728355408 -1.1489695310592651
-1.2656331062316895 0.8785491585731506 -0.45104455947875977
1.4472898244857788 0.8873153328895569 -0.06414607912302017
-0.6858223676681519 -0.2964242994785309 -0.23958826065063477
0.7519646883010864 0.23626890778541565 -0.733060896396637
-1.488567590713501 0.335973858833313 0.23894712328910828
1.210828423500061 0.34504568576812744 -0.5836650729179382
-1.2632588148117065 -0.6729055047035217 0.11933363974094391
-1.6434228420257568 0.5952458381652832 0.3693821132183075
-2.443647861480713 -0.14769789576530457 -1.0335952043533325
2.3152718544006348 -0.5246712565422058 0.2790940999984741
1.3699475526809692 0.31164443492889404 -1.2270574569702148
1.9642823934555054 -0.14800657331943512 1.0631970167160034
-1.5886528491973877 0.769532322883606 0.31642284989356995
1.0168981552124023 0.18623018264770508 0.11525171995162964
-0.5830902457237244 -0.055158182978630066 0.7211421728134155
1.6672340631484985 0.15799498558044434 -0.2625272870063782
-0.38898515701293945 0.3963700234889984 0.916182816028595
-0.9890975952148438 0.11598362028598785 0.07852328568696976
-0.03540834039449692 1.0602376461029053 -0.5615848302841187
1.462783932685852 0.6618151664733887 0.331199586391449
-1.8331599235534668 -0.3865729570388794 0.4352022707462311
1.279248833656311 0.09082849323749542 -0.4996836483478546
-0.09822360426187515 -0.17996370792388916 -1.2019189596176147
1.5912206172943115 -0.03154321014881134 0.9752271175384521
-0.15984399616718292 0.14334577322006226 -0.5715836882591248
0.14271605014801025 0.09878122806549072 0.252273291349411
-0.8116841316223145 0.8989889025688171 0.15390685200691223
-0.20409968495368958 -0.38500338792800903 -0.06840606778860092
-0.9133151173591614 -0.38765180110931396 -0.5886403322219849
0.13211873173713684 -0.40994587540626526 -1.096536636352539
-1.9158706665039062 -0.7171196341514587 0.9009386301040649
-1.145754098892212 -0.42094093561172485 -0.21509946882724762
-0.9761727452278137 0.2336137741804123 0.09898415207862854
-1.483539342880249 0.6057044267654419 0.5371662378311157
-0.7926222681999207 0.5518724918365479 -0.7705909609794617
-1.0366073846817017 -0.4991813898086548 1.255852460861206
-0.334087073802948 -0.0002775043249130249 0.6434995532035828
1.601487398147583 -0.49085015058517456 -0.6557922959327698
-0.6496975421905518 0.422931969165802 0.4706540107727051
-0.5985181927680969 0.5392971038818359 0.32481297850608826
-1.2750942707061768 0.9462186694145203 -1.1787068843841553
1.3858166933059692 -0.23123008012771606 0.9688860177993774
-0.6937165260314941 0.6316913962364197 -0.8617860674858093
1.3341633081436157 0.5016566514968872 -1.5855764150619507
-0.42575761675834656 0.7629092931747437 -0.5687208771705627
-0.9126096367835999 0.2440713495016098 -0.9968451261520386
-1.332891583442688 -0.07623615860939026 -0.19585396349430084
-1.0999953746795654 0.4535953998565674 -1.2191849946975708
-1.7474017143249512 -0.4718640148639679 -0.1528158038854599
0.5675646662712097 0.23346062004566193 0.6332732439041138
1.7307534217834473 -0.07236282527446747 0.20608419179916382
-1.0393401384353638 0.061118051409721375 0.7321982979774475
-1.7006840705871582 0.5182366371154785 0.9941884875297546
0.24389921128749847 1.0806200504302979 -0.19487358629703522
0.2027376890182495 0.3869563937187195 0.6366708874702454
1.6359657049179077 -0.32221364974975586 -1.1644095182418823
-0.5386770963668823 0.34707629680633545 -0.6499187350273132
1.3562068939208984 0.545373260974884 0.7422242164611816
1.8999890089035034 -0.09353487193584442 0.06104576587677002
-0.15630540251731873 0.03924889862537384 0.9206262826919556
-0.41255447268486023 -0.31982117891311646 -0.596794068813324
-1.2750897407531738 0.6926472187042236 0.023279663175344467
-1.1390116214752197 1.1849417686462402 -0.12451858818531036
0.7591333389282227 0.674556314945221 0.20176145434379578
-1.003748893737793 0.2648870050907135 0.27117693424224854
0.6384245753288269 -0.09651491045951843 1.1062012910842896
1.9211190938949585 0.09135597944259644 0.49271059036254883
1.627028465270996 -0.11437660455703735 -1.1233201026916504
-1.7484300136566162 -0.1215713769197464 -0.34209367632865906
-0.6784639358520508 -0.10153275728225708 1.3250643014907837
1.1576695442199707 1.1004594564437866 -0.9304758310317993
-0.978611946105957 -0.3909952640533447 1.0599122047424316
2.2016167640686035 -0.055747807025909424 -0.9285858273506165
-0.4052228033542633 -0.19900989532470703 -0.2309717833995819
-0.2910088300704956 -0.2440040409564972 0.18729731440544128
0.8450329303741455 -0.4444384276866913 0.3218732178211212
-1.1001222133636475 0.453696072101593 0.07001042366027832
-0.4287877380847931 -0.15771295130252838 0.14655445516109467
1.2738237380981445 0.05592353641986847 -1.1119542121887207
0.027289412915706635 0.739527702331543 0.7722257971763611
1.1948662996292114 0.6969310641288757 0.6144097447395325
2.1539206504821777 -0.27337002754211426 -1.0066938400268555
0.06440365314483643 0.28984498977661133 0.02949228323996067
0.9376392364501953 0.9633781909942627 -0.7213192582130432
-1.0856469869613647 -0.4431106448173523 -1.2364360094070435
-1.0739058256149292 0.24286362528800964 1.3398489952087402
0.03768295794725418 -0.41092199087142944 0.7342023253440857
2.0910818576812744 -0.48249679803848267 0.1658296138048172
1.5033681392669678 -0.29475653171539307 -0.23357556760311127
-0.7092490792274475 -0.015289708971977234 0.32686853408813477
2.0573933124542236 0.30913084745407104 -0.7750619053840637
1.8933032751083374 -0.3403571546077728 -0.9303489923477173
-1.4947640895843506 0.33772122859954834 -0.3877409100532532
0.761808454990387 0.5537319779396057 -0.7653366923332214
2.0166547298431396 0.0043735504150390625 0.6925657391548157
1.513060450553894 0.22377480566501617 -0.5233869552612305
1.3445212841033936 0.5018497705459595 1.3843886852264404
-1.188000202178955 0.8531721830368042 0.24093762040138245
1.0598711967468262 0.27144649624824524 -0.5604864358901978
1.4376065731048584 -0.14329774677753448 -0.1482640504837036
1.0470207929611206 0.7093155384063721 0.3808251619338989
0.9036067724227905 0.32970404624938965 0.05916864052414894
0.3508659601211548 -0.0650525838136673 0.5664492249488831
-2.010152816772461 0.8893325924873352 0.0049395207315683365
-1.724141240119934 -0.2802494168281555 -0.9689161777496338
0.4236276149749756 0.2455296665430069 0.5271478295326233
-1.4558407068252563 0.6570435166358948 -0.6332895159721375
0.2483455389738083 -0.4830697178840637 0.5935548543930054
-1.8185899257659912 -0.5709589719772339 -1.3544179201126099
0.04226411134004593 0.9066070914268494 -0.11952117085456848
0.5807846784591675 0.7751102447509766 0.553826093673706
-0.05663910508155823 -0.3450116217136383 0.6342804431915283
0.22457703948020935 0.4462151527404785 0.6548608541488647
1.7420234680175781 -0.541343092918396 -0.386257529258728
-0.6712607741355896 0.9307694435119629 -0.7929255962371826
-0.9502944946289062 -0.37983405590057373 0.8196208477020264
-0.667206883430481 -0.3809428811073303 -0.2638285458087921
-0.6551251411437988 0.005807697772979736 1.008226990699768
0.6849908232688904 -0.04467962682247162 -0.6834204196929932
0.6135228872299194 -0.2970774173736572 -0.12748193740844727
1.5547338724136353 -0.08881783485412598 -0.2750188112258911
-2.4683966636657715 1.032181739807129 0.7279382348060608
1.3726167678833008 -0.620019793510437 0.3974493145942688
-1.912674903869629 0.7395716905593872 0.6398054361343384
-0.025699619203805923 0.0965593159198761 -0.5060887932777405
-1.643625259399414 1.0300061702728271 -0.41549816727638245
-1.733474850654602 0.9507172703742981 1.125438928604126
-0.18542654812335968 -0.44456273317337036 0.6880722045898438
2.233717679977417 -0.4683331847190857 1.0432907342910767
0.5127260684967041 0.570459246635437 -0.8620021343231201
1.7108148336410522 0.08104099333286285 0.22442513704299927
-1.154116153717041 -0.09844528138637543 -0.09903483092784882
-0.6747068166732788 0.7183834314346313 0.08858152478933334
0.8338518738746643 0.30021026730537415 -1.4147807359695435
-0.2781215310096741 0.330290287733078 0.7300847768783569
-1.2742586135864258 -0.5089651942253113 -0.7253212928771973
1.423203706741333 -0.3886321187019348 -0.788366436958313
-1.474021077156067 0.8730882406234741 1.2004362344741821
1.0068093538284302 -0.17217715084552765 -0.9766189455986023
-1.3345229625701904 0.07132914662361145 -0.8454660177230835
-1.9264352321624756 0.026745453476905823 -0.8754453659057617
-1.3882137537002563 0.14446072280406952 -0.4971793293952942
0.955986499786377 0.44065728783607483 0.07127705216407776
-0.8136540055274963 0.3410874009132385 1.1414450407028198
-0.41392844915390015 0.8323758244514465 0.36014389991760254
0.9503254890441895 0.0385766327381134 -0.6770585179328918
-0.6259778141975403 0.24464377760887146 0.6555749177932739
0.05061342567205429 0.2949807941913605 0.726060688495636
-0.9977178573608398 -0.07195626199245453 -0.42003417015075684
0.6399273872375488 -0.32057124376296997 -0.16138851642608643
-1.1275337934494019 0.5120891332626343 0.21514052152633667
-0.1666649580001831 0.18504568934440613 0.29576316475868225
-0.7835435271263123 1.2981759309768677 -0.4670676290988922
1.0063800811767578 0.6810263395309448 0.061040252447128296
1.0924607515335083 -0.40648895502090454 0.30129051208496094
1.7280077934265137 0.24037107825279236 -1.3290125131607056
-0.9208446741104126 0.7093088626861572 0.7052087187767029
1.3078595399856567 0.2948431968688965 0.20723053812980652
0.4080451428890228 -0.5088508725166321 -0.8463340401649475
-0.5461896061897278 1.2568378448486328 -0.09658912569284439
0.8556029796600342 -0.1263449341058731 -0.8898787498474121
1.392628788948059 0.1141057163476944 -0.5275694727897644
-0.807232141494751 -0.6885192394256592 0.22847843170166016
0.1795724779367447 0.2811535596847534 -0.8044000267982483
-1.445521354675293 -0.242449089884758 -1.0115679502487183
0.48996102809906006 -0.3647456169128418 -0.9818673133850098
2.577199697494507 -0.34056219458580017 -0.6857320070266724
-1.2834211587905884 0.3290490210056305 -1.1252232789993286
-0.5573437213897705 -0.295249342918396 1.3231399059295654
1.1375654935836792 0.20644894242286682 0.9026436805725098
-0.3971230089664459 0.09300747513771057 0.481677383184433
-1.1463050842285156 1.1636561155319214 0.276486873626709
-1.166885495185852 -0.5048967599868774 0.3381027579307556
2.068110227584839 -0.5000383257865906 0.7169224619865417
-1.2933982610702515 -0.18651829659938812 0.7737354040145874
0.9943241477012634 0.2582448422908783 -0.8925645351409912
1.157463788986206 0.243595689535141 -1.5967957973480225
1.289381980895996 0.31624355912208557 -0.08294162899255753
0.1581493318080902 -0.35470959544181824 -0.4355328679084778
-1.545464277267456 0.20916694402694702 1.3177739381790161
1.4270374774932861 -0.1059330403804779 0.14872494339942932
0.5942267775535583 -0.2683209776878357 0.09418392926454544
-2.274101495742798 -0.4384631812572479 1.0070019960403442
-1.5033035278320312 0.40101128816604614 -0.00663833599537611
0.8057117462158203 0.3048780560493469 -1.0777093172073364
-1.5282208919525146 0.14219129085540771 -0.43442535400390625
1.9026741981506348 0.10526332259178162 0.04693011939525604
1.9894771575927734 -0.3981115221977234 0.7066165804862976
-0.8507528305053711 -0.5409274697303772 -0.7963463068008423
-0.9237659573554993 0.47540372610092163 0.5363860726356506
-1.8489594459533691 -0.0171777606010437 -0.36438679695129395
1.768927812576294 0.3325375020503998 -0.7032843828201294
-1.7897073030471802 1.048004388809204 -0.4175938367843628
1.342301845550537 0.04723097383975983 0.6253638863563538
1.487619161605835 -0.6159062385559082 -0.1992294192314148
-2.0114262104034424 0.9168309569358826 0.006858863867819309
0.011548809707164764 0.8132210969924927 0.3222680985927582
0.558677077293396 -0.3767547607421875 -1.6841628551483154
-0.4976291060447693 0.23467998206615448 -0.8431755304336548
-1.6524142026901245 -0.12403051555156708 1.0208375453948975
0.28314048051834106 0.9549376964569092 0.21272486448287964
1.3819537162780762 -0.5048342943191528 1.3018220663070679
0.9057462215423584 -0.09173204004764557 0.6424685120582581
-1.2095496654510498 0.8876549005508423 -0.6398414969444275
0.6078453063964844 -0.1980351358652115 -0.3497495949268341
0.40784698724746704 -0.19622980058193207 -0.6510308384895325
-1.0985032320022583 0.06983637809753418 0.8297540545463562
1.594840407371521 -0.0060055553913116455 0.38221848011016846
1.2519959211349487 0.26091480255126953 -0.2827855050563812
-0.8212540745735168 1.219089150428772 0.05967630073428154
0.12218263745307922 0.7538166046142578 0.7470778822898865
-0.4106068015098572 0.7338110208511353 -1.1194791793823242
0.8335777521133423 0.057117775082588196 0.6045103669166565
-2.4204463958740234 0.6328856348991394 -0.5140008926391602
1.5187803506851196 -0.21182158589363098 -0.33412662148475647
0.29875093698501587 1.0955615043640137 1.0281422138214111
-1.1481866836547852 -0.15824243426322937 -0.20351561903953552
-0.25749170780181885 0.5243694186210632 0.18164564669132233
0.13906940817832947 0.8388819098472595 -0.11669734865427017
0.19920070469379425 -0.304076611995697 -0.4886368215084076
1.2933686971664429 1.0066834688186646 -0.28482967615127563
0.23125827312469482 -0.2834143042564392 -0.3629692494869232
-1.6247398853302002 0.7500035166740417 -0.8673546314239502
-1.2521710395812988 0.4559141993522644 -1.1316882371902466
-0.6934667229652405 0.5619999170303345 -0.3501807451248169
-1.4525351524353027 -0.5328609943389893 -0.21924802660942078
0.5400070548057556 0.43250125646591187 0.8831304907798767
-0.03134486451745033 -0.337841272354126 -1.2235435247421265
-1.892160177230835 -0.2534930109977722 -0.4187963008880615
0.7186321020126343 0.7261981964111328 -0.4998617470264435
-1.8416494131088257 0.23842784762382507 0.735831618309021
-1.1694726943969727 -0.13782037794589996 0.6292391419410706
-0.0816427692770958 -0.48289793729782104 -1.0582844018936157
1.1567049026489258 0.9136655330657959 -1.0602113008499146
-2.838371753692627 0.8106982707977295 1.8007559776306152
0.5141420364379883 0.1695224940776825 0.7453585267066956
2.241330146789551 0.4578809142112732 0.4837131202220917
1.3173539638519287 0.5802638530731201 -1.0002145767211914
-1.5722533464431763 0.5410893559455872 -0.7205588817596436
-1.0449392795562744 -0.31610697507858276 -0.7636924386024475
-0.17913541197776794 -0.2935272455215454 -0.6487600803375244
1.1042017936706543 0.5753199458122253 -0.5882097482681274
1.1528379917144775 -0.33551275730133057 0.9493683576583862
1.6760339736938477 0.020093709230422974 -0.9029589891433716
0.5445651412010193 -0.23980151116847992 -1.4546682834625244
-1.8274686336517334 -0.14572550356388092 -0.047146108001470566
1.5394010543823242 0.4438897371292114 0.501960039138794
1.1843128204345703 0.49532783031463623 -0.14474955201148987
-1.6866533756256104 -0.2478889673948288 -1.13108229637146
-0.38647395372390747 0.658908486366272 0.1934601068496704
0.5307692885398865 0.6723023653030396 0.25007542967796326
1.4723005294799805 -0.6340861320495605 -1.156674861907959
-0.3483303487300873 0.7973378300666809 0.15065208077430725
-0.9014618992805481 0.10844877362251282 -0.2962436079978943
-1.583906888961792 -0.35989463329315186 0.9839296936988831
2.507709264755249 0.31565362215042114 -0.6141259670257568
-0.12366491556167603 -0.03168264031410217 0.5455288290977478
-0.30379369854927063 -0.5217692852020264 -0.34173041582107544
1.8275560140609741 0.8418377637863159 -0.36411428451538086
0.4583108723163605 0.364799827337265 0.35745885968208313
-0.784511387348175 0.6149697303771973 -0.37399202585220337
0.7603743672370911 -0.027234867215156555 0.516973614692688
0.42872512340545654 0.34569209814071655 -1.081381916999817
-0.5349137783050537 0.7457611560821533 0.007279474288225174
2.292121648788452 0.5247434377670288 -0.4181293845176697
-1.6669740676879883 -0.23625366389751434 0.955655038356781
-1.6110047101974487 0.119248166680336 0.08364395797252655
0.07506195455789566 -0.09806527197360992 0.7528162598609924
2.293938636779785 0.6020774841308594 -0.15989600121974945
-0.7960749864578247 -0.528264045715332 -0.7331333160400391
-1.2336218357086182 0.061035796999931335 -0.06249837577342987
0.34103837609291077 0.10789702832698822 0.2748471796512604
-0.9978442192077637 0.873231828212738 -0.1347055435180664
0.8185561299324036 0.31029510498046875 -0.9428730010986328
-1.5561254024505615 -0.42697873711586 1.17038094997406
-1.2771464586257935 0.27484703063964844 0.14617207646369934
-0.43850624561309814 -0.15915720164775848 -1.1073883771896362
0.10135281085968018 0.5950161218643188 0.7844544649124146
-1.14621102809906 -0.026397451758384705 0.4467211365699768
-0.3293159008026123 0.14339642226696014 -0.26309293508529663
-1.3536138534545898 0.09362001717090607 -0.2708177864551544
-1.3053900003433228 0.2866159677505493 -0.37222516536712646
-1.3396323919296265 0.7068747282028198 -1.0024110078811646
0.8554239273071289 -0.22630715370178223 0.12474679946899414
-0.7665789723396301 0.563922107219696 1.0746687650680542
2.016117572784424 -0.0973481833934784 0.693341851234436
0.49430474638938904 0.23525041341781616 1.2742706537246704
-1.8424021005630493 -0.015382960438728333 -0.18186606466770172
-0.9159973859786987 -0.1681520789861679 1.0232919454574585
0.8012301325798035 0.12786532938480377 0.6106574535369873
-0.5155469179153442 0.23184511065483093 -0.8160912394523621
0.5037630200386047 -0.046018436551094055 0.3428993821144104
-1.6090410947799683 0.7693060636520386 -0.9433995485305786
-0.24638652801513672 -0.013742223381996155 -0.32104724645614624
-0.5236641764640808 0.023368746042251587 0.8424525260925293
-1.2016243934631348 0.36889076232910156 0.3304765522480011
1.9523824453353882 -0.23428355157375336 0.20976600050926208
-1.2304408550262451 0.7144333720207214 -0.21011559665203094
0.14691340923309326 -0.18602021038532257 -0.7393962144851685
1.1036642789840698 -0.640727162361145 1.095741629600525
0.29523393511772156 -0.4403488039970398 1.2253316640853882
0.5612977743148804 -0.022311776876449585 -0.2655187249183655
0.9192135334014893 0.42836886644363403 -0.6259937882423401
-0.619308590888977 -0.4957086145877838 1.0767161846160889
0.9072862267494202 0.7761899828910828 -0.4763176739215851
0.1452377736568451 0.12603268027305603 -0.5075211524963379
-1.2403161525726318 0.4203081727027893 -0.2321016490459442
-1.2147153615951538 -0.47986021637916565 0.04978746920824051
1.5873662233352661 0.44447851181030273 -0.9650281667709351
-1.5279488563537598 0.23527099192142487 0.9303480386734009
-1.1614165306091309 0.6723287105560303 0.9408144950866699
1.0614718198776245 -0.32264095544815063 0.7319713830947876
-0.6835355758666992 -0.47253966331481934 -0.028571689501404762
-0.23337014019489288 0.46835577487945557 -0.675896406173706
-0.5206751227378845 0.5359318256378174 -0.9001200199127197
0.7162142992019653 0.7092286348342896 0.606239914894104
-0.8208425045013428 -0.23659579455852509 -0.7982553839683533
-1.2068694829940796 -0.4780512750148773 -1.2544736862182617
-1.8771311044692993 0.3412407636642456 -0.5993808507919312
2.3935353755950928 0.25020164251327515 -0.3877294361591339
-0.2660329341888428 -0.33404266834259033 1.0213000774383545
0.3975463807582855 -0.025174736976623535 -1.7309043407440186
1.6473807096481323 -0.19158542156219482 0.8702228665351868
0.17044848203659058 0.15902459621429443 -1.1995747089385986
0.30782371759414673 -0.4884217083454132 0.2445770502090454
0.1917588859796524 -0.1881074607372284 0.44386547803878784
-0.5677828192710876 0.478860080242157 0.427415132522583
-1.6950528621673584 1.1235464811325073 0.4322395324707031
-1.8158643245697021 0.31372517347335815 -0.3454609513282776
-1.8206212520599365 0.359932541847229 0.1523011177778244
-2.5829050540924072 -0.26183679699897766 -0.3532923460006714
-0.6462093591690063 0.07352589070796967 0.2756848931312561
-0.6963615417480469 -0.20944096148014069 -0.7527450323104858
-0.7572762966156006 0.8143476247787476 0.5683619976043701
-0.781282365322113 0.3888542652130127 1.3061587810516357
-0.12713980674743652 0.43445420265197754 1.025233268737793
1.932158350944519 -0.515722393989563 0.6531093716621399
0.3518888056278229 0.678176999092102 0.20546822249889374
0.19324275851249695 1.0701956748962402 0.563531756401062
-2.2801177501678467 -0.03705650568008423 0.19425413012504578
0.18669041991233826 -0.12533517181873322 -0.6188321709632874
-1.2104270458221436 -0.12336099147796631 0.19617959856987
-2.0713136196136475 0.09489628672599792 0.560485303401947
-0.5666382312774658 -0.2627246379852295 -0.015356593765318394
0.8147891759872437 -0.12535396218299866 -0.8753839135169983
2.021253824234009 -0.4616036117076874 -0.543069064617157
-0.2847152054309845 0.42742517590522766 1.3528422117233276
-1.5088331699371338 0.7514533996582031 0.06101251393556595
0.053697168827056885 1.1298362016677856 0.28588321805000305
-1.3068361282348633 -0.19595950841903687 0.79832923412323
1.5542923212051392 0.30174338817596436 -0.13964097201824188
1.0867342948913574 -0.1521444171667099 0.12317700684070587
1.848809003829956 0.1437799334526062 1.1749085187911987
1.0897613763809204 0.7706232666969299 -0.6466790437698364
-1.1811658143997192 0.0705832839012146 -0.1789795160293579
2.002929925918579 -0.4604730010032654 1.0904953479766846
1.1678208112716675 0.06387162208557129 -0.8803249001502991
-1.5706138610839844 1.0685514211654663 0.6574085354804993
-1.908050537109375 0.9059054851531982 -1.2143665552139282
0.6811891794204712 -0.12528298795223236 -1.102038860321045
2.044994354248047 -0.2676751911640167 0.7364720106124878
-1.0117239952087402 0.5698257684707642 -1.5123714208602905
0.4106019139289856 0.46773213148117065 0.1497606337070465
-0.2977161109447479 1.1619384288787842 0.3232347071170807
-1.3305906057357788 0.0680498480796814 0.4757901132106781
0.21039918065071106 0.981123149394989 1.205337643623352
-2.444286346435547 0.24246886372566223 -0.9866873025894165
0.6071528792381287 -0.5676676034927368 0.6971287131309509
-0.565104067325592 0.15777437388896942 1.3448741436004639
0.6150152087211609 0.38378453254699707 -0.07777616381645203
1.0945557355880737 0.13087981939315796 0.36614149808883667
-1.1379677057266235 0.5426244735717773 0.4416544735431671
1.0881216526031494 -0.10895919799804688 -0.2849230170249939
0.04655615985393524 -0.5011089444160461 -1.0161432027816772
1.148030161857605 -0.0759517252445221 1.0019960403442383
-1.3520296812057495 0.22019824385643005 1.0548911094665527
1.1156210899353027 0.06529757380485535 -0.20425379276275635
0.1278335452079773 0.6359692215919495 -0.495863139629364
-0.28333228826522827 0.6251122951507568 -0.8529088497161865
0.6189236044883728 0.2778894603252411 -0.7946028709411621
-0.7096063494682312 0.4331021010875702 0.534875750541687
1.4993318319320679 0.29194921255111694 -0.4620441794395447
-0.516681969165802 -0.2437850832939148 -1.1075379848480225
-0.7677531242370605 0.0820910632610321 -0.011177466250956059
-0.3173522353172302 -0.3635701537132263 -0.47920072078704834
-1.7128369808197021 0.519307017326355 -0.8777193427085876
-1.3331950902938843 0.6920331120491028 -0.4426898658275604
-0.7867090702056885 -0.6379842758178711 0.7538723945617676
0.38475608825683594 0.2155761420726776 -0.8645549416542053
-1.7991549968719482 1.0085631608963013 0.609315812587738
0.05616043508052826 1.2047244310379028 -0.13091610372066498
-2.3511500358581543 -0.24954020977020264 0.35412830114364624
-0.6904914379119873 -0.4425674080848694 1.2186806201934814
-0.6512659788131714 -0.5141744613647461 -0.06607941538095474
1.7037811279296875 -0.10585418343544006 -0.8643116354942322
0.9707455039024353 -0.2850326895713806 -0.37275442481040955
1.0074825286865234 0.5180226564407349 -0.8168466687202454
-1.4055756330490112 0.10891205072402954 -1.1707226037979126
0.7180266380310059 0.7518518567085266 -0.7725273966789246
-0.6452383995056152 1.0268319845199585 0.08709359169006348
-1.234973669052124 0.5276579856872559 -0.20779243111610413
-0.0762522965669632 0.08321811258792877 -0.06181037053465843
-1.547696828842163 0.24719944596290588 -1.2817977666854858
-0.7565203309059143 0.6980594396591187 -0.5648095011711121
1.1834763288497925 -0.2884836792945862 -1.6467666625976562
-0.9004589319229126 0.5751359462738037 1.2635453939437866
0.988419234752655 0.771347165107727 -0.0921616479754448
0.9183255434036255 -0.19618283212184906 1.1792160272598267
-0.5872277617454529 -0.10030272603034973 -0.18996714055538177
0.3351270258426666 -0.11693243682384491 0.8637370467185974
-0.7443400621414185 0.2581171989440918 0.6464529633522034
1.9557393789291382 0.007355496287345886 -0.4103078842163086
-0.6931353807449341 0.6527003645896912 -1.052711844444275
-1.374407410621643 0.5606207251548767 -0.5253779292106628
1.993468165397644 -0.03242127597332001 0.21407249569892883
1.321712851524353 -0.64872807264328 -0.08042306452989578
2.222991943359375 0.021974891424179077 0.7611067295074463
-1.0537497997283936 -0.1980179101228714 -0.89424729347229
-0.8329460024833679 0.8258501291275024 0.2941083014011383
-1.8495711088180542 0.9505748152732849 1.1323347091674805
2.2420027256011963 0.06203359365463257 -0.008186089806258678
-0.6590867042541504 -0.40495336055755615 0.38881716132164
1.8570560216903687 0.06617994606494904 0.05705954134464264
0.2929254472255707 -0.29354327917099 -0.989942729473114
-1.369599461555481 0.4874804615974426 -0.7474990487098694
0.4343390464782715 0.3942928612232208 0.8326485753059387
-1.303253173828125 1.0468436479568481 -0.2542818784713745
0.2842105031013489 0.04953134059906006 0.282508909702301
1.219955563545227 -0.019537389278411865 -0.8178367018699646
1.5276004076004028 0.25040507316589355 -0.6255679130554199
1.353089451789856 0.04223519563674927 0.8269908428192139
-0.7666827440261841 0.1717069447040558 -0.4634326696395874
0.1479179561138153 1.0503519773483276 0.9329416751861572
-0.4175453782081604 0.7648520469665527 -0.6966046094894409
0.3986456096172333 0.04033869504928589 -0.1713380366563797
-0.45667943358421326 0.767240047454834 0.6748849749565125
-1.2409348487854004 0.5074247121810913 -0.108772873878479
1.1122833490371704 0.06784902513027191 -1.2027599811553955
1.2113580703735352 -0.3163095712661743 -0.4544893205165863
0.6163371801376343 0.5505038499832153 0.24093669652938843
1.7463809251785278 0.024105146527290344 0.6022518873214722
0.4382450580596924 -0.5221463441848755 -1.2800339460372925
1.7314077615737915 -0.6088898181915283 -0.9699295163154602
-0.8673151731491089 0.9407886266708374 0.4287604093551636
-1.7755595445632935 -0.28595101833343506 -0.43802762031555176
-1.5514957904815674 0.2019755095243454 0.3722591698169708
-1.4540929794311523 -0.017039760947227478 0.6367390751838684
0.9394668936729431 -0.4159652590751648 0.6078106164932251
1.8102672100067139 0.3017067313194275 0.8256109952926636
-2.081254720687866 -0.20272479951381683 0.20638632774353027
-1.7528477907180786 -0.5887946486473083 0.8140202760696411
1.7099846601486206 0.15656284987926483 -0.4648359417915344
0.9386540651321411 -0.26146799325942993 -0.343500018119812
-0.37100905179977417 -0.4374515414237976 0.4100722074508667
0.9749135375022888 0.371288537979126 -0.45808303356170654
2.41823148727417 -0.16840529441833496 0.4372894763946533
-0.37037193775177 0.6755520105361938 0.5282353758811951
-0.4514401853084564 -0.008929327130317688 -0.3433944582939148
-0.5846359729766846 0.5132743120193481 -0.4691600203514099
0.11691121757030487 0.4225650429725647 -1.4896228313446045
0.7383981347084045 0.1642923206090927 -0.1766519397497177
0.006398744881153107 0.8680031299591064 -0.6573711037635803
0.715935468673706 -0.042902812361717224 -0.22122067213058472
0.42344456911087036 0.8591783046722412 -0.6691443920135498
1.4703624248504639 -0.01420620083808899 0.12603531777858734
1.1569013595581055 -0.554770827293396 -0.9399024844169617
1.0129777193069458 1.1527528762817383 -0.8741185069084167
-0.8357985615730286 0.20723825693130493 0.623599648475647
-0.8206218481063843 1.2473341226577759 0.46232402324676514
1.5707184076309204 -0.6152715682983398 -0.20532453060150146
-0.6873027682304382 1.0278711318969727 -0.20402741432189941
0.4417298138141632 -0.5448049306869507 -0.41909506916999817
-1.9813696146011353 -0.07059282064437866 1.0033587217330933
-1.5171425342559814 0.005705282092094421 -0.6481982469558716
2.074126720428467 0.10909740626811981 0.9613242745399475
0.8779337406158447 -0.3251059651374817 1.181757926940918
-1.0796674489974976 1.1752310991287231 -0.13104452192783356
-1.1365643739700317 -0.4018259048461914 0.6146676540374756
0.8114776015281677 0.5860670804977417 -0.7714152932167053
-1.5093474388122559 -0.28456613421440125 -0.5681283473968506
-1.0029321908950806 0.8035645484924316 -0.5829542279243469
-1.2858525514602661 0.06103217601776123 1.365517258644104
2.2176058292388916 0.06020551919937134 0.7186034321784973
-0.5351899266242981 0.6710530519485474 -0.21378663182258606
2.110872983932495 -0.013351529836654663 -1.2635650634765625
-1.0754749774932861 -0.07987496256828308 0.12731626629829407
1.4788633584976196 0.1929323375225067 0.3816894292831421
-1.5665509700775146 -0.21397270262241364 -0.2629105746746063
0.8870995044708252 0.039825692772865295 0.27185189723968506
-0.5267095565795898 0.000810086727142334 1.0738753080368042
0.8511286377906799 -0.26326751708984375 -0.48182451725006104
-0.6810832023620605 -0.46945199370384216 0.06642019748687744
0.5785666704177856 0.1951780766248703 -0.986835241317749
-2.0540616512298584 0.2979307770729065 -0.04573354497551918
-1.092484712600708 -0.13031688332557678 0.2009047269821167
-2.125847816467285 0.45355895161628723 0.04510088637471199
1.139143466949463 -0.4850904941558838 -0.5899109244346619
-1.8294124603271484 0.3538288176059723 0.9765992760658264
1.4468400478363037 0.13216811418533325 -0.4134431779384613
0.8526067733764648 -0.48492902517318726 -0.28743839263916016
0.43929192423820496 0.915488600730896 0.06515946239233017
-1.8796586990356445 0.792176365852356 -0.4342139661312103
-0.7191596031188965 0.875800609588623 -1.2606884241104126
0.04995155334472656 0.39818114042282104 0.36449775099754333
-1.2798988819122314 -0.04883812367916107 -0.7268578410148621
-1.4467415809631348 0.9327826499938965 -0.36447328329086304
0.15530705451965332 0.24151089787483215 0.5780946016311646
0.17324182391166687 0.30628135800361633 0.19944196939468384
-0.7412540912628174 -0.4638608396053314 -0.7472933530807495
-1.697019338607788 0.27548515796661377 0.5877619981765747
1.3097147941589355 -0.5617786645889282 -1.1651709079742432
-0.5567841529846191 -0.49510014057159424 0.19287295639514923
-1.9863426685333252 -0.2766677141189575 0.8709859848022461
-0.333051472902298 0.5964657664299011 -0.07490979880094528
-0.5263990163803101 0.5414233207702637 0.0006644121604040265
-0.8802669048309326 -0.4918532371520996 0.44263336062431335
-0.190871000289917 0.657059907913208 -0.9453794956207275
1.0972181558609009 0.7227396965026855 0.6880268454551697
0.47881484031677246 0.9102885127067566 0.5778220295906067
0.2642260491847992 0.513776421546936 -0.3833262324333191
-0.8173688650131226 0.1836797147989273 -0.176475390791893
0.9029490351676941 1.3894338607788086 -0.3455579876899719
-2.217289447784424 0.5751004219055176 -1.2999523878097534
1.1344120502471924 -0.6419579982757568 0.724693238735199
-2.284064531326294 0.62689208984375 -1.2466529607772827
-0.28654783964157104 -0.4127421975135803 0.832453727722168
-1.4790798425674438 0.538098156452179 0.32966920733451843
0.14298932254314423 0.20489586889743805 0.0446438193321228
0.9451111555099487 -0.09695984423160553 -0.3844761848449707
-1.3071269989013672 -0.04742133617401123 0.6980696320533752
-1.3474195003509521 1.1514290571212769 0.5376067757606506
0.09237634390592575 0.05307801067829132 0.731048047542572
-0.6479079127311707 0.5850828886032104 -0.10438631474971771
-0.8229370713233948 0.8519010543823242 0.2509620785713196
-0.6405104398727417 -0.5757020115852356 0.04200806841254234
-0.9770336151123047 0.5717352628707886 1.0548113584518433
-1.371610403060913 -0.0716041773557663 0.34595468640327454
0.9610978364944458 0.807887613773346 0.28212645649909973
1.0634524822235107 -0.37274885177612305 -0.8144423365592957
-0.4872359037399292 0.24850818514823914 0.06109138950705528
-1.2701959609985352 -0.08226622641086578 -0.6201885342597961
-0.8307650685310364 0.9124232530593872 -0.011399300768971443
-0.37670034170150757 -0.1912500113248825 1.1554906368255615
-0.9107590317726135 0.5073293447494507 0.3880021870136261
2.3174259662628174 -0.1742391437292099 -0.780265748500824
0.21332326531410217 -0.08614690601825714 0.4873785376548767
-2.1040377616882324 0.46352019906044006 -0.04189612343907356
0.1437220424413681 0.18613332509994507 -0.6831820607185364
-0.24685537815093994 -0.03762930631637573 0.46072909235954285
-1.330884575843811 0.05707038938999176 -0.13559284806251526
0.41309404373168945 0.10615426301956177 0.5937881469726562
2.5032541751861572 -0.09400627017021179 -0.23590266704559326
-1.5739414691925049 0.022490158677101135 -1.34375
-1.181742548942566 0.7329587340354919 0.17559504508972168
0.6757501363754272 -0.22444811463356018 -0.8607312440872192
0.06619726866483688 0.3278248608112335 0.8909115195274353
-1.88064706325531 -0.07827866077423096 -0.21009720861911774
-1.489694595336914 -0.14491574466228485 -0.019120007753372192
-1.072258710861206 -0.1531808078289032 -0.008633993566036224
0.09995567798614502 -0.37990063428878784 -0.9724937677383423
0.3331265151500702 -0.011168912053108215 -0.7399223446846008
1.4506745338439941 -0.6711801290512085 1.2838603258132935
0.20537035167217255 0.5135694742202759 -0.8824867606163025
0.2910129725933075 0.1572674810886383 1.0024102926254272
0.8764126300811768 0.013863757252693176 0.36830657720565796
1.6694645881652832 0.04630134999752045 -0.0941663607954979
1.469193696975708 -0.4269012212753296 -1.1069145202636719
-1.6587289571762085 0.18645311892032623 -0.6728336811065674
-0.4802272617816925 -0.27634936571121216 -0.45737478137016296
-1.6873773336410522 0.6407232284545898 -0.5024282336235046
-0.8712220788002014 0.5269966125488281 -0.680481493473053
-1.2968553304672241 0.8096405267715454 -0.8166338205337524
-0.620867133140564 0.8791667222976685 1.0250602960586548
1.6931706666946411 0.5770004391670227 0.32865670323371887
-0.17191444337368011 0.805418074131012 0.07829052209854126
-0.3307880163192749 0.7103737592697144 0.3134304881095886
1.246503233909607 -0.26165202260017395 -0.9642613530158997
-0.013666614890098572 0.4332071542739868 -1.341111421585083
-2.3015263080596924 -0.28732308745384216 0.24660377204418182
0.15293416380882263 0.05169297754764557 0.19349731504917145
1.51963210105896 0.1083100289106369 -0.1310865730047226
-0.5134063959121704 -0.36930322647094727 0.5120747685432434
1.2066172361373901 0.7100107669830322 -0.7837709188461304
-0.7447814345359802 0.04990270733833313 -1.0628246068954468
0.7185782194137573 -0.07969522476196289 -0.7735372185707092
-1.6868332624435425 -0.3867426812648773 0.6294344067573547
-1.9731409549713135 0.52702796459198 -0.6845623850822449
-0.9088134169578552 0.7935552597045898 0.3297898471355438
-0.40025097131729126 0.3080906867980957 1.1535871028900146
-0.43487754464149475 1.0829240083694458 -0.008422944694757462
0.14965999126434326 0.9774575233459473 0.9132571816444397
1.8005189895629883 0.6605382561683655 -0.1689797341823578
0.0496799498796463 0.4681083559989929 -0.27351468801498413
-0.5407070517539978 0.4560614228248596 0.09087571501731873
1.218993902206421 0.7675540447235107 -0.10831817239522934
-1.497701644897461 -0.31207266449928284 0.9191028475761414
-0.7467306852340698 1.1862848997116089 -0.47481322288513184
-2.3387491703033447 0.11926120519638062 -0.12504808604717255
-0.9228075742721558 -0.5158917307853699 -0.7685773968696594
-1.0254671573638916 -0.40328800678253174 0.10295835137367249
0.37095212936401367 0.061845019459724426 1.1126484870910645
-0.702142059803009 -0.3605532646179199 0.05003385990858078
0.9084203839302063 -0.416123628616333 -0.6915624141693115
-0.7213078737258911 -0.08949553966522217 0.4803631901741028
1.0312597751617432 0.7726356983184814 0.10115837305784225
0.21277818083763123 0.7066357731819153 0.3540118634700775
0.8055034279823303 -0.4628957509994507 0.206888809800148
0.8710082769393921 -0.4582723081111908 1.320063591003418
1.2150028944015503 -0.3066232204437256 -0.7523269653320312
-0.08777020871639252 0.0873965322971344 -0.3438759446144104
0.17126575112342834 0.3348211646080017 -0.07479672133922577
1.9625258445739746 -0.04951776564121246 1.0958236455917358
-0.5553591251373291 0.13813693821430206 0.23917518556118011
2.078579902648926 0.17096714675426483 -0.3337253928184509
-0.893619954586029 -0.2973899841308594 0.8255538940429688
-1.1564534902572632 0.2163751870393753 -0.07241923362016678
1.8177688121795654 0.457773894071579 -0.4700620770454407
-0.9812379479408264 1.1991993188858032 1.0383639335632324
-1.0198825597763062 -0.4505816102027893 0.7046410441398621
-0.8070875406265259 0.27083587646484375 -0.20872299373149872
1.6173566579818726 0.008857294917106628 -0.3443242907524109
0.707886815071106 -0.2773873805999756 -1.099289894104004
