ply
format ascii 1.0
element vertex 812
property float x
property float y
property float z
end_header
-1.6029560565948486 -0.4630870223045349 0.6270022988319397
-0.3001249134540558 -0.14389589428901672 0.005668612662702799
1.322610855102539 -0.450137197971344 -0.15124855935573578
-0.7791846394538879 1.3538169860839844 0.3055115342140198
-2.984872579574585 -0.025803834199905396 -0.0985027328133583
2.1326451301574707 -0.005735531449317932 0.10139621794223785
0.9525631070137024 0.5160748958587646 0.3528025150299072
1.562490463256836 -0.48485976457595825 0.2408246099948883
0.27821779251098633 -0.47047072649002075 0.4196355938911438
-0.7192401885986328 0.5289453268051147 -0.20700591802597046
-0.555573046207428 -0.21200506389141083 0.23781928420066833
-0.35599708557128906 0.950917661190033 0.07547835260629654
-0.7162923812866211 0.24088972806930542 0.7579771876335144
-0.23613595962524414 -0.11482316255569458 1.489712119102478
-1.2682278156280518 -0.14922821521759033 -0.7654925584793091
-2.0235190391540527 0.545904278755188 0.6130294799804688
1.2492210865020752 0.21922090649604797 0.5170409083366394
-1.125582218170166 0.5200382471084595 0.11291760206222534
0.060223937034606934 -0.38712120056152344 1.7002158164978027
0.37352046370506287 0.34281155467033386 -0.6869999766349792
1.372639536857605 0.7528755068778992 -1.1044172048568726
0.6597180366516113 0.32031065225601196 -0.07719313353300095
-2.0104610919952393 0.3725970387458801 0.9214932918548584
-0.10139891505241394 0.03588254749774933 0.08618294447660446
-0.5757876038551331 0.13129077851772308 0.062471263110637665
-1.6763911247253418 0.29761070013046265 0.8013225197792053
2.2343974113464355 -0.41422656178474426 0.9051731824874878
-0.324214369058609 -0.4089308977127075 -0.20640741288661957
-1.5021895170211792 0.6241031885147095 -0.2755008041858673
-1.8874682188034058 0.14911159873008728 -0.04882657527923584
0.8786588907241821 0.8688482046127319 0.6946911811828613
-0.2432258576154709 0.07570305466651917 -0.6559610366821289
0.37230923771858215 0.4444403052330017 0.01902315765619278
-1.8309770822525024 -0.04708567261695862 0.1366647332906723
0.3663443624973297 -0.5284899473190308 -2.0434863567352295
1.3964955806732178 -0.43747591972351074 -0.02953905425965786
-0.3720081150531769 0.15466026961803436 -0.3312675356864929
0.5845915675163269 0.5390952825546265 -0.7971175909042358
2.927593469619751 -0.16450317203998566 0.9158819913864136
-2.8216562271118164 -0.3733173608779907 -0.43837985396385193
-1.7998565435409546 0.4308595061302185 1.4021174907684326
0.05656490474939346 1.194210410118103 0.09063571691513062
1.830924391746521 -0.5395663380622864 0.40675705671310425
-1.950624704360962 0.06482258439064026 1.0747921466827393
-0.027941115200519562 -0.43865615129470825 -0.3827667236328125
1.5153595209121704 -0.4316209554672241 1.4219515323638916
-1.290940523147583 -0.42042404413223267 1.2631821632385254
1.6876075267791748 0.3068799078464508 -0.28341928124427795
-0.5732550621032715 0.2396986037492752 -0.017272623255848885
-0.013334553688764572 0.9305002093315125 0.6057801246643066
-0.926785409450531 0.10108093917369843 -1.1425020694732666
0.983267605304718 -0.007896140217781067 -0.6120642423629761
2.0383083820343018 0.3778783977031708 -0.167127788066864
-1.1944314241409302 0.440400630235672 -1.1489468812942505
-0.1417461335659027 -0.403414785861969 -0.708371639251709
-1.5483975410461426 0.5841498970985413 -0.29094332456588745
-0.6938126087188721 -0.4362725019454956 0.7064570188522339
-1.654894471168518 -0.3888435959815979 0.02574783004820347
1.0669907331466675 0.6561676263809204 -1.3926478624343872
-0.7341355681419373 -0.43392515182495117 0.8525312542915344
-0.4902614951133728 0.04974868893623352 -0.2664003074169159
0.8449191451072693 0.5525566339492798 -0.39509478211402893
-1.2782502174377441 0.7475443482398987 0.020185967907309532
-0.14479266107082367 0.9894742965698242 0.4174169600009918
1.7384761571884155 -0.220887690782547 -0.7330525517463684
0.266188383102417 -0.44240206480026245 1.0467274188995361
0.2751823663711548 0.12276479601860046 0.8326539993286133
0.7823207974433899 0.555444061756134 0.6758413910865784
-0.7356809377670288 1.1485772132873535 -1.0620403289794922
0.33636289834976196 -0.4212369918823242 -0.18492281436920166
-1.6021111011505127 0.5113947987556458 0.04711480438709259
1.0100460052490234 -0.43182483315467834 -0.5489345192909241
1.223560094833374 -0.450054794549942 -0.5030040144920349
-0.12294228374958038 1.135694980621338 0.9156543016433716
0.25556325912475586 0.7783041596412659 -0.655114471912384
0.2890374958515167 -0.4247145652770996 0.6885538697242737
-0.19497710466384888 0.11650417745113373 -1.0273175239562988
2.2473719120025635 0.6697298288345337 0.4571519196033478
0.8561434149742126 -0.5348445177078247 -0.8931695818901062
-0.7660593390464783 -0.44907239079475403 -0.627148449420929
-0.9415053129196167 0.20900440216064453 1.243540644645691
0.7621637582778931 0.8620590567588806 -0.659936785697937
-0.26876115798950195 0.3339712917804718 0.9808990955352783
0.10802386701107025 0.3247830867767334 -0.8461414575576782
0.4772307276725769 0.3393959105014801 0.8378284573554993
1.2632811069488525 0.9882940053939819 -1.3170876502990723
0.3976016044616699 0.15456143021583557 -0.49878835678100586
1.8067734241485596 0.6612968444824219 0.042129725217819214
0.6674147248268127 0.055566102266311646 1.420835256576538
2.0151283740997314 -0.10820414125919342 0.019200878217816353
0.6263309121131897 0.8145332336425781 -0.0667710080742836
-0.8607157468795776 -0.4095591902732849 1.0175882577896118
-0.6556362509727478 -0.4245585501194 -0.4209536910057068
-2.034396171569824 0.4926190674304962 -0.9642997980117798
-0.28809112310409546 0.09823273122310638 1.210357904434204
-1.987613558769226 -0.36562174558639526 -0.36686795949935913
3.2812747955322266 0.2762475609779358 0.11406627297401428
0.9021271467208862 -0.43877407908439636 0.7726330161094666
0.16466549038887024 -0.4097447395324707 0.8294759392738342
2.0448179244995117 0.3979664742946625 -0.22420372068881989
-0.7474349141120911 0.9500543475151062 1.3712812662124634
1.1712605953216553 -0.4927225708961487 0.7952103614807129
0.3521198630332947 1.081546425819397 -0.28363531827926636
0.20288145542144775 -0.43703800439834595 -0.17179657518863678
2.3913111686706543 -0.1578521728515625 0.031224850565195084
-1.0869454145431519 -0.03266964852809906 -0.8701523542404175
-1.2580084800720215 0.9320985078811646 0.9984706044197083
1.0725260972976685 -0.05219414830207825 -0.8291465640068054
2.3670687675476074 -0.12752380967140198 -1.3406879901885986
-0.8144478797912598 1.0933516025543213 -0.6327307820320129
0.506459653377533 0.3537590205669403 -1.093610167503357
-0.29785025119781494 -0.4421117305755615 0.46118059754371643
0.006040200591087341 0.48550963401794434 0.5431103706359863
1.2112563848495483 0.7123093008995056 -1.2614659070968628
2.1958823204040527 0.09910103678703308 0.4194484055042267
1.9616219997406006 0.6099309921264648 0.7230471968650818
0.6954483985900879 0.9418268203735352 -1.431865930557251
-0.5832538604736328 0.4498796761035919 -1.4524651765823364
-0.563739001750946 0.6421130895614624 0.42244479060173035
0.557471752166748 0.4304496645927429 1.1754900217056274
1.20137619972229 0.06793814897537231 -0.8235793709754944
2.505659580230713 0.14536833763122559 0.1594453603029251
-0.5804444551467896 0.04981164634227753 0.5314386487007141
2.0777509212493896 -0.5238474607467651 0.7386065721511841
0.707207977771759 1.0874065160751343 -0.7735601663589478
0.010365989059209824 -0.07870520651340485 -0.015173186548054218
-0.26461875438690186 0.2868582606315613 -0.6160680055618286
1.5120927095413208 -0.2502592206001282 0.4197387397289276
-0.6562264561653137 0.6850804090499878 0.9572694301605225
2.4312310218811035 0.038843244314193726 1.3230708837509155
1.3518434762954712 0.8636682629585266 -0.044083140790462494
-1.0224014520645142 1.224682092666626 -1.0674080848693848
2.2201836109161377 -0.4514080882072449 -0.3624972105026245
-1.0280383825302124 -0.24193821847438812 -1.4393932819366455
-0.101806640625 0.24982710182666779 -0.8198714256286621
1.837712287902832 -0.005085393786430359 -1.4507418870925903
-1.016336441040039 0.8143273591995239 1.38547682762146
-1.904698371887207 0.034174516797065735 1.0847569704055786
-0.18398381769657135 1.1344188451766968 -0.7384927868843079
-0.5463348031044006 0.44541385769844055 0.9866895079612732
-0.4901235103607178 -0.439369261264801 1.3084752559661865
-0.4053243100643158 1.0831221342086792 0.23897118866443634
-1.6031080484390259 0.1255347579717636 0.2791959345340729
0.7947108149528503 0.09547695517539978 -0.575285792350769
-1.5888502597808838 -0.4082334339618683 -0.6994177103042603
2.704774856567383 -0.4748576879501343 0.9921894669532776
0.7501372694969177 0.5019197463989258 0.2371360808610916
0.23805145919322968 0.06235609948635101 -0.8585394620895386
2.416746139526367 -0.12507037818431854 0.2712191641330719
1.109483003616333 -0.09873072803020477 1.5075100660324097
-1.3513089418411255 0.9104114770889282 0.7054342031478882
1.378202199935913 -0.2544635534286499 0.9028440117835999
-0.5286497473716736 0.6690890192985535 0.30619630217552185
0.4103109836578369 1.0557177066802979 1.0470701456069946
-0.04819180443882942 -0.013232797384262085 0.3079484701156616
1.6459169387817383 0.08987855911254883 -0.10607096552848816
1.9788495302200317 0.7032443284988403 0.9033805131912231
0.7792388796806335 0.9186790585517883 -0.6657949686050415
0.8469108939170837 0.10698562860488892 0.9965636730194092
2.9189298152923584 -0.323557585477829 1.0479233264923096
0.5710122585296631 -0.005923926830291748 1.1577318906784058
0.17707696557044983 -0.24425677955150604 -0.01071087084710598
-0.14447732269763947 -0.5833829641342163 0.8875946998596191
-0.5203030705451965 0.07367934286594391 -0.4665600657463074
0.2894483506679535 -0.16302244365215302 0.7302878499031067
0.19462382793426514 0.10855263471603394 1.4537492990493774
-0.1400589793920517 -0.4945235252380371 -0.16893424093723297
0.12339985370635986 -0.29413819313049316 1.061273455619812
0.8466668725013733 0.2410058081150055 0.8708279132843018
-1.0665373802185059 -0.33695799112319946 -0.92473965883255
0.6677876710891724 -0.0924595445394516 0.35575389862060547
-1.1962230205535889 -0.41115668416023254 -0.27158820629119873
-1.6358606815338135 0.8920290470123291 0.045610327273607254
-0.2878742516040802 0.6442998647689819 0.6443722248077393
0.17650413513183594 1.096086025238037 0.03567814826965332
1.5464773178100586 -0.42875903844833374 -0.09341362863779068
2.7140390872955322 0.039787814021110535 -1.0237761735916138
0.3584490716457367 0.44803959131240845 0.582753598690033
0.5312285423278809 0.10979494452476501 0.23941384255886078
-1.0637892484664917 -0.4857683777809143 0.6535298228263855
1.4391790628433228 0.44013693928718567 -1.1967651844024658
0.5713558793067932 1.0592937469482422 -0.15561777353286743
-0.6567012667655945 -0.40809208154678345 -0.46797388792037964
-1.301769733428955 -0.3631710410118103 -1.2596627473831177
-1.7943837642669678 0.8598735928535461 0.5775845646858215
1.516696810722351 0.43016713857650757 0.6675406098365784
0.840065062046051 -0.4306320548057556 1.4725627899169922
0.6888941526412964 -0.20926328003406525 -0.5552424788475037
-0.1394622027873993 -0.16946744918823242 -0.020711472257971764
1.9291980266571045 0.8170201778411865 -0.5420908331871033
-0.4033064842224121 0.9455659985542297 -0.574433445930481
0.5270081758499146 0.3377339243888855 0.2314862459897995
0.01623491942882538 -0.45714762806892395 -0.3482705354690552
-1.1165801286697388 0.3138955235481262 0.9734206199645996
0.6539766192436218 1.0482865571975708 -1.3577876091003418
-1.7998815774917603 -0.12017211318016052 0.5622258186340332
-0.615190863609314 -0.2912105321884155 -0.3102639317512512
0.40880900621414185 -0.20480969548225403 0.20895786583423615
1.698686122894287 0.7591861486434937 0.539767861366272
1.6101082563400269 -0.03273598849773407 0.39448192715644836
2.193871021270752 0.14763705432415009 -0.6475505232810974
-1.8756375312805176 0.5171006321907043 -0.2180885523557663
0.9147405028343201 -0.0664677619934082 0.600299596786499
1.245965600013733 0.8495583534240723 0.3437955677509308
-1.0784213542938232 0.5352463126182556 -0.0003120996989309788
1.5454108715057373 -0.04752621054649353 0.7089191675186157
-2.2553164958953857 0.02283954620361328 -1.2838419675827026
0.5365308523178101 0.9595488905906677 -0.7442816495895386
0.7352052330970764 -0.15023335814476013 -0.1391761302947998
-0.3860773742198944 -0.18942084908485413 -1.2926125526428223
0.45137909054756165 0.12675055861473083 -0.8799722194671631
1.4640368223190308 0.12530221045017242 -0.32223406434059143
-0.24857601523399353 0.6735959053039551 -1.1665312051773071
0.5001657605171204 0.8903694748878479 -1.1839510202407837
1.795296311378479 -0.07905943691730499 -0.7341507077217102
-1.6359343528747559 0.8874088525772095 0.027725795283913612
1.5344867706298828 -0.14004342257976532 1.3368251323699951
-2.7039923667907715 -0.09864263236522675 -0.15352897346019745
0.9669232964515686 0.2365836799144745 -1.499930500984192
2.492826223373413 -0.34853944182395935 -1.536924958229065
-1.434688925743103 0.5246419906616211 0.18621309101581573
-1.1793310642242432 -0.429184228181839 1.4983748197555542
-0.8334288001060486 0.9590248465538025 0.5398041605949402
-0.6722750663757324 -0.004880502820014954 1.2325716018676758
-2.3803935050964355 0.18190935254096985 1.3329945802688599
0.4228407144546509 -0.45262661576271057 0.44714969396591187
-1.2955963611602783 -0.4159145653247833 -0.8968503475189209
-0.20717090368270874 1.1430323123931885 -0.1495516449213028
-1.6750140190124512 -0.4512661099433899 0.9563177227973938
-2.2108564376831055 0.5184309482574463 0.01316540502011776
1.9319292306900024 -0.2515738606452942 0.7508843541145325
-1.6243740320205688 0.0005103945732116699 -0.20996122062206268
1.5963516235351562 0.02718321979045868 1.1820900440216064
2.299325704574585 -0.4296892285346985 0.7771897912025452
-1.6453486680984497 0.548927366733551 -0.6609741449356079
0.31883442401885986 1.02995765209198 -1.2204244136810303
-0.4317757189273834 0.8986392021179199 -0.165254607796669
-0.9368438124656677 -0.2848789691925049 -1.3705052137374878
1.1986805200576782 0.799308717250824 1.5961153507232666
-0.5153237581253052 -0.41772305965423584 -0.4060762822628021
0.27988481521606445 0.4903707504272461 -0.6386809945106506
2.2510666847229004 0.16990776360034943 -1.0315676927566528
1.2498034238815308 0.7877148389816284 0.3783208727836609
1.0531789064407349 0.3847619295120239 -0.27601349353790283
-0.21645474433898926 1.1949721574783325 -0.16163024306297302
-2.1557765007019043 -0.2319745123386383 0.34991371631622314
-0.6296167969703674 1.1027973890304565 0.26853203773498535
0.5681235790252686 0.5176535844802856 0.14085155725479126
1.1309419870376587 0.08775065839290619 -0.8671298623085022
2.306553602218628 -0.5180426239967346 0.5012186169624329
-0.20234721899032593 -0.10168498754501343 -0.2580545246601105
-1.1527202129364014 -0.5661281943321228 -1.116255283355713
-1.3149185180664062 0.6782196760177612 -0.768132746219635
-1.5233033895492554 0.833475649356842 0.20670728385448456
1.4946259260177612 -0.439232736825943 -0.37073928117752075
0.4462589919567108 -0.056069210171699524 -1.3263630867004395
1.1965404748916626 0.671310305595398 -0.363205224275589
0.9832697510719299 0.4125044643878937 0.10250250995159149
-0.6991260647773743 0.6542764902114868 0.3835470676422119
1.043988585472107 0.3517197370529175 0.12964493036270142
-0.16681814193725586 -0.15219229459762573 1.5440106391906738
0.28166595101356506 -0.13017429411411285 0.8328108787536621
-0.9843414425849915 -0.21040867269039154 0.27950429916381836
1.1717548370361328 0.8292686343193054 0.8846139311790466
1.2898062467575073 0.7574043273925781 -0.5771138668060303
0.8495717644691467 0.0021696090698242188 -1.250617504119873
-2.6900434494018555 0.7358003854751587 0.12863391637802124
-0.8241543173789978 0.8095946311950684 -0.04897741600871086
-0.38136276602745056 0.3896171748638153 0.1197684034705162
0.8456495404243469 0.11721178889274597 1.4184916019439697
-0.47043052315711975 0.28891313076019287 -0.8073697686195374
-0.436626672744751 -0.5106444954872131 -0.0617726594209671
-1.588940143585205 0.5277599692344666 0.037790387868881226
0.34156879782676697 -0.460100382566452 0.10013259947299957
1.757580041885376 -0.27145975828170776 -0.34911155700683594
0.5241648554801941 -0.4718128740787506 -0.7049897313117981
-1.1240359544754028 -0.5043224692344666 -0.845333456993103
1.6709660291671753 0.33663684129714966 0.23880814015865326
2.2919840812683105 -0.39647504687309265 0.24033361673355103
0.2606402635574341 -0.4549162685871124 0.0619146004319191
-0.40845876932144165 -0.09543275833129883 -0.9062197804450989
-0.893797755241394 -0.2699054479598999 0.6941081285476685
0.1510336846113205 0.39360886812210083 -0.37340670824050903
-0.27100425958633423 0.5922583341598511 0.5099543333053589
-1.4888699054718018 -0.22443512082099915 -0.15844756364822388
0.7432295680046082 1.0639199018478394 -0.4847508370876312
-1.5272444486618042 0.9494059681892395 0.05810549482703209
-1.1460254192352295 0.29292190074920654 0.7325114607810974
-0.3941550552845001 0.43787217140197754 0.04150964692234993
-0.7382240891456604 0.9333018660545349 -0.0030970454681664705
2.431828498840332 0.564316987991333 -0.6371066570281982
2.3079981803894043 -0.4343247413635254 0.1270701289176941
-1.145887017250061 0.13769693672657013 -0.4386812150478363
2.1966445446014404 0.6553382277488708 0.03931504115462303
2.662848472595215 0.12085315585136414 0.020677927881479263
1.0169916152954102 -0.4112313687801361 0.7500252723693848
0.4031299352645874 0.5996047854423523 1.461825966835022
-1.6595062017440796 0.2511397898197174 -0.6668882966041565
-0.19446954131126404 -0.43003299832344055 -1.0888197422027588
0.9381744861602783 0.4625920057296753 -0.29098257422447205
-1.67830228805542 0.38488519191741943 -0.46653813123703003
-0.05855510011315346 0.5194764137268066 -0.7209685444831848
-0.2245858907699585 -0.4519912004470825 -0.6220067739486694
0.049229368567466736 0.25638166069984436 0.7511116862297058
-0.576834499835968 0.7797057628631592 -0.6838254332542419
3.104428768157959 -0.1790754348039627 0.04246295243501663
0.024133354425430298 0.636488676071167 -0.38695135712623596
0.9901964068412781 -0.089109405875206 -0.2753359377384186
0.4280070662498474 -0.08474540710449219 0.5927755832672119
0.36359599232673645 0.29951709508895874 0.775858461856842
-1.7416223287582397 -0.3744554817676544 -0.4014642536640167
1.3235512971878052 0.1951766312122345 0.5555686950683594
-0.03466423228383064 0.31919315457344055 0.4887450337409973
2.2439465522766113 0.16990627348423004 -0.22666601836681366
2.1474015712738037 -0.40114402770996094 0.3924862742424011
-3.0634536743164062 0.1862839311361313 -0.46971702575683594
0.3943772614002228 0.654013991355896 0.692530632019043
-0.7438273429870605 0.21894025802612305 -0.8239055275917053
-2.1289281845092773 0.8625437021255493 0.31424057483673096
0.8437912464141846 0.04615294933319092 0.3115639388561249
1.3571534156799316 1.0179035663604736 -0.5665555596351624
0.16240625083446503 1.0970909595489502 0.1116211861371994
-0.6736029982566833 0.6788788437843323 -0.30040979385375977
0.08980188518762589 0.2827623188495636 0.46267765760421753
-1.8149470090866089 0.40632569789886475 1.0636751651763916
-0.5851959586143494 0.5511227250099182 -0.963760495185852
0.3487507700920105 1.0511515140533447 0.6716247797012329
0.19259017705917358 0.10402853786945343 1.4610463380813599
1.7381843328475952 0.7002378106117249 -0.5691726207733154
1.6808459758758545 0.7074189186096191 -0.6184043884277344
-0.6348366141319275 0.5282048583030701 2.181361675262451
-1.5014151334762573 0.10108327865600586 1.351096749305725
1.6693155765533447 0.6995107531547546 -0.016320055350661278
0.656496524810791 0.7877928018569946 -0.22705315053462982
-2.7255795001983643 -0.11019530892372131 -0.17524610459804535
0.5712973475456238 0.6240196824073792 -0.4096916913986206
-0.3448454737663269 0.322303831577301 0.7758989334106445
-1.0069730281829834 0.37085723876953125 -0.4010321795940399
-0.44590699672698975 0.6119774580001831 -0.2626766562461853
1.9337680339813232 0.4040081799030304 -0.21293935179710388
0.07017573714256287 -0.40962153673171997 0.46577349305152893
-0.7092571258544922 0.4630091190338135 -0.47440674901008606
-1.2103562355041504 -0.3931272029876709 -0.9147169589996338
1.8376586437225342 -0.07357636094093323 0.4705604314804077
1.0107923746109009 -0.2521675229072571 -0.6833227276802063
-0.37835055589675903 0.8083146810531616 -1.0977970361709595
0.9768686890602112 0.33891475200653076 1.4342427253723145
-0.7188283801078796 1.0830931663513184 -0.594303548336029
-0.48470979928970337 0.27360212802886963 0.24203507602214813
-0.17835837602615356 0.5408473014831543 1.3667303323745728
0.8831971287727356 -0.20782792568206787 0.12016363441944122
1.7702676057815552 -0.058945342898368835 0.6061349511146545
0.6462159752845764 -0.5105183124542236 1.1032171249389648
0.6468250155448914 0.7425428628921509 0.10371718555688858
0.048569902777671814 0.7447608113288879 -0.821330726146698
1.1052989959716797 -0.5017105340957642 -0.6054232716560364
1.0014901161193848 -0.013224467635154724 -0.39537307620048523
1.2445608377456665 0.7717583775520325 1.369316577911377
0.06591564416885376 1.1064680814743042 -0.2719758450984955
-0.8073998689651489 -0.455202579498291 0.5458914041519165
1.3696539402008057 0.8570788502693176 0.363315224647522
-1.581479549407959 0.04386003315448761 0.5336851477622986
-0.6898947954177856 -0.4671695828437805 -0.49431246519088745
0.06673483550548553 0.5736597776412964 -0.33617591857910156
0.8597900867462158 0.524617075920105 -0.679318904876709
1.7357860803604126 -0.16648337244987488 0.4589708745479584
-0.2311340719461441 1.1182923316955566 0.18701015412807465
-0.9731974005699158 0.6684583425521851 -0.3712076246738434
-0.05596651881933212 0.09552223980426788 -0.26173511147499084
-1.468214988708496 -0.3574710190296173 -0.7453734278678894
2.5071892738342285 0.5718504190444946 0.9032009243965149
2.2489678859710693 0.3167606592178345 -0.7158455848693848
1.0322338342666626 -0.4529586434364319 -1.3761322498321533
2.049116373062134 -0.41563427448272705 0.8310021758079529
-2.3880391120910645 0.5088980197906494 0.5190584659576416
1.5342044830322266 0.07819344103336334 0.3543229103088379
-0.7256030440330505 1.044764518737793 0.9220102429389954
-2.205956220626831 -0.18736016750335693 1.18858003616333
1.3525713682174683 0.33353757858276367 -1.4893126487731934
2.323113203048706 -0.06357081234455109 0.7226476669311523
1.270912528038025 0.2680816054344177 0.7477909326553345
-0.812434196472168 -0.2119550108909607 -0.24456298351287842
0.6259006261825562 0.1889106184244156 -0.35080018639564514
-0.9821311831474304 -0.4305589199066162 0.6000118255615234
1.2238409519195557 0.7565467953681946 0.18860459327697754
0.21908485889434814 -0.4353176951408386 0.15322713553905487
-2.3572752475738525 0.7365434169769287 0.35018083453178406
-0.00794173777103424 -0.49141472578048706 -0.036033060401678085
-1.2225408554077148 0.639087438583374 -0.43435007333755493
-1.5989269018173218 -0.06000632047653198 0.00041584420250728726
0.26581159234046936 -0.41865432262420654 -0.13081902265548706
0.6079757809638977 -0.3331148326396942 -1.256251335144043
0.9693222045898438 -0.06733426451683044 -0.2219076156616211
1.6714251041412354 0.14493608474731445 0.45786431431770325
-2.7323849201202393 0.17331670224666595 0.31290319561958313
0.049277108162641525 0.9638922810554504 0.4499290883541107
0.4241330027580261 0.8631885647773743 -0.3976481258869171
-2.4684016704559326 -0.1227572113275528 0.48871636390686035
-1.6690542697906494 0.9175093173980713 -0.21397390961647034
0.9262455701828003 0.36620885133743286 -0.09124311804771423
0.6317397952079773 0.4979884624481201 0.5744838118553162
2.8372106552124023 0.05600544810295105 -0.1687871217727661
0.9119522571563721 0.11441721022129059 0.5749073624610901
1.3144774436950684 0.3312753736972809 -0.9319738149642944
0.6777267456054688 0.07325011491775513 0.015641558915376663
-0.7665824294090271 -0.17558786273002625 0.7733771204948425
0.1449040025472641 1.1576735973358154 -0.008021634072065353
-1.5058050155639648 0.8080266714096069 -0.15315616130828857
0.8650845885276794 0.04090134799480438 1.4540188312530518
0.3418133556842804 -0.20674194395542145 0.6702737212181091
-1.1251220703125 1.2045950889587402 0.010139291174709797
2.4618916511535645 0.42791232466697693 0.43060049414634705
-0.5656458139419556 -0.46030354499816895 -0.28727397322654724
-0.6011103391647339 -0.4415023922920227 -0.1067052036523819
3.18023419380188 0.2781873941421509 -0.4111167788505554
-0.9768770337104797 0.7199854850769043 0.39172792434692383
-2.7347278594970703 0.6397327184677124 0.06154166907072067
2.3801114559173584 0.08254437148571014 -0.939020574092865
2.4823477268218994 0.5751126408576965 -0.43094536662101746
0.8046308159828186 0.06204923987388611 0.48728010058403015
0.12098550796508789 0.4982798993587494 -0.006968128494918346
-2.171358823776245 -0.4397088289260864 -0.7755861282348633
-2.534379005432129 -0.005663827061653137 -1.1712682247161865
-0.27746662497520447 0.05380098521709442 0.46022695302963257
-0.6873540282249451 0.5360193252563477 1.016737937927246
-1.5298954248428345 -0.4845402240753174 -0.006816679611802101
-2.1312904357910156 0.7729683518409729 -1.3715193271636963
-0.6499033570289612 0.3240344822406769 -1.4582246541976929
1.0563175678253174 0.9634093642234802 0.49039164185523987
2.898452043533325 -0.1080721914768219 1.2553002834320068
0.08796243369579315 0.37089693546295166 -1.4483332633972168
2.7780544757843018 0.23087617754936218 0.35581716895103455
-0.8917040228843689 1.1320972442626953 -0.7474689483642578
2.224766969680786 0.6523524522781372 -0.002000645501539111
-0.7225056290626526 0.9325426816940308 -1.136365294456482
-0.4150576889514923 1.0906418561935425 -0.928808331489563
-0.12424834072589874 0.9507105350494385 0.9739057421684265
-0.2020428478717804 0.8200936317443848 0.4154973328113556
-2.1286683082580566 0.7782397270202637 1.443625807762146
-0.7478510141372681 -0.10313400626182556 1.3658987283706665
-1.6210681200027466 0.02284577488899231 1.2621549367904663
-1.7377636432647705 0.8937805891036987 0.47646835446357727
1.5784657001495361 -0.19831401109695435 -0.4385215938091278
0.8071768283843994 0.6082557439804077 -0.20400650799274445
0.1826750636100769 0.017765790224075317 -0.3666488826274872
0.8483725190162659 0.5306280255317688 -0.7793495059013367
0.20338615775108337 -0.42013272643089294 0.6572689414024353
-0.014422424137592316 -0.13285019993782043 -0.11788102239370346
1.488967776298523 -0.020367532968521118 -1.4877313375473022
0.3028828501701355 1.0049725770950317 -1.5354233980178833
0.4690804183483124 0.9303462505340576 0.3824014961719513
-2.263357639312744 -0.004581436514854431 -1.3726037740707397
0.8987301588058472 0.8958492279052734 1.5915014743804932
0.509555995464325 -0.2776314616203308 1.424502968788147
-1.5022591352462769 0.8343641757965088 -0.24274559319019318
0.9311985969543457 -0.2704899311065674 -1.396963357925415
0.16454654932022095 0.17788165807724 0.20773360133171082
-1.242549180984497 0.04481157660484314 -0.0645713359117508
1.5346930027008057 -0.4924620985984802 0.18039780855178833
0.5931827425956726 1.101256012916565 -0.6035038232803345
0.40938955545425415 1.0840870141983032 0.2306758314371109
-0.9261744022369385 0.6958063244819641 -1.4213199615478516
0.5564612150192261 1.0620354413986206 -0.10180890560150146
0.8765606880187988 -0.46910279989242554 -0.5321323871612549
1.2709835767745972 0.08201225101947784 0.3423044681549072
1.4269826412200928 0.11765630543231964 0.11338606476783752
-0.5705177187919617 -0.16925190389156342 0.5369768738746643
-1.1074326038360596 0.10680888593196869 0.8300706744194031
2.865370988845825 -0.305431067943573 0.9030933380126953
0.5856261253356934 0.244299054145813 -1.0457954406738281
-1.8144991397857666 -0.26646655797958374 0.7180652618408203
-2.122178077697754 -0.4228442907333374 0.8419129848480225
-1.1389654874801636 0.47068044543266296 -1.398542046546936
1.9577032327651978 0.19800397753715515 -1.2429701089859009
1.4683446884155273 -0.431507408618927 -0.16148120164871216
1.6073453426361084 0.3634214699268341 -0.9072805643081665
-1.2623577117919922 0.27953392267227173 0.5227044224739075
0.9847005009651184 -0.44869494438171387 -0.6997308135032654
0.7766437530517578 1.1156967878341675 -1.1732628345489502
0.6139014363288879 0.5838610529899597 -0.4068986773490906
2.889897584915161 0.01851983368396759 0.11919565498828888
-2.0222668647766113 0.6614499688148499 -0.08685562014579773
-0.4388881027698517 1.1017307043075562 -0.47450777888298035
1.0754964351654053 0.04923689365386963 -1.3817600011825562
-1.1516629457473755 1.0352816581726074 -0.45736804604530334
1.5512168407440186 0.49768388271331787 0.27195823192596436
1.7938711643218994 -0.10908441245555878 -0.7637335658073425
1.6527941226959229 0.5180507302284241 -1.0816608667373657
-1.3700470924377441 -0.4369887411594391 0.47486239671707153
2.338317394256592 -0.006699606776237488 -0.8656563758850098
2.2842648029327393 0.2160637080669403 -0.7380773425102234
1.0841237306594849 -0.47890806198120117 -0.6636335849761963
-0.4722345769405365 -0.396934449672699 0.031417474150657654
-1.169962763786316 0.12536944448947906 -0.5165910720825195
0.12194997817277908 0.21514329314231873 0.8825298547744751
0.2535131573677063 -0.0042934417724609375 -0.4496486783027649
-2.2003462314605713 -0.34777241945266724 -0.5245758295059204
1.1467927694320679 -0.220572829246521 -0.29553091526031494
-2.535240650177002 -0.18473941087722778 0.3265778124332428
-0.124754898250103 0.19735366106033325 0.6223134398460388
2.289768934249878 -0.5014877319335938 -0.01898115687072277
0.19529812037944794 0.051005393266677856 -0.5520798563957214
-2.250174045562744 -0.3757079839706421 0.4293709993362427
-1.3090088367462158 -0.3985576629638672 -1.146891713142395
1.0292741060256958 0.3624022901058197 0.83763188123703
2.253065824508667 -0.4108254909515381 -0.22629240155220032
0.5473675727844238 0.47584301233291626 1.3937745094299316
3.222299337387085 0.27503702044487 0.09836164861917496
-0.0019360780715942383 0.8322686553001404 -0.3440149426460266
0.9711940288543701 -0.16795401275157928 0.1227954626083374
-2.0619115829467773 0.17103978991508484 0.7384061813354492
1.1803574562072754 0.28532278537750244 -0.09223344177007675
0.6350651383399963 0.21767663955688477 -1.1140998601913452
0.019762687385082245 -0.4264843761920929 -0.0145658478140831
0.2299618422985077 1.1213573217391968 0.29202982783317566
1.5348211526870728 0.5721810460090637 0.7760022878646851
0.9696144461631775 0.46650007367134094 0.6919182538986206
2.1300318241119385 -0.19962824881076813 -1.353804349899292
-1.1526877880096436 -0.4082378149032593 -0.524412214756012
1.059139609336853 -0.19429317116737366 -0.6774146556854248
2.8349781036376953 -0.43979689478874207 0.666822075843811
-0.4635804295539856 0.34726980328559875 -1.0967602729797363
2.96468448638916 0.47143036127090454 0.14185954630374908
0.3213166892528534 0.16880466043949127 1.313536524772644
0.8130325078964233 0.09111987054347992 0.10384779423475266
1.0320656299591064 -0.4400094747543335 -1.2813688516616821
2.231670379638672 0.50440514087677 -0.3742380440235138
0.6645572185516357 0.2652716040611267 -0.4465773105621338
-0.4632722735404968 -0.4412797689437866 0.14339172840118408
0.33232200145721436 0.6742558479309082 -0.4274333715438843
1.5386896133422852 0.25097447633743286 0.4784916341304779
-0.7532270550727844 1.050863265991211 0.19311879575252533
0.896331250667572 -0.4745692014694214 0.6662159562110901
-3.232524871826172 0.7672027349472046 -1.3338907957077026
-1.6734081506729126 -0.1631614863872528 0.46222010254859924
-1.8148446083068848 0.42410165071487427 0.7717844247817993
-1.8466360569000244 0.7185352444648743 0.22102485597133636
-0.6021867990493774 -0.4716399312019348 0.07977047562599182
0.9811675548553467 0.9964465498924255 0.1518344134092331
-1.3044301271438599 0.5449357628822327 -0.4955112636089325
1.2913062572479248 -0.4464438259601593 0.6000723242759705
1.656484842300415 0.7769909501075745 1.1992586851119995
0.02346600592136383 0.0956755131483078 1.4838354587554932
1.302329421043396 0.47234290838241577 -0.06353554874658585
0.2996569871902466 -0.44404682517051697 0.308582067489624
0.9913661479949951 0.02195259928703308 0.12358071655035019
-1.108991265296936 -0.45116126537323 -0.13123078644275665
-1.6877050399780273 -0.39772602915763855 -0.17477938532829285
0.515336811542511 0.4072890281677246 0.8467627167701721
0.3190406560897827 -0.4752834737300873 -0.4755191206932068
-0.17734993994235992 0.9982405304908752 0.33244362473487854
-1.0843911170959473 -0.3206389546394348 0.6724131107330322
0.4575207829475403 1.0481570959091187 -0.22830744087696075
-1.9154287576675415 0.4536275863647461 -1.4058079719543457
0.6214689612388611 0.8831025958061218 -0.023664943873882294
-1.4287110567092896 -0.4334288239479065 0.24474938213825226
-2.068603038787842 0.38874316215515137 0.4837782084941864
2.1091532707214355 0.20013949275016785 0.240240216255188
2.2414698600769043 -0.3951606750488281 1.2647757530212402
-0.39051544666290283 0.6470867395401001 0.7078126072883606
-0.23880581557750702 0.7141740322113037 -0.3713589906692505
-1.2697864770889282 0.9249114990234375 0.049696579575538635
1.6601243019104004 0.19794803857803345 -0.25592494010925293
-2.0042409896850586 0.249863862991333 -0.3018522262573242
-0.9277244806289673 -0.09276793897151947 0.9663084149360657
1.6368491649627686 0.7265310287475586 -0.7193297743797302
0.7831417918205261 0.9281865954399109 0.3463627099990845
0.7917150855064392 0.6749641299247742 -1.2323925495147705
1.1567643880844116 -0.42667168378829956 -0.19130611419677734
-0.9215229153633118 -0.47728991508483887 -0.8614189624786377
1.8935692310333252 0.384270042181015 -0.7757894992828369
1.1058235168457031 0.2161024957895279 -0.732763946056366
-1.7460641860961914 0.19391588866710663 0.23600856959819794
-1.2388995885849 0.5638663172721863 -0.7164048552513123
-1.2117252349853516 -0.4305992126464844 0.705847978591919
0.2873481512069702 -0.4674455523490906 0.6247435808181763
-1.6284255981445312 0.5335142612457275 -0.784761905670166
-1.7377876043319702 0.31203562021255493 -0.10591776669025421
-0.5843774676322937 -0.4741670489311218 0.6093125939369202
1.0864942073822021 0.3344486951828003 0.23277276754379272
-1.339159369468689 0.7866370677947998 -1.3264193534851074
0.1403079628944397 -0.026652276515960693 -0.1641494333744049
-0.2754867970943451 0.1284210979938507 1.406680941581726
-0.28600022196769714 1.2698490619659424 0.6380624771118164
0.18638142943382263 1.100487232208252 0.18503437936306
-0.5377798676490784 -0.11406354606151581 0.14482039213180542
1.4178563356399536 0.6534210443496704 1.5417115688323975
-0.3877633213996887 0.7156374454498291 -0.28016555309295654
-0.2265385240316391 -0.027612924575805664 -0.4470424950122833
0.7135574221611023 -0.10025280714035034 -0.3298499286174774
-0.7013371586799622 -0.2519448399543762 -0.01365642249584198
-0.02284163236618042 1.126204013824463 0.22554565966129303
0.34772464632987976 -0.1783389449119568 0.43704622983932495
-1.808558702468872 0.8124274611473083 0.4823066294193268
-0.34537839889526367 0.8578903675079346 0.3075771927833557
-2.143524646759033 0.6147259473800659 0.24742324650287628
-1.7208863496780396 -0.11772136390209198 -0.1915120929479599
-0.19860565662384033 0.6677537560462952 0.9783443808555603
-1.9759677648544312 0.2942278981208801 0.7845757007598877
1.1784967184066772 -0.05790896713733673 0.774188756942749
-0.9908487796783447 0.44427424669265747 -0.6666899919509888
1.694819688796997 0.5509149432182312 -1.4211639165878296
1.6802566051483154 -0.18622425198554993 -0.530134379863739
1.5225510597229004 -0.1422821432352066 -0.19491754472255707
1.749803900718689 -0.1781078726053238 0.4425519108772278
-2.5942370891571045 0.5752216577529907 -0.16479294002056122
-0.005626808851957321 0.4336841106414795 0.07053107023239136
1.107825756072998 0.4521511197090149 1.0052413940429688
-0.31333789229393005 0.5748170018196106 -0.5633688569068909
-0.6427892446517944 -0.5144947171211243 0.5705952048301697
-1.4228606224060059 0.5897248983383179 -0.6624053716659546
0.9064621329307556 -0.40974459052085876 1.0116561651229858
-2.1458756923675537 0.06356582045555115 -0.02649577707052231
2.7997097969055176 -0.02807275950908661 -0.5758847594261169
-0.4787726402282715 1.053164005279541 -1.2566287517547607
1.4785679578781128 0.48181965947151184 -0.8819014430046082
0.6893504858016968 0.5988941192626953 0.09380462765693665
2.817513942718506 -0.5989261865615845 0.3563723862171173
-0.004672974348068237 -0.23384970426559448 1.1313685178756714
-0.42424747347831726 0.49815765023231506 -0.04574296623468399
-2.0186362266540527 0.9170950055122375 -0.45327290892601013
-0.9775823354721069 0.5473664402961731 -0.29781588912010193
-2.399463653564453 0.06586344540119171 0.7213734984397888
-2.3793017864227295 0.8169764280319214 -0.49439477920532227
-1.479259729385376 -0.413636714220047 -1.0480144023895264
-0.7627220153808594 0.029586851596832275 1.3314547538757324
-0.6228564977645874 1.0604662895202637 0.9557071924209595
2.175689458847046 0.24537542462348938 -1.2083799839019775
1.077895164489746 -0.2826732397079468 -0.5051255822181702
-0.15993069112300873 1.119794249534607 0.5812914371490479
-0.024819504469633102 1.0744184255599976 0.7586395740509033
-2.6623268127441406 0.14378012716770172 -0.1805158108472824
0.601428747177124 -0.44010233879089355 0.03880387917160988
-0.9170522689819336 0.24505241215229034 0.028668243438005447
-1.1377836465835571 0.30968791246414185 -1.433136224746704
-1.7610492706298828 -0.47891512513160706 -1.0913053750991821
-1.2183181047439575 -0.44323354959487915 -1.181421160697937
-2.1292507648468018 0.8072811961174011 0.5814111828804016
0.33337077498435974 0.4368581175804138 1.2177900075912476
2.7890923023223877 -0.08481523394584656 -0.47381943464279175
-1.2979884147644043 -0.4297531545162201 0.32691410183906555
2.274384021759033 0.2823190689086914 0.48980987071990967
-2.1165380477905273 0.05083766579627991 -0.8315224051475525
-1.3978266716003418 -0.12318116426467896 -0.6049197316169739
-0.1834193468093872 -0.2225126177072525 0.8408808708190918
0.4221680462360382 1.1148579120635986 0.2060110867023468
-0.1653333604335785 -0.11326713860034943 0.906268835067749
-0.5464842915534973 0.39738383889198303 -0.008711624890565872
-0.4515979588031769 0.3406502604484558 -1.4722787141799927
1.9644179344177246 0.1729731410741806 -0.049526844173669815
-1.9169645309448242 0.8665421009063721 -0.7577661871910095
0.9591383337974548 0.6957661509513855 -0.2995114028453827
-0.5147247314453125 0.20141275227069855 0.8213748931884766
-1.8915061950683594 -0.39132046699523926 -0.6615990996360779
-0.10719162225723267 -0.41884711384773254 -1.1222310066223145
0.16959357261657715 -0.4475204050540924 1.3270376920700073
1.1849371194839478 0.3335067927837372 0.37799617648124695
2.4227347373962402 -0.08349324762821198 -0.5877209901809692
-0.0224783755838871 -0.4689348340034485 1.1133131980895996
-0.24542182683944702 -0.44532153010368347 -0.8312650918960571
-0.45086830854415894 0.40745532512664795 -0.8660063147544861
1.0236446857452393 0.05275912582874298 -0.3451959192752838
0.1615634560585022 -0.45824405550956726 0.6189829111099243
-2.199093818664551 0.7064465880393982 -0.2689181864261627
-2.235830307006836 -0.060461267828941345 -0.04683560132980347
1.6427487134933472 0.08083178102970123 0.7237071990966797
-0.7672917246818542 0.8781037926673889 1.2241036891937256
2.331962823867798 0.5431255102157593 -0.5814613103866577
2.018296480178833 0.6320550441741943 -0.6917904019355774
0.8639310598373413 0.28628847002983093 -0.7930688858032227
-0.46634531021118164 0.8449862599372864 -0.9087036848068237
-2.0305662155151367 0.8015145063400269 0.4004804790019989
0.56080561876297 0.46784090995788574 -0.15161651372909546
1.101265788078308 0.013276979327201843 -0.5571869015693665
-0.4487369656562805 0.7744479775428772 0.6336492300033569
-1.4455596208572388 0.21120598912239075 0.2774748206138611
-1.7626656293869019 0.33668026328086853 0.1651998907327652
-0.3742762804031372 1.1122993230819702 0.1206783652305603
0.08306105434894562 0.8593572378158569 0.3099137544631958
-0.976560652256012 -0.4925527572631836 -0.2326749861240387
1.9704591035842896 -0.45226430892944336 0.4112788736820221
-3.487253189086914 0.5325876474380493 0.4185897707939148
-1.9920408725738525 -0.2952513098716736 0.09774869680404663
-0.09530463069677353 0.6808813810348511 -0.7244906425476074
-0.758922815322876 0.15783382952213287 0.42829272150993347
-1.0607694387435913 0.5232240557670593 0.6085538864135742
-2.5244150161743164 0.1914009004831314 -0.40944740176200867
0.9366747140884399 -0.04841850697994232 -0.7901214957237244
-1.5613595247268677 0.7857853174209595 1.1697101593017578
-1.694419026374817 0.7102565765380859 -0.3112795054912567
-1.173255443572998 -0.42471927404403687 1.297638177871704
-0.8216531872749329 0.11999398469924927 0.45544901490211487
-0.7060469388961792 0.8621634840965271 -1.1519763469696045
-0.9573389291763306 -0.5072134137153625 -0.0780315175652504
0.4565712511539459 0.7051755785942078 -0.09487073123455048
0.8650015592575073 0.2207648754119873 0.7186057567596436
-2.481527805328369 0.8076643943786621 -0.8250170350074768
0.2910912036895752 0.8669964671134949 -0.32107657194137573
-1.1423273086547852 0.6227349042892456 -1.1769047975540161
1.0740163326263428 -0.07286415994167328 1.4608941078186035
-0.8732978701591492 0.07851728796958923 -0.9247861504554749
0.5831925868988037 -0.4395434260368347 -0.27506494522094727
0.6607887744903564 0.40799546241760254 -0.8067817091941833
0.7336066961288452 0.6750102043151855 -0.45288121700286865
1.0531330108642578 -0.4589603543281555 0.13320223987102509
1.6224421262741089 0.3196202218532562 1.3632770776748657
-1.9901608228683472 -0.32462453842163086 1.5556557178497314
1.7391915321350098 0.7083492875099182 -0.5062230825424194
-0.15833529829978943 0.4639242887496948 -0.3915647566318512
-0.20718154311180115 0.5181931853294373 0.7118735313415527
0.32791867852211 -0.04714277386665344 -1.5477678775787354
-1.657155156135559 -0.0608496367931366 1.658202886581421
-0.9360942244529724 -0.03328217566013336 -1.0432106256484985
2.551215887069702 0.02223825454711914 -0.3587002158164978
-0.02831488847732544 -0.4583876430988312 -0.15158435702323914
1.5979646444320679 0.7569082975387573 1.2588462829589844
-1.472769856452942 0.5575462579727173 0.85594242811203
-1.074812412261963 0.9355257749557495 -0.16128788888454437
-2.81173038482666 -0.21948449313640594 0.24613815546035767
2.367112874984741 0.6452073454856873 -0.7398249506950378
-2.67048978805542 0.3027697503566742 0.613369345664978
0.7732027769088745 0.5953977704048157 -0.8153401613235474
-0.5580381751060486 0.8013185262680054 0.6544776558876038
1.8926140069961548 -0.40613874793052673 -0.11360086500644684
2.4783058166503906 0.3233645558357239 0.01024477556347847
-1.6470451354980469 0.02874608337879181 -0.5417957901954651
-0.10277891159057617 0.6069846749305725 0.7661850452423096
0.7264256477355957 0.5686960220336914 0.47095513343811035
-0.4978462755680084 0.4804252088069916 1.36526620388031
2.0220184326171875 -0.3962949812412262 0.29217731952667236
2.5709877014160156 0.20924004912376404 -1.640281319618225
-0.6746160387992859 -0.33069145679473877 -0.8577011227607727
-0.41649508476257324 -0.21310162544250488 -1.148489236831665
-1.0074373483657837 -0.2586599588394165 0.1872706562280655
0.3887264132499695 0.5649459362030029 -0.3565615713596344
0.5090480446815491 0.817268431186676 1.4376569986343384
-2.2480309009552 0.9272300004959106 -0.14647835493087769
-2.224208116531372 0.1946658045053482 0.26157474517822266
-2.1204843521118164 -0.14151428639888763 0.2716004550457001
0.24383068084716797 -0.4470597207546234 -0.9139813780784607
-0.2810809910297394 -0.45835816860198975 -0.30704766511917114
1.9928189516067505 0.27158406376838684 0.12348785996437073
-0.6543968319892883 -0.11952981352806091 0.9169914722442627
-0.4736669957637787 0.9729164838790894 0.42539265751838684
1.0502411127090454 0.5252722501754761 -0.5960972309112549
-1.2243313789367676 -0.3977263569831848 1.1641565561294556
-0.5266368389129639 -0.13199040293693542 -1.1595230102539062
-0.8479647040367126 -0.1278289556503296 0.2740018665790558
-0.04515185207128525 0.48735302686691284 1.4778717756271362
-0.6577405333518982 0.5175002217292786 0.07556930184364319
-0.4707384705543518 -0.44836920499801636 0.07660817354917526
2.410094738006592 0.03057388961315155 -0.886851966381073
-1.938485026359558 -0.4531436860561371 0.7257336378097534
2.365571975708008 0.6850390434265137 -0.16815221309661865
1.5225517749786377 -0.41402503848075867 0.8669530153274536
-2.0621988773345947 -0.44787025451660156 0.283506840467453
0.5526173114776611 0.6468982696533203 0.11596459895372391
-1.2958241701126099 1.0251926183700562 -0.27611079812049866
-2.6269919872283936 -0.2576873302459717 -1.0838016271591187
1.4095675945281982 -0.5125196576118469 -1.0753259658813477
-2.644059419631958 0.5604634284973145 0.24205197393894196
0.3922973573207855 -0.36619168519973755 1.4074249267578125
0.7585917711257935 0.6701694130897522 0.04391906410455704
-0.8645329475402832 0.8439098596572876 -1.333885669708252
-0.9501831531524658 -0.39562588930130005 -1.031761646270752
1.4807325601577759 0.6313973069190979 -0.4713899493217468
-0.7241663336753845 -0.13126502931118011 -1.385744571685791
-1.6630126237869263 0.8549424409866333 -0.35120460391044617
0.57430499792099 0.18528124690055847 -1.332200527191162
1.1061409711837769 0.022022858262062073 -0.5898116827011108
1.499875783920288 0.7346134185791016 -0.15735527873039246
-0.5338079333305359 -0.677643895149231 -0.6654973030090332
1.3115800619125366 0.32611435651779175 -0.14686402678489685
2.613708734512329 0.2428526133298874 -0.5394567251205444
-0.753130316734314 1.0705995559692383 0.081395722925663
1.3374379873275757 0.4890637993812561 0.612402081489563
-0.41778647899627686 -0.04592984914779663 0.2672678828239441
1.1175764799118042 -0.4435376226902008 0.6765913367271423
-1.4025793075561523 -0.4084041118621826 -0.4775208830833435
-1.11281156539917 0.8011311888694763 0.5797266364097595
0.9071181416511536 0.15503859519958496 1.4352421760559082
-1.1994484663009644 -0.13562992215156555 1.1163768768310547
2.476844549179077 -0.3275654911994934 0.20307864248752594
1.388409972190857 0.018378064036369324 1.0504093170166016
-1.125072717666626 -0.16411882638931274 -0.9784913063049316
-0.9208963513374329 1.2329920530319214 -0.9150660037994385
2.0032856464385986 0.6293760538101196 -0.040703557431697845
-0.3086681067943573 0.5440917611122131 -0.8646765947341919
0.8977499604225159 0.8918312788009644 0.7299806475639343
-1.5002622604370117 0.7966890335083008 -0.26017269492149353
0.3072851300239563 0.2032565176486969 1.4384751319885254
-0.8608090877532959 0.881178617477417 1.416318416595459
-1.592651605606079 -0.43082091212272644 0.19737835228443146
-1.7503314018249512 -0.3836115300655365 -0.033609021455049515
-1.0746510028839111 0.43361568450927734 1.0454570055007935
-0.935179591178894 -0.4165644347667694 -0.2652539014816284
-0.49925994873046875 0.056441813707351685 -0.5614017844200134
1.0215182304382324 -0.43559443950653076 -0.02983759343624115
0.932070791721344 0.5761443376541138 1.0214972496032715
0.6280354261398315 0.7360034584999084 -0.06957029551267624
0.7283563017845154 0.8824278712272644 -0.5874776244163513
-0.7022951245307922 -0.4143112301826477 -0.16955684125423431
2.2820701599121094 -0.42079323530197144 -0.05853485316038132
1.3004109859466553 -0.22655107080936432 1.4777030944824219
-0.1744115948677063 -0.414176881313324 -0.5089851021766663
1.792142629623413 0.6659232378005981 -0.42825573682785034
-1.7409117221832275 0.6768305897712708 0.2325427383184433
-1.484836220741272 0.9078232049942017 1.0047390460968018
-2.6304235458374023 0.2979070842266083 -0.18142864108085632
0.4475652873516083 0.9004424810409546 0.7442423701286316
0.7592272758483887 0.06630519032478333 0.09151534736156464
2.0088634490966797 -0.4126001298427582 0.05237876996397972
