ply
format ascii 1.0
element vertex 808
property float x
property float y
property float z
end_header
-0.11627349257469177 0.650321364402771 -0.0330912210047245
-0.9373010396957397 0.5011729001998901 -0.9525283575057983
-1.5516242980957031 0.26588165760040283 -0.3109205961227417
0.4166019856929779 -0.18560877442359924 -0.49981066584587097
-0.611693799495697 0.2449447065591812 1.1367908716201782
2.3185322284698486 0.3170549273490906 0.7259914875030518
0.22226394712924957 0.03001299500465393 -0.2113528698682785
1.634407639503479 0.4420681893825531 0.13332735002040863
0.36447522044181824 -0.24240756034851074 0.188928484916687
1.2642699480056763 0.2631361484527588 -0.3804030418395996
-0.4654284417629242 -0.27731263637542725 -0.48621129989624023
0.8828895688056946 -0.2869710922241211 0.24562770128250122
-0.7712166905403137 0.2928098440170288 -0.18979978561401367
0.06786469370126724 -0.12978185713291168 0.10145587474107742
-1.7856016159057617 -0.19487488269805908 -0.4684765934944153
1.2448217868804932 -0.15881319344043732 0.4097909927368164
2.294114112854004 -0.051770105957984924 0.25767776370048523
1.5308291912078857 -0.03140023350715637 0.35318779945373535
0.5342376828193665 0.6379071474075317 -0.49424776434898376
2.703115701675415 -0.24550703167915344 -0.02390153706073761
2.271389961242676 0.534058153629303 -0.033169958740472794
0.32858020067214966 0.7214503884315491 0.8819937705993652
1.0362045764923096 0.43353772163391113 0.28695130348205566
0.038811199367046356 0.7768772840499878 -0.447750061750412
1.8358181715011597 -0.2884046733379364 0.10771821439266205
0.21346676349639893 -0.27797994017601013 0.5392453670501709
-1.4016879796981812 0.5932624340057373 -0.38840147852897644
1.5292739868164062 0.23428548872470856 -0.2781940996646881
-0.12074819207191467 0.19851991534233093 -0.1669575572013855
-0.6624388694763184 0.6646600365638733 0.5905678272247314
0.7946672439575195 0.07591961324214935 0.2747352123260498
1.8941597938537598 0.25055938959121704 0.7370553016662598
-1.802455186843872 -0.02879682183265686 -0.6651990413665771
2.764620542526245 0.25971031188964844 0.12677301466464996
1.872428297996521 -0.08323663473129272 0.19912627339363098
-0.42424583435058594 -0.10130111873149872 0.2648995816707611
1.717203974723816 0.6214014887809753 0.7596091032028198
1.4547184705734253 0.5819511413574219 -0.0944141149520874
1.6087250709533691 0.155298113822937 0.7467374801635742
-0.3447452187538147 -0.08319035172462463 0.004289255477488041
-0.16286468505859375 -0.20101270079612732 0.09606017917394638
-0.3367241322994232 -0.26544061303138733 -0.2851563096046448
0.43909212946891785 0.7491829991340637 -0.33136463165283203
-1.2988702058792114 0.7602386474609375 -0.5011599063873291
1.4342775344848633 -0.2559111416339874 0.5566155910491943
-1.3468351364135742 0.5739209055900574 -0.7684431672096252
-0.8303908705711365 0.761714518070221 -0.3517667353153229
-2.6985790729522705 -0.15327729284763336 0.5971604585647583
2.8531479835510254 0.00768965482711792 0.19229722023010254
0.04346201941370964 0.5094467401504517 -0.1179116889834404
-1.2856262922286987 -0.26661771535873413 -0.6995157599449158
0.3902074694633484 -0.26940208673477173 0.06186577305197716
1.2744271755218506 0.35210660099983215 -0.024508249014616013
-1.7352858781814575 0.6523948907852173 -0.1223623976111412
-1.3460521697998047 0.22974646091461182 -0.5484468340873718
-1.5527817010879517 0.5573250651359558 -0.020878370851278305
-1.0298476219177246 0.14863675832748413 -0.06278575211763382
-1.37790048122406 0.017117485404014587 -0.680375337600708
-1.2072678804397583 -0.31082266569137573 0.24249707162380219
2.1889195442199707 0.424042284488678 -0.898062527179718
2.1560251712799072 0.4700547456741333 -0.313271701335907
-1.8967236280441284 0.11284162104129791 0.7798683643341064
0.5295038819313049 0.27230536937713623 0.17099125683307648
0.048557087779045105 -0.24211443960666656 -0.20999816060066223
-2.2519242763519287 0.09300142526626587 0.6616355180740356
-1.3771533966064453 -0.23400768637657166 0.06691926717758179
1.925445795059204 0.3170400857925415 -0.5222851037979126
3.0961644649505615 -0.19197282195091248 -0.10830599069595337
0.7733336687088013 -0.12286953628063202 -0.23716171085834503
2.6955010890960693 -0.0526849627494812 0.17799873650074005
-1.2395167350769043 0.6892654299736023 -0.19153019785881042
1.50386381149292 0.6318095922470093 -0.043876178562641144
2.4172515869140625 -0.3246307969093323 0.39597001671791077
-0.5624195337295532 0.27277445793151855 0.0233493372797966
2.4315569400787354 0.5251723527908325 0.23578840494155884
0.37931668758392334 0.5084601640701294 0.29576554894447327
-0.14994169771671295 -0.24328112602233887 -0.6563664078712463
0.965856671333313 0.1774410903453827 -0.09864747524261475
0.5576592683792114 0.3509378731250763 -0.20406024158000946
-0.7838698625564575 0.03733958303928375 -0.18099279701709747
0.22952422499656677 0.2440643161535263 -0.5737530589103699
-0.1301228255033493 0.4238849878311157 -0.5246089100837708
-0.3840944170951843 0.6781453490257263 -0.45996594429016113
-0.16722452640533447 0.0546351820230484 -0.19324937462806702
-0.21781805157661438 0.6770501136779785 0.9290876388549805
-0.2057637870311737 0.556572675704956 0.40114468336105347
1.9593313932418823 0.17842964828014374 -0.5192444324493408
0.8184137344360352 0.7768107652664185 0.14807887375354767
-1.8300750255584717 0.7471991777420044 -0.9770321249961853
0.6095523834228516 0.15034066140651703 0.34514015913009644
-0.8848729133605957 0.5188319087028503 0.03597434237599373
1.5431132316589355 0.2004837691783905 0.8140882253646851
0.009982157498598099 0.45870423316955566 -0.3073555827140808
-1.168418049812317 0.30448058247566223 0.335100382566452
0.14179018139839172 0.3447611927986145 -0.000671484274789691
2.114048480987549 -0.29946720600128174 0.5051622986793518
0.40967798233032227 0.7646074295043945 -0.1332005113363266
0.2620324194431305 0.5861189365386963 0.6790154576301575
-0.16116784512996674 -0.24257409572601318 0.7249071002006531
0.3438173830509186 -0.0975768119096756 -0.12585049867630005
-0.7824203372001648 0.7382894158363342 -0.19119584560394287
-0.552048921585083 0.7610049247741699 -0.4839431941509247
-0.2515493929386139 0.10816949605941772 -0.1910606324672699
0.18340809643268585 -0.008643120527267456 -0.9371305704116821
0.8879808783531189 0.5725167989730835 0.6445491909980774
-0.6830199956893921 0.14850901067256927 0.27120065689086914
-0.2708783745765686 0.7721240520477295 -0.36208271980285645
-0.9608031511306763 -0.23575057089328766 -0.4626007378101349
-1.9969536066055298 0.169622540473938 0.0933331549167633
2.1913745403289795 0.24288545548915863 -0.033271923661231995
-1.655537486076355 0.6659422516822815 0.5323821306228638
1.2547589540481567 0.7140917181968689 -0.4422314465045929
-1.377027988433838 -0.22314903140068054 0.6597046852111816
-0.12739403545856476 -0.2375546544790268 -0.37695062160491943
0.7439999580383301 0.19085662066936493 0.5779334902763367
-0.666313111782074 0.2743956744670868 0.6507914662361145
2.322038412094116 0.3295404613018036 -0.9986714124679565
2.259605646133423 0.2764468193054199 -0.7980097532272339
0.4952339828014374 0.5196391940116882 0.42195916175842285
-0.21019655466079712 -0.2581270933151245 -0.2624787986278534
-2.4460182189941406 0.14373621344566345 -0.5783160924911499
2.882869243621826 0.4388752579689026 0.6782358288764954
-1.522336721420288 0.22392185032367706 0.4157598316669464
-1.6558327674865723 0.17657029628753662 0.32074010372161865
-0.8111387491226196 -0.20128653943538666 0.722399115562439
1.5913536548614502 -0.3180333971977234 -0.04173647612333298
1.4050228595733643 0.510627031326294 -0.12143687903881073
-0.1852819174528122 -0.040620654821395874 -0.10930497199296951
-0.934242308139801 0.4984682500362396 -0.24801672995090485
0.2050841748714447 0.7677429914474487 0.16148430109024048
2.251987934112549 0.01896609365940094 0.0756935402750969
1.7674062252044678 0.7083149552345276 -0.047464966773986816
1.5285283327102661 0.470137357711792 -0.7988805770874023
1.8262640237808228 -0.11010569334030151 -0.7974809408187866
-2.216546058654785 0.20061887800693512 0.02726179175078869
-0.9588308930397034 0.7422271966934204 0.3805246353149414
0.7152628302574158 0.7951040267944336 0.3239971399307251
-0.4726179540157318 0.7527640461921692 0.008603065274655819
1.3653018474578857 0.7520599961280823 -0.38744720816612244
2.17606520652771 -0.05650429427623749 -0.9125520586967468
1.1906139850616455 0.36380141973495483 -0.5524327754974365
0.924699604511261 -0.2414838671684265 -0.4591798186302185
-0.33763593435287476 0.4255366325378418 0.032987408339977264
0.7873097658157349 0.018856987357139587 -0.6638131737709045
1.7860170602798462 0.498599648475647 1.0223554372787476
0.8683291077613831 0.7532497048377991 -0.5488165616989136
2.661998987197876 0.23214343190193176 0.5069264769554138
1.2367957830429077 0.14842966198921204 -0.8907504677772522
0.420398086309433 -0.26476162672042847 0.8548954725265503
-0.5860814452171326 0.7305443286895752 0.3185655176639557
-1.5364282131195068 -0.23282906413078308 0.9317372441291809
-0.2677261531352997 0.02344842255115509 -0.17806582152843475
3.657803773880005 0.39767923951148987 -0.10174552351236343
2.2173233032226562 -0.191846564412117 0.7763721346855164
-0.13840508460998535 -0.2485470175743103 -0.16184040904045105
-0.08933743834495544 0.002415701746940613 0.8690862655639648
-1.137028455734253 -0.06308004260063171 0.11914446949958801
0.5829080939292908 0.39330482482910156 -0.18129833042621613
-1.0786409378051758 -0.017242595553398132 0.9337623715400696
-0.30033382773399353 0.2567174732685089 -0.1563750058412552
-1.2874096632003784 -0.08974011242389679 0.20794595777988434
2.5869882106781006 0.4910545349121094 -0.015644406899809837
1.317827820777893 0.07487797737121582 0.422016978263855
1.8590062856674194 0.4514445960521698 -0.7808444499969482
-0.16819997131824493 -0.09015926718711853 0.13185739517211914
1.3544591665267944 0.4314754605293274 0.7231060862541199
1.0808651447296143 -0.02064816653728485 -0.12011296302080154
0.175713911652565 0.11539395153522491 -0.24574753642082214
-0.3317033350467682 0.2926419973373413 1.1018102169036865
1.5425693988800049 0.15694408118724823 -0.13527794182300568
0.7092413306236267 0.5069252252578735 0.3679354786872864
-1.1034103631973267 0.3401738703250885 -0.27969953417778015
-2.0129683017730713 -0.0866197943687439 -0.7776116728782654
0.8739801645278931 -0.134743794798851 0.5261452794075012
1.0621122121810913 0.023139849305152893 0.9636038541793823
1.0901461839675903 -0.25185826420783997 -0.5574976205825806
1.4821035861968994 0.3111974596977234 0.0723496600985527
0.0850948691368103 -0.2501738369464874 -0.2463705837726593
-1.1506818532943726 -0.08395449817180634 0.502095639705658
2.0281801223754883 0.6883122324943542 0.6918477416038513
-0.1860038936138153 0.747686505317688 -0.3589750826358795
0.6499240398406982 0.29785043001174927 0.8738781213760376
-1.6448136568069458 0.4388177990913391 0.08928926289081573
-0.12314579635858536 0.5818582773208618 -0.23673857748508453
-0.12609073519706726 -0.02319270372390747 -0.6037037372589111
-1.6057889461517334 0.6217573881149292 0.34111806750297546
1.1056050062179565 0.6015366911888123 0.32488036155700684
1.6992415189743042 0.740161120891571 -0.19543491303920746
-0.5930832624435425 -0.16279681026935577 0.7536879777908325
1.7614480257034302 -0.31266582012176514 -0.5030361413955688
1.1619842052459717 -0.2684633731842041 -0.08942137658596039
-0.28579181432724 -0.20322684943675995 0.2272443175315857
0.341022253036499 0.27972501516342163 1.0010876655578613
0.1226167157292366 0.7519243359565735 0.1504756212234497
-1.7740635871887207 -0.09561707079410553 0.4484170079231262
2.472407579421997 0.08701877295970917 0.3219968378543854
0.7204418182373047 0.25325509905815125 -0.17106571793556213
1.2715964317321777 0.5478049516677856 -0.0339709147810936
0.015316542237997055 -0.24130547046661377 -0.45765167474746704
-0.7812185287475586 0.5263690948486328 -0.061439692974090576
0.11142650991678238 0.5272804498672485 0.08043067902326584
1.6866371631622314 0.47829926013946533 -0.6029240489006042
2.9426496028900146 0.012769021093845367 -0.7336879968643188
-1.334864854812622 0.06493017077445984 -0.4903501570224762
1.999145746231079 0.5761809945106506 0.3965381681919098
-0.034241024404764175 -0.14341361820697784 -0.40149974822998047
1.4281550645828247 -0.059625014662742615 -0.7592830657958984
-1.3962661027908325 0.3320191204547882 0.21409980952739716
2.7532784938812256 -0.22168633341789246 -0.3379867374897003
-1.7155437469482422 0.38810011744499207 0.13689489662647247
-1.8758690357208252 0.43223047256469727 -0.25503504276275635
1.2714111804962158 -0.11440706253051758 -0.18472760915756226
2.022055149078369 0.29166683554649353 0.04191992059350014
-0.8802790641784668 -0.0012405067682266235 0.18400289118289948
-0.9431562423706055 0.18920773267745972 0.17514154314994812
-1.4182826280593872 0.06536790728569031 1.0355972051620483
-0.9942742586135864 -0.21165819466114044 -0.779098629951477
2.066319704055786 0.5535903573036194 -0.2933798134326935
1.061022400856018 0.18165382742881775 0.12275721877813339
-0.007653426378965378 -0.04026429355144501 0.5148351192474365
-0.7463483810424805 -0.3323478698730469 0.7482540011405945
2.283484935760498 0.44517654180526733 -0.8672932386398315
-1.4950313568115234 0.1850190907716751 0.6673898696899414
-1.9373195171356201 0.2766105532646179 0.5115418434143066
2.049898386001587 0.4907621741294861 -0.33905360102653503
-0.8882144093513489 -0.12287192046642303 0.4933282434940338
0.3155466318130493 0.019347190856933594 -0.047715261578559875
-1.3778398036956787 -0.017823144793510437 0.35513636469841003
-0.8849159479141235 0.15080203115940094 0.868587851524353
-2.4597814083099365 0.3565179407596588 -0.5061065554618835
0.33768633008003235 0.12220025062561035 0.2516953647136688
-1.23247492313385 0.6727151274681091 -0.02544412389397621
-0.10225722193717957 -0.2023783028125763 0.21045513451099396
0.5480023622512817 0.7703408002853394 -0.4227987229824066
2.031404733657837 0.5378175973892212 -0.512053370475769
-0.22479282319545746 0.14691540598869324 0.3985259234905243
0.35323911905288696 0.2710374593734741 0.3261817991733551
-0.7538923621177673 -0.20848512649536133 0.025581389665603638
-1.718981385231018 -0.1328652948141098 0.42867180705070496
-1.4826265573501587 0.06221523880958557 -0.6340876817703247
2.1189727783203125 0.5516337156295776 -0.01541206706315279
2.439903736114502 0.5212002992630005 -0.07152020186185837
-1.168078899383545 -0.20409926772117615 -0.8255187273025513
2.469618082046509 0.5204355120658875 -0.4542578458786011
-2.029764413833618 -0.27988797426223755 -0.3594905734062195
1.8661187887191772 -0.2920916974544525 0.5225953459739685
0.5958210825920105 0.7414610385894775 -0.1963825672864914
1.5417386293411255 -0.028551697731018066 0.5156896114349365
1.0929694175720215 -0.07284395396709442 -0.12395086139440536
1.9488548040390015 0.3700992465019226 -0.4485985040664673
-1.1347531080245972 0.12827168405056 0.07861419022083282
-0.8435645699501038 -0.18375390768051147 0.33694690465927124
0.8262112736701965 0.46258312463760376 0.17279838025569916
-1.679368019104004 0.230448380112648 -0.7343290448188782
-1.8485376834869385 -0.07393503189086914 -0.587936520576477
1.5013246536254883 0.27965831756591797 -0.2606085240840912
-0.6303126215934753 0.2308371514081955 -0.03687931224703789
-1.546980857849121 0.06640961766242981 -0.9426945447921753
-0.5031269788742065 -0.27696970105171204 0.2757515609264374
1.9481207132339478 0.15653583407402039 0.9271407723426819
-0.664791464805603 0.7906479239463806 0.22337935864925385
-0.1700015813112259 -0.05007188022136688 0.1863652765750885
-1.464289903640747 0.4431372880935669 -1.1004620790481567
1.0725830793380737 0.1921522617340088 -0.5732313394546509
-0.537822961807251 0.2023821473121643 -0.10802554339170456
-0.8772630095481873 -0.23960626125335693 -0.48822861909866333
-0.9500538110733032 0.42844465374946594 -0.052503012120723724
1.625199794769287 -0.12114816904067993 -0.20212189853191376
0.4899623990058899 0.11974826455116272 -1.0986045598983765
-0.5373209118843079 -0.25924867391586304 -0.9749053716659546
-0.9937189817428589 0.15410596132278442 0.26578858494758606
0.6834664344787598 -0.03459040820598602 0.8175162672996521
1.858696699142456 0.1349078118801117 -0.3747982382774353
-0.7587291598320007 -0.05165816843509674 0.21702203154563904
-0.41953569650650024 0.7536292672157288 -0.15259060263633728
0.021923284977674484 0.11308221518993378 -0.40417730808258057
1.9794915914535522 0.005793645977973938 0.0974542498588562
0.35908302664756775 0.3826735019683838 -0.4442588686943054
-2.6236259937286377 -0.18811869621276855 0.3087853789329529
1.8047727346420288 0.3885771930217743 0.32914793491363525
-0.6652868390083313 0.057003721594810486 0.9167578220367432
0.7921972870826721 -0.17356450855731964 0.8785247802734375
2.296915292739868 0.07283484935760498 0.8165158033370972
-1.3529313802719116 0.15895697474479675 -0.2665919363498688
0.6301558613777161 0.7157376408576965 0.7428112626075745
1.269468069076538 -0.24576102197170258 0.04207896441221237
0.39000892639160156 0.278738796710968 -0.10789010673761368
1.4573218822479248 0.6450768709182739 0.8194894790649414
-0.7016194462776184 -0.36458611488342285 -0.14600630104541779
-1.1939531564712524 0.2634005844593048 -0.8609713315963745
1.1325093507766724 0.11301541328430176 0.3596661686897278
-0.2984306216239929 0.11886480450630188 -0.027037812396883965
-1.5868556499481201 -0.05312253534793854 0.33470475673675537
-0.4062740206718445 -0.26574867963790894 0.40726226568222046
-1.5353167057037354 0.2872791886329651 0.40191343426704407
0.5096808075904846 0.2342638373374939 -0.703410804271698
-1.2180769443511963 0.5377587080001831 0.31592246890068054
0.06829295307397842 -0.2662006616592407 0.235643208026886
-0.6422889828681946 -0.10406471788883209 0.7072638869285583
-0.6193785071372986 -0.1644544005393982 1.003952980041504
-1.7841671705245972 0.07598495483398438 -0.03461945801973343
2.206336498260498 0.5428465604782104 -0.6610441207885742
2.000863552093506 0.1456991583108902 0.5027942657470703
1.3819154500961304 -0.2261948138475418 0.2857266664505005
-0.23472312092781067 0.431837260723114 -0.2762717306613922
-1.609915852546692 -0.04133330285549164 0.42369747161865234
0.6659582853317261 0.5162429809570312 -0.968198835849762
0.03456568345427513 0.08477459847927094 -0.5457033514976501
0.147269606590271 0.3926180601119995 -0.5324318408966064
0.24471306800842285 -0.017363592982292175 0.023149272426962852
-1.6718206405639648 0.03145939111709595 -0.6179513335227966
1.7275432348251343 -0.30418896675109863 -0.8246038556098938
-2.1294572353363037 0.052122220396995544 0.03588757663965225
0.4433518946170807 0.2680118680000305 -0.26290127635002136
1.0814424753189087 -0.28469419479370117 -0.28948280215263367
-0.530619740486145 0.49876868724823 0.26611611247062683
-0.5192120671272278 -0.2931109070777893 -0.32516226172447205
2.2229647636413574 -0.29761070013046265 0.13285702466964722
0.5113391876220703 -0.06512857973575592 -0.03673331439495087
-1.8882668018341064 0.0751563012599945 0.2655737102031708
-0.6258625984191895 -0.19496873021125793 1.0911877155303955
0.7249132394790649 0.09601390361785889 -0.9358405470848083
-0.7460001707077026 0.24253882467746735 0.3109479248523712
1.8021950721740723 -0.24530896544456482 -0.533551812171936
1.0765042304992676 0.05650945007801056 0.2821761667728424
0.5592277646064758 0.22393791377544403 0.04140784963965416
3.2161476612091064 -0.08400118350982666 0.38171762228012085
0.10371812433004379 0.7410637736320496 0.28465792536735535
-0.8610027432441711 -0.08811809122562408 0.46429988741874695
1.9960848093032837 0.4906054437160492 -0.2952600419521332
0.24703386425971985 0.2000286728143692 0.28432735800743103
-1.1839251518249512 -0.03812265396118164 -0.3667871952056885
1.7018234729766846 -0.29233187437057495 -0.019265184178948402
-0.7952263951301575 0.3558596968650818 -0.1721799075603485
2.209744453430176 -0.13976635038852692 -0.029689420014619827
-1.9805172681808472 -0.1451711356639862 -0.13439449667930603
2.5586116313934326 -0.12500344216823578 -0.7535696625709534
0.3424648344516754 0.5690269470214844 -0.5853091478347778
-0.6060325503349304 -0.07475294172763824 -0.8356451988220215
1.5081673860549927 -0.22437787055969238 0.9670270085334778
1.4452794790267944 0.25339046120643616 -0.4467269778251648
-2.226905345916748 -0.2758633494377136 0.3827407956123352
-1.0308620929718018 0.7845634818077087 -0.40808236598968506
0.5357503294944763 0.6197555661201477 0.11753173172473907
1.4628591537475586 0.7007539868354797 0.2911137342453003
-0.24947507679462433 0.551663875579834 0.6177581548690796
-1.645729899406433 -0.1826978623867035 0.3782561719417572
-0.31682485342025757 0.3568505644798279 0.8311948776245117
-1.2721624374389648 0.8031973838806152 -0.9970940351486206
2.0811219215393066 0.13538150489330292 0.5724146366119385
-0.010030664503574371 0.4294682741165161 -0.3435918092727661
2.118516445159912 -0.2950757145881653 -0.40163588523864746
0.5045660734176636 0.33741527795791626 0.6535006165504456
1.1821272373199463 0.3788653612136841 0.4917352497577667
1.5492335557937622 0.5678088068962097 0.167339488863945
0.9323998093605042 -0.2535100281238556 -0.6397086381912231
0.5915148258209229 -0.2994193434715271 -0.5886657238006592
1.9530552625656128 -0.2622227370738983 0.25666093826293945
-2.406465530395508 -0.17234139144420624 0.35747990012168884
1.151658296585083 -0.2614474296569824 0.7612435221672058
1.970428705215454 0.05534103512763977 -0.7453872561454773
-0.6796432733535767 -0.06500889360904694 -0.07021956145763397
2.3173530101776123 0.06272213160991669 -0.24915678799152374
-0.12478481978178024 -0.058566391468048096 0.4394102990627289
-1.0471540689468384 0.5880222916603088 0.25393250584602356
-1.5891886949539185 0.18248647451400757 0.5970382690429688
2.8096184730529785 0.47337520122528076 -0.035560932010412216
0.10248197615146637 0.4035196304321289 1.003245234489441
-0.623550295829773 0.2167743444442749 0.8894383311271667
1.135910153388977 0.003177821636199951 -0.939778745174408
1.0631591081619263 -0.27000507712364197 0.8818529844284058
0.8356553912162781 0.2170875370502472 0.3723033666610718
1.9508893489837646 -0.1017514318227768 -0.30944228172302246
0.9199090003967285 -0.09592820703983307 -0.021091658622026443
0.3945067822933197 0.27498215436935425 0.6502763032913208
2.417538642883301 -0.057829976081848145 -0.17270854115486145
0.2952732443809509 0.5515596270561218 -0.5632776618003845
1.0307891368865967 -0.2253078818321228 0.06510456651449203
1.9976109266281128 -0.03300142288208008 0.7878522872924805
-0.04445898160338402 0.15214215219020844 0.8536254167556763
-0.4033322334289551 0.09137003123760223 -0.9193455576896667
0.5703185796737671 0.07186761498451233 -0.2739783227443695
-0.63145911693573 0.11710311472415924 0.062349833548069
1.4573302268981934 0.17005132138729095 -0.33266812562942505
0.4803498387336731 0.4959894120693207 0.47173672914505005
-1.1913944482803345 0.29404979944229126 0.9872786998748779
-0.5706843137741089 -0.08263622224330902 0.7303855419158936
2.275996446609497 0.4263962507247925 -0.7915570139884949
0.11484788358211517 0.6180774569511414 -0.16492217779159546
-0.16393008828163147 0.7577103972434998 -0.5826847553253174
3.470996141433716 0.34067419171333313 -0.19423510134220123
1.409685492515564 -0.015406578779220581 0.17375093698501587
1.8463506698608398 -0.265580415725708 -0.13867050409317017
1.5167267322540283 -0.2799934148788452 0.39320680499076843
-1.342056393623352 0.25761646032333374 0.03804805874824524
0.8724051713943481 0.22555719316005707 0.1318117380142212
2.1174261569976807 0.08610451221466064 -0.20296277105808258
-0.8792011141777039 0.6951294541358948 -0.6939976215362549
0.056834131479263306 0.4707011878490448 0.7390452027320862
-1.8436846733093262 0.16423749923706055 -0.6738038659095764
1.5382823944091797 0.2614743709564209 0.35457152128219604
1.9023370742797852 0.15897196531295776 -0.7763391733169556
1.9425253868103027 -0.262057363986969 0.5769950747489929
-1.379779577255249 0.30643677711486816 -0.28190481662750244
-1.1535429954528809 -0.21589425206184387 -0.7326065897941589
0.05248367413878441 -0.03772053122520447 0.5784029364585876
2.1458544731140137 0.5345945954322815 0.806482195854187
-0.8653056621551514 0.5039639472961426 0.10776162892580032
1.0129061937332153 0.5475471019744873 0.09760863333940506
0.5149863958358765 0.3251716196537018 -0.0016728766495361924
-1.8336857557296753 0.1500668078660965 -0.023854732513427734
-0.5689141154289246 -0.08804227411746979 0.13592718541622162
-0.6713541150093079 0.6836035251617432 -0.8859952092170715
-0.7175500392913818 0.12502063810825348 -0.7766522169113159
-1.8794786930084229 0.1693040281534195 0.2584449052810669
-1.6083191633224487 0.46040987968444824 -1.0028202533721924
-2.4480080604553223 0.3003733158111572 0.1615818738937378
-2.655566692352295 0.020917564630508423 -0.28489017486572266
1.8931987285614014 -0.09248878061771393 -0.5098088383674622
1.2340532541275024 0.7178865075111389 0.8815507292747498
1.2953091859817505 -0.2533167004585266 0.30171555280685425
-1.6247003078460693 -0.2725376486778259 -0.7501083016395569
-0.3689841628074646 -0.1810285449028015 -1.0143697261810303
2.3815202713012695 -0.032147422432899475 -0.033303190022706985
2.002976894378662 -0.373335063457489 0.24582353234291077
-2.797534227371216 -0.2160664200782776 0.6459323167800903
1.2960704565048218 0.5603788495063782 -0.18064942955970764
-0.5764468908309937 0.6025644540786743 0.1117841973900795
-1.3879475593566895 0.3645726144313812 -0.7811117172241211
1.3806312084197998 0.46709197759628296 -0.57779461145401
-1.1043150424957275 0.3008396625518799 0.3621068298816681
2.1292521953582764 -0.2601621747016907 -0.36574405431747437
-0.27327409386634827 -0.2549544870853424 -0.24296338856220245
-0.6259939074516296 0.6928969025611877 -0.47406134009361267
2.0208399295806885 -0.2601749002933502 -0.8451762795448303
1.5497599840164185 0.12303455173969269 0.48908138275146484
0.5015400052070618 -0.42330724000930786 -0.3527735769748688
-1.0362731218338013 0.1130179911851883 -1.0259432792663574
-0.5557126402854919 0.4219508767127991 -1.0249544382095337
-1.38727605342865 0.15286335349082947 0.29450106620788574
2.425325632095337 -0.07000124454498291 -0.1715904176235199
-0.5909504890441895 0.2400740683078766 0.7329217195510864
0.9172489047050476 0.04785659909248352 -0.7903438210487366
-0.5114394426345825 -0.27602964639663696 -0.8425958156585693
-0.519661545753479 -0.24739956855773926 0.8144774436950684
-0.1182870864868164 0.07364937663078308 -0.4935853183269501
1.7781258821487427 0.6060229539871216 0.3638080358505249
1.8730857372283936 0.462841272354126 -0.9781345129013062
1.0747697353363037 -0.031034350395202637 0.12870609760284424
-1.417108178138733 0.17675432562828064 0.3011443614959717
1.2195271253585815 0.4752597212791443 0.4491814076900482
0.944571852684021 0.16710655391216278 -0.4674270749092102
1.482713222503662 -0.2440517544746399 0.8470243215560913
1.4827841520309448 -0.25467848777770996 0.11798593401908875
1.3254761695861816 -0.13485684990882874 -0.3484256863594055
0.7668324708938599 -0.26967620849609375 -0.39659184217453003
-0.988762617111206 0.7328030467033386 0.45713043212890625
1.9645678997039795 0.09601691365242004 0.0038295297417789698
1.7891762256622314 0.29966866970062256 -0.9864333868026733
0.5524667501449585 0.7592059969902039 -0.6922118663787842
-1.4342542886734009 -0.27464717626571655 -0.5667381882667542
1.4334169626235962 0.5433945059776306 0.38803160190582275
-0.5120784640312195 0.5225775837898254 -0.4003397226333618
-1.11161208152771 0.5467922687530518 -0.15889368951320648
-0.661291778087616 -0.24975058436393738 -0.2483353465795517
1.4363678693771362 0.7934240102767944 -0.29975950717926025
0.35437554121017456 0.7571684718132019 -0.30745649337768555
0.5801377296447754 0.2920440435409546 -0.49577978253364563
0.44908177852630615 -0.2668464183807373 -0.5235692858695984
2.009281635284424 0.37071874737739563 -0.7815083861351013
-0.9882454872131348 0.06339871883392334 0.2720094323158264
1.4467339515686035 -0.2816823720932007 -0.3388608694076538
3.8477513790130615 0.3545253872871399 -0.234742671251297
-0.785453200340271 -7.496774196624756e-05 -0.835053563117981
1.8577388525009155 0.41864845156669617 0.022457964718341827
-0.7860119938850403 -0.2709845006465912 0.6227593421936035
0.46799060702323914 0.04603700339794159 -0.4227769374847412
-0.43818119168281555 -0.2518256604671478 0.5125361084938049
-0.6399751901626587 0.22019584476947784 -0.21263810992240906
-1.9691320657730103 0.2867615222930908 0.4447879195213318
1.8328784704208374 -0.0017651170492172241 0.16364464163780212
-1.3014469146728516 0.2705319821834564 -0.08760693669319153
-1.4539966583251953 0.8058449625968933 -0.1093829795718193
-0.1039978563785553 0.6811321973800659 0.49792158603668213
0.35221222043037415 0.46480265259742737 -0.09711045771837234
-1.761023998260498 0.5035791993141174 0.31101545691490173
1.0853687524795532 0.752036988735199 -0.07516320049762726
-2.1776740550994873 0.06946718692779541 -0.2488579899072647
1.0221117734909058 0.7576372623443604 0.4731283187866211
1.3720921277999878 0.07087637484073639 -0.28855928778648376
-0.4044531285762787 0.5687361359596252 -0.18329139053821564
-0.35238194465637207 0.31765931844711304 -0.003681547474116087
0.9917104840278625 -0.20311656594276428 -0.9870489835739136
2.959777593612671 -0.27128860354423523 -0.06312518566846848
-2.104684829711914 -0.03869922459125519 0.24331673979759216
1.956729531288147 0.24887895584106445 -0.057257279753685
-2.1677465438842773 -0.22823160886764526 -0.128999724984169
-0.7554611563682556 0.7637986540794373 -0.6702220439910889
0.5434842705726624 0.7421391606330872 -0.09652642905712128
-1.0695066452026367 -0.1830563247203827 -0.8268635272979736
-1.131769061088562 0.7511217594146729 0.04090652987360954
1.4314069747924805 0.24261963367462158 -0.5478308796882629
1.1097451448440552 0.33968740701675415 -0.17617490887641907
0.9393142461776733 0.2969037592411041 0.07334339618682861
-2.0611839294433594 -0.25599637627601624 0.8997169137001038
1.3975791931152344 0.4609440863132477 0.5391144752502441
-1.0591363906860352 0.08823153376579285 0.4329477548599243
1.9754019975662231 0.09879885613918304 -0.18770962953567505
2.5002365112304688 -0.08034096658229828 0.22911059856414795
1.8114726543426514 -0.07802426815032959 0.16942699253559113
1.0900815725326538 0.35409048199653625 -0.8584036231040955
2.0008153915405273 0.20177292823791504 -0.13229116797447205
0.6500129103660583 0.7831212878227234 0.4260627031326294
-0.29005277156829834 0.30608898401260376 0.1837647557258606
2.2390475273132324 -0.07173524796962738 1.0695979595184326
0.34059515595436096 0.6349209547042847 -0.4722236692905426
2.144624948501587 -0.17194975912570953 -0.029539033770561218
0.1580611616373062 0.004824802279472351 -0.3027922213077545
0.5650246739387512 0.6807585954666138 0.4287518262863159
-1.5323548316955566 0.19572214782238007 0.2797548472881317
2.3950142860412598 0.5358278751373291 -0.018059778958559036
1.7104027271270752 0.5648770332336426 0.3498136103153229
1.1269344091415405 0.18004769086837769 0.9030627608299255
0.010025076568126678 -0.24417299032211304 0.18940043449401855
-0.3871086835861206 -0.006098747253417969 1.1697542667388916
1.8742374181747437 0.5926945805549622 0.04016121104359627
0.1595894992351532 -0.20782627165317535 0.49113553762435913
1.054261326789856 -0.2708234190940857 -0.2235625833272934
2.0629570484161377 0.273679256439209 -0.7420680522918701
-2.1954617500305176 0.08455999195575714 0.15165828168392181
-0.9638838171958923 0.14607271552085876 0.7442713975906372
0.4453604221343994 0.34878745675086975 0.3541572690010071
0.9015404582023621 0.25042039155960083 -0.5585965514183044
1.2434165477752686 0.03530809283256531 -0.7305693030357361
-0.11033636331558228 -0.2665952742099762 0.10626040399074554
-0.9976198673248291 -0.2326275110244751 -0.1169746145606041
-0.29705753922462463 -0.2500271201133728 0.25383010506629944
-0.05845590680837631 -0.07171580195426941 -0.12156607210636139
1.473672866821289 0.21209760010242462 0.1986706256866455
-0.5123542547225952 -0.07494288682937622 0.1668516993522644
0.9664141535758972 0.3975594937801361 0.25293979048728943
-1.0626641511917114 -0.0510106235742569 -0.07643144577741623
-0.3901806175708771 -0.04392869770526886 0.9469396471977234
0.6967442035675049 0.7708370089530945 0.16551730036735535
-1.2772712707519531 -0.029450595378875732 0.5769675970077515
0.06432470679283142 0.49743491411209106 -0.06733055412769318
1.6301236152648926 0.07742217183113098 0.09562069922685623
1.6141774654388428 0.10719263553619385 0.20126253366470337
0.34272220730781555 -0.23236720263957977 -0.4972560703754425
-1.0697885751724243 0.6170994639396667 0.5048445463180542
0.8416388630867004 -0.2783285677433014 0.9066561460494995
1.435960054397583 0.20245584845542908 0.22847887873649597
1.6072134971618652 0.8495875000953674 -0.5978659987449646
2.742906093597412 -0.2909295856952667 -0.04337754100561142
-1.3488154411315918 -0.3332708477973938 0.41869521141052246
1.8505101203918457 0.29601427912712097 0.7511952519416809
-0.32116246223449707 -0.2051296830177307 -0.9837158918380737
0.46035754680633545 0.844942569732666 0.3721601963043213
-1.0985409021377563 0.33087706565856934 -0.26474350690841675
-1.2575891017913818 -0.3648434281349182 0.5088256001472473
-0.9069561958312988 0.4304226040840149 -0.6116735339164734
-1.42732834815979 -0.11740557849407196 0.5420544743537903
-1.838646411895752 0.23383574187755585 -0.04364383593201637
0.48957619071006775 -0.136478453874588 -0.12860682606697083
0.7686089873313904 0.08212579786777496 -0.457990437746048
-1.1893543004989624 0.5588163137435913 0.8261305093765259
-0.5698765516281128 0.46565699577331543 -0.18009792268276215
0.9958301782608032 0.6869145035743713 -0.360124409198761
0.6084746718406677 0.1012810617685318 0.6157568693161011
0.3810683786869049 0.7807633876800537 0.3320274353027344
1.7059332132339478 0.7424797415733337 -0.6044459342956543
0.5916239023208618 0.38262003660202026 -0.3071478307247162
-2.396838426589966 -0.16848579049110413 -0.514718770980835
0.9560544490814209 0.2362608164548874 0.06955575942993164
-1.314821720123291 0.6200605034828186 0.6188669800758362
-0.16665688157081604 -0.16843944787979126 -0.33704674243927
-1.7527844905853271 0.13361865282058716 -0.33827587962150574
1.7080247402191162 -0.12810978293418884 -0.3003704845905304
-0.5782939791679382 0.7630268931388855 -0.6051245927810669
0.9375382661819458 -0.2655290365219116 -0.004296035040169954
3.597249746322632 -0.29152944684028625 0.6981422305107117
2.634471893310547 -0.28440845012664795 -0.718323290348053
2.008028507232666 -0.25385987758636475 -1.0871949195861816
-0.45578646659851074 0.7762130498886108 -0.041588135063648224
0.5048516392707825 -0.28454288840293884 -0.36324429512023926
0.3151696026325226 0.6052918434143066 -0.7148544788360596
1.9935826063156128 0.15140241384506226 -0.23414501547813416
0.2577293813228607 0.7672015428543091 0.030729476362466812
1.5210623741149902 0.6966683864593506 0.5645815134048462
-1.8991466760635376 -0.22471636533737183 0.5488200187683105
2.762782573699951 -0.2799174189567566 -0.5844553112983704
2.1445999145507812 -0.2520563304424286 0.7075338959693909
1.5499857664108276 0.2204817831516266 0.6970130801200867
2.8315834999084473 -0.11114323139190674 0.0553031824529171
0.8368435502052307 0.5294926166534424 0.134567990899086
-0.2552497386932373 0.282166987657547 -0.5849266052246094
-1.0453006029129028 -0.2393409013748169 -0.29644766449928284
0.85174560546875 0.34220707416534424 0.5853767991065979
-0.4658341407775879 0.06522694230079651 0.22304636240005493
1.1937229633331299 -0.24890069663524628 -0.0013867630623281002
-1.2170673608779907 0.5147063732147217 -0.012472574599087238
0.39919835329055786 -0.26178672909736633 0.456697016954422
-0.5095411539077759 0.19720391929149628 0.6107493042945862
-0.4762491285800934 -0.2045203596353531 0.9101669192314148
1.382756233215332 0.03519241511821747 0.149962916970253
0.19200973212718964 -0.26223739981651306 -0.09422516822814941
1.3892570734024048 0.1788034439086914 0.4117448031902313
-0.09598325192928314 0.28570711612701416 -0.29735586047172546
-1.2016807794570923 -0.0784110575914383 0.35415375232696533
-0.6248831152915955 0.08737488090991974 0.2625136077404022
-0.2257956564426422 0.6680785417556763 0.23868660628795624
-1.0385479927062988 0.07273796200752258 0.8311071395874023
1.8149025440216064 -0.2631250321865082 -0.12239497900009155
-1.0527610778808594 -0.09787009656429291 0.4017551839351654
2.45178484916687 0.19920474290847778 0.9260204434394836
-0.21617406606674194 0.5379137396812439 -0.4601425230503082
-0.8081782460212708 -0.0083845853805542 0.027203574776649475
-1.3205196857452393 0.3929187059402466 0.12925191223621368
2.089157819747925 0.6043761968612671 0.8488588333129883
1.7043211460113525 -0.053626105189323425 0.16954055428504944
0.06576064229011536 0.2707154154777527 -0.23672251403331757
2.1220815181732178 0.5533640384674072 -0.45504409074783325
-0.3270062804222107 0.25903287529945374 0.26416951417922974
-1.6769980192184448 0.2746669352054596 0.23429137468338013
-1.4104739427566528 -0.1036497950553894 -0.09681765735149384
-1.8818968534469604 0.25943005084991455 0.22532740235328674
0.2290399819612503 0.2818000316619873 -0.303000271320343
2.498656749725342 -0.05062657594680786 -0.2237062156200409
-0.5592114925384521 -0.08750149607658386 0.9215543866157532
2.035740852355957 -0.038494616746902466 -0.7339503765106201
1.3180173635482788 0.055016934871673584 0.4407738447189331
-1.580809473991394 -0.25503143668174744 -0.07331640273332596
1.4132553339004517 -0.21868743002414703 0.8543972373008728
0.9668580293655396 0.71206134557724 -0.3148466944694519
2.302224636077881 -0.2542254328727722 0.7524321675300598
-1.410586953163147 -0.243780255317688 -0.793595016002655
-1.0239441394805908 -0.24534866213798523 0.236297607421875
-0.17626163363456726 -0.16405782103538513 1.1099011898040771
0.13162504136562347 0.14686208963394165 0.463646799325943
-0.9620743989944458 -0.21997655928134918 0.3918569087982178
0.9012336730957031 0.6208353042602539 -1.0170930624008179
0.2588758170604706 0.7008259296417236 0.3584292531013489
1.9621878862380981 0.333229124546051 0.036008380353450775
2.8046836853027344 -0.1915816366672516 -0.7709348201751709
-2.2169055938720703 -0.03564713895320892 0.14322681725025177
-0.8945896625518799 0.4026890695095062 0.3140733540058136
1.666730523109436 0.2703668475151062 0.931983232498169
-0.9766761064529419 -0.22201986610889435 -0.4344469904899597
1.1900488138198853 0.12093952298164368 0.14626692235469818
0.2366783767938614 0.8135854601860046 0.32931068539619446
-2.5758583545684814 -0.06861206889152527 0.12632757425308228
0.832502543926239 -0.024841442704200745 -0.7876836657524109
1.4013395309448242 -0.2645907998085022 -0.39036503434181213
-1.0871555805206299 0.556785523891449 0.09500975161790848
1.856974720954895 -0.40664374828338623 0.5372109413146973
0.15141230821609497 0.07585930824279785 0.8630416393280029
-0.525115430355072 0.003916054964065552 1.0326508283615112
-0.9607341289520264 0.35987338423728943 0.5033953785896301
1.7710363864898682 0.14119674265384674 -0.5363556146621704
-0.5422161221504211 0.3003833591938019 0.13594035804271698
-0.14879454672336578 0.786866307258606 0.4655012786388397
-1.2707589864730835 -0.23236903548240662 -0.2792571485042572
-0.35253241658210754 -0.036209896206855774 0.03678096830844879
0.521346926689148 -0.26277607679367065 0.46969178318977356
-1.374343991279602 0.2704726457595825 -0.4132266938686371
-0.6688753962516785 0.4055239260196686 1.041803240776062
0.24200953543186188 0.7734869718551636 0.3377801775932312
-0.7842555046081543 -0.17508088052272797 -0.03347102180123329
2.3225488662719727 0.07739406824111938 0.7503830790519714
0.3757588863372803 -0.21764935553073883 -0.46925294399261475
0.7226204872131348 0.43581682443618774 0.30209723114967346
-1.867206335067749 0.3593634068965912 0.5833437442779541
0.5702779293060303 0.38357073068618774 -0.08660861104726791
1.0518475770950317 0.48758411407470703 -0.01856139302253723
-2.459176540374756 0.3215245306491852 0.3627551198005676
0.8109124302864075 0.7681993842124939 0.04778473451733589
-0.5313969850540161 -0.16447071731090546 -0.025015031918883324
-1.4904727935791016 0.7049108147621155 -0.5379124879837036
-1.822812557220459 0.2274227738380432 0.2434440553188324
0.9113494753837585 -0.0007109493017196655 -0.09405197203159332
-0.7085519433021545 -0.28064531087875366 -0.518768310546875
2.640026569366455 0.11105835437774658 0.3867901563644409
1.0204994678497314 -0.08822470903396606 -0.10823293030261993
2.070692300796509 -0.07024095952510834 0.3731156289577484
0.2623150944709778 0.7959126234054565 0.14166158437728882
-0.1820928007364273 -0.14980290830135345 -0.38691869378089905
-0.9215127229690552 0.34822016954421997 -0.6152715682983398
-0.278908908367157 0.5275738835334778 0.0009472867241129279
-0.9717262387275696 -0.3003016710281372 -0.7325240969657898
0.9563856720924377 0.6199756860733032 0.2778758108615875
1.2612906694412231 0.012195110321044922 -0.5509390234947205
-1.056722640991211 0.8420308232307434 0.4544347822666168
0.09525948762893677 0.14994500577449799 0.9496737718582153
-1.948009967803955 0.30550551414489746 0.600101113319397
1.197469711303711 -0.19862301647663116 -0.8314685225486755
-1.5679824352264404 0.18266534805297852 1.0910285711288452
-1.5985287427902222 0.1650697886943817 0.08620129525661469
2.389951229095459 0.5297780632972717 -0.5031445026397705
-1.2354177236557007 -0.00701296329498291 0.2558590769767761
-1.9512321949005127 0.11608952283859253 -0.17195749282836914
-1.6358689069747925 0.30479687452316284 0.0165096502751112
0.1577073186635971 0.07642380893230438 -0.7413884401321411
0.6228883266448975 0.4100779592990875 0.5972126126289368
-0.19929921627044678 -0.04600326716899872 0.02018730156123638
2.454824924468994 -0.1903180032968521 -0.39004746079444885
0.3163257837295532 0.7645593881607056 0.5438361763954163
-0.20184776186943054 0.6756746172904968 0.21353651583194733
0.3005545139312744 0.09891270101070404 -0.16006425023078918
-0.0040434375405311584 -0.20686949789524078 -0.6087303161621094
0.013006698340177536 0.2511495351791382 -0.49399495124816895
1.2852457761764526 0.28769737482070923 0.5179547667503357
1.4342072010040283 0.03255981206893921 -0.9165367484092712
-1.7205630540847778 0.23447173833847046 -0.9830074906349182
-0.39819014072418213 0.6004818081855774 0.2037646770477295
-1.3487558364868164 -0.17979373037815094 0.3380827009677887
0.442089319229126 -0.004165679216384888 1.037301778793335
1.9109524488449097 0.21836501359939575 -0.4050498604774475
0.14926037192344666 0.26278823614120483 0.4429122507572174
0.7114078998565674 0.5538040399551392 -0.24603070318698883
-0.5092918872833252 0.06911079585552216 -0.46903496980667114
2.912753105163574 -0.228668212890625 -0.1943807452917099
1.407639741897583 0.07490134239196777 0.6817629337310791
-2.04411244392395 -0.16202552616596222 0.0770811066031456
0.33956676721572876 -0.10464048385620117 0.468532532453537
0.0996796041727066 -0.022379785776138306 -0.14207597076892853
1.3299429416656494 -0.27897974848747253 -0.061902742832899094
-1.612754464149475 0.33485764265060425 0.2851687967777252
0.9126492738723755 -0.2697272300720215 0.14396829903125763
2.0458273887634277 -0.24910086393356323 0.17573659121990204
-1.9445699453353882 -0.04200263321399689 -0.054203588515520096
2.2206075191497803 0.11334128677845001 -0.03183521330356598
2.0131335258483887 0.32265397906303406 -0.8941268920898438
-1.7107681035995483 0.2809464931488037 -0.6030071377754211
-0.41681772470474243 0.7945289015769958 0.19826139509677887
-0.5457044243812561 0.4588604271411896 0.42852210998535156
-0.7102472186088562 -0.2780507802963257 0.31054747104644775
-0.6595982313156128 0.39962121844291687 0.4550546407699585
1.571321964263916 0.30541831254959106 -0.3667972981929779
1.4647465944290161 0.7209824323654175 -0.3742978870868683
-0.7946332693099976 -0.29023057222366333 -0.7384063601493835
3.0065643787384033 0.10769298672676086 -0.024449549615383148
0.7992849946022034 -0.24680480360984802 -0.10374340415000916
1.3683116436004639 -0.056820347905159 0.2923000752925873
1.1243455410003662 -0.2999095916748047 0.4614551365375519
-0.5150372385978699 0.06401653587818146 -0.26839524507522583
-2.171689748764038 -0.09273891150951385 0.25156691670417786
-0.1371409296989441 -0.12651637196540833 0.3127596378326416
1.039374828338623 -0.27123498916625977 -0.25039613246917725
1.466997504234314 0.715630054473877 0.10632812976837158
-1.709226131439209 0.37093353271484375 -0.3619588315486908
1.1083744764328003 -0.04474163055419922 -0.16928035020828247
0.2372673600912094 0.06825296580791473 0.034026455134153366
-0.6584779620170593 -0.25616610050201416 0.03687847778201103
-1.565034031867981 0.3338152766227722 0.6566212177276611
-1.4793645143508911 -0.24246633052825928 -0.01183867733925581
2.0009427070617676 -0.32537031173706055 -0.17432869970798492
1.0983494520187378 0.010221168398857117 0.7518132328987122
0.15339435636997223 0.018144801259040833 -0.11864213645458221
-1.19804847240448 0.7622292637825012 -0.10798852890729904
1.3060904741287231 0.7405705451965332 -0.48070228099823
0.4374440908432007 0.5055049657821655 -0.17323313653469086
-1.3404258489608765 0.799441933631897 0.17332106828689575
-0.4499983489513397 0.7480965256690979 -0.12543374300003052
-1.4617750644683838 0.07084116339683533 -0.25437191128730774
-1.1987042427062988 0.3581225275993347 0.25619691610336304
-1.3016637563705444 0.7484487295150757 -0.04522768408060074
-0.018720120191574097 0.15330953896045685 0.4397299289703369
-1.9546105861663818 0.6976345181465149 -0.28198009729385376
-2.090837001800537 0.5232298970222473 -0.596256673336029
2.903729200363159 0.23198749125003815 -0.23619355261325836
1.4195749759674072 0.30150091648101807 0.8051799535751343
0.9302619099617004 -0.05677196383476257 -0.6261839866638184
-0.38991034030914307 -0.044993385672569275 -0.6048180460929871
1.067245602607727 0.20894847810268402 -0.255585253238678
1.828953742980957 0.5960123538970947 0.4093400835990906
0.3981110453605652 0.12493686378002167 0.056595105677843094
0.5266512632369995 0.032824382185935974 -1.0177043676376343
1.8931078910827637 -0.0067180246114730835 0.15456026792526245
0.403388112783432 0.19827592372894287 0.25751858949661255
2.499398946762085 0.009018898010253906 -0.8630543947219849
2.6299824714660645 -0.2800140082836151 -0.36649540066719055
1.9248108863830566 0.18762001395225525 -0.7190948128700256
0.3231152892112732 0.38070252537727356 -0.27290084958076477
1.9174236059188843 -0.24530747532844543 -0.47686848044395447
0.837639331817627 0.7885653376579285 0.44790729880332947
-0.6789887547492981 -0.2281666100025177 -0.912527859210968
0.8315941095352173 0.6191917061805725 -1.0049772262573242
0.3374740183353424 0.5923541188240051 0.9239659905433655
-0.29762133955955505 0.5070769786834717 -0.11191241443157196
2.4494526386260986 -0.27774757146835327 -0.5786374807357788
1.3211150169372559 -0.2782871127128601 0.45607882738113403
-0.8229557275772095 0.5315255522727966 0.13031525909900665
-0.7747085094451904 0.3188489079475403 -0.6593175530433655
-0.7845169305801392 0.7236481308937073 -0.47530046105384827
-0.331279456615448 0.38874828815460205 -0.026263266801834106
1.8750876188278198 -0.2730991840362549 -1.1391850709915161
-1.091057538986206 0.641758918762207 0.7227345705032349
-0.9930253028869629 0.5380902886390686 0.03234344348311424
-1.342557430267334 -0.04315666854381561 0.31595125794410706
0.9553900957107544 0.3898773789405823 -0.18477202951908112
-1.386340618133545 0.10724882781505585 1.0690666437149048
-2.307102680206299 0.3778414726257324 -0.8795679211616516
-1.3182637691497803 -0.20915722846984863 -0.37457558512687683
0.20157118141651154 -0.26319363713264465 -0.21225669980049133
-1.8563276529312134 0.4327218532562256 -0.10200505703687668
-1.3176237344741821 -0.2790060043334961 -0.18853743374347687
0.1942349374294281 -0.23978503048419952 -0.384481281042099
-0.6650650501251221 0.08349238336086273 -0.6305291652679443
