ply
format ascii 1.0
element vertex 816
property float x
property float y
property float z
end_header
1.7340677976608276 0.7039597034454346 0.03199359402060509
0.9840368032455444 -0.32725438475608826 0.08356774598360062
-1.4438159465789795 -0.14378440380096436 -0.8044144511222839
-0.07049904763698578 1.230921983718872 0.11957485228776932
1.23626708984375 -0.34870418906211853 0.550906240940094
-2.279658794403076 -0.2268824279308319 0.2418329268693924
-2.1550164222717285 0.6135502457618713 -0.9650200605392456
-0.33593904972076416 0.3416892886161804 1.0874403715133667
0.5183431506156921 0.04523046314716339 1.123865008354187
-1.1894806623458862 -0.160506010055542 0.32232019305229187
-1.6726365089416504 -0.4241350293159485 1.0742299556732178
0.17682448029518127 -0.29569050669670105 -0.8193474411964417
-2.708914279937744 -0.09161818027496338 0.2562013864517212
-2.464555501937866 0.5969238877296448 0.6502034664154053
2.3338544368743896 0.10374170541763306 0.8606732487678528
2.5813956260681152 -0.0441722571849823 1.1493339538574219
-1.7866251468658447 -0.19154763221740723 -0.07788791507482529
-2.266456365585327 -0.31565555930137634 0.40210556983947754
-1.1491506099700928 0.1433068960905075 -0.3314491808414459
-0.7962449789047241 0.6500875949859619 -0.9102790355682373
2.460175037384033 0.5994874238967896 -0.2828381359577179
3.1567695140838623 -0.19749093055725098 0.05762714147567749
1.8837168216705322 0.12361498922109604 -1.08993661403656
-1.242140531539917 -0.1614549607038498 -0.04747402295470238
1.9069775342941284 -0.5025177597999573 -1.1367086172103882
0.7735615372657776 -0.3985094130039215 -0.9027299284934998
0.24917268753051758 1.2394096851348877 0.04690365865826607
-2.2671213150024414 0.15478093922138214 -0.10163753479719162
1.8593878746032715 -0.10739189386367798 -1.0490823984146118
0.9960627555847168 -0.3550869822502136 -0.8241236805915833
-2.6617088317871094 0.2414701282978058 -0.16549797356128693
0.24975085258483887 -0.2964288890361786 -0.0027705379761755466
0.7167840003967285 0.1438431739807129 1.116777777671814
0.8096671104431152 0.36463356018066406 1.1012433767318726
2.7376036643981934 -0.5089858770370483 -0.9518751502037048
-0.7979143857955933 -0.22295764088630676 0.6069079637527466
-0.5916517376899719 0.2036210149526596 -1.1021034717559814
0.8380091786384583 0.8464469313621521 -0.880665123462677
2.5311710834503174 -0.7984986305236816 -0.911343514919281
-0.38040265440940857 1.2315212488174438 -0.34955894947052
-1.8250292539596558 0.6728625297546387 0.932870626449585
-0.2736678421497345 -0.14456351101398468 -1.1086909770965576
1.9393067359924316 -0.22898836433887482 -1.1217913627624512
1.5533874034881592 -0.4895664155483246 -0.9452916979789734
-2.6486589908599854 0.33268940448760986 -0.6159905195236206
1.9372540712356567 -0.23105892539024353 1.160964012145996
-2.18450927734375 0.6098484992980957 0.9976341128349304
2.1046195030212402 -0.3726505935192108 -0.5005091428756714
2.8925135135650635 0.3710819482803345 -0.758706271648407
1.8412268161773682 -0.03872343897819519 -0.9199647903442383
1.87798273563385 -0.27149879932403564 0.9122774600982666
0.973646342754364 -0.3398674726486206 0.7585121393203735
-1.7075810432434082 0.4235799312591553 -0.8920895457267761
-0.1153448075056076 0.17301686108112335 -1.108157992362976
2.2232112884521484 0.6265146732330322 0.26134374737739563
-1.5515555143356323 -0.03192104399204254 -0.8095510601997375
1.9111169576644897 0.5615830421447754 -0.9424428939819336
-1.2142823934555054 0.045311905443668365 1.076213002204895
-0.0831541121006012 1.2237738370895386 -0.5676314234733582
-0.6119695901870728 0.35660892724990845 -1.1059033870697021
-2.7633817195892334 -0.15448197722434998 0.32141199707984924
-0.253157377243042 -0.278084933757782 1.1081349849700928
1.1251871585845947 -0.3524068593978882 1.0072375535964966
1.8571621179580688 -0.05555465817451477 -1.105737328529358
2.451382637023926 -0.8059790134429932 -0.977241039276123
2.818183660507202 0.526231050491333 0.6031680703163147
1.4643504619598389 0.7512043714523315 -0.8049193024635315
-2.2138161659240723 -0.20260335505008698 -1.0843857526779175
-0.21083509922027588 0.5128417015075684 0.08653273433446884
2.5393927097320557 -0.43699681758880615 0.6969342231750488
2.9760618209838867 -0.3844568431377411 0.21357160806655884
2.270836114883423 0.6067715883255005 0.5561489462852478
3.076411247253418 0.28528743982315063 0.035983696579933167
0.7846230864524841 -0.3446778357028961 0.26420149207115173
0.7369945049285889 -0.355442613363266 -0.5499618649482727
-2.7397193908691406 -0.10895340144634247 0.552419900894165
2.103281021118164 0.39236509799957275 -1.0677523612976074
-1.7831511497497559 0.6636228561401367 0.9035777449607849
-0.3052113354206085 0.7869101166725159 0.4127894341945648
2.409860849380493 -0.37016183137893677 0.27152931690216064
-2.7121975421905518 -0.18570595979690552 -0.45645755529403687
-1.6019761562347412 0.2672842741012573 -1.0894479751586914
-2.01733660697937 0.15911374986171722 0.353633850812912
1.1235274076461792 -0.34425100684165955 0.47285234928131104
-2.355046033859253 0.4327847957611084 0.48432180285453796
-0.3801426291465759 0.6717655658721924 0.4037874937057495
-1.2584940195083618 -0.6096745729446411 0.8386489748954773
-1.632237434387207 -0.6292374134063721 -0.6754403114318848
0.6290062665939331 1.1504707336425781 0.776814341545105
-0.5772019624710083 0.6524215936660767 -0.7713924050331116
2.6324949264526367 -0.37187156081199646 0.2574286162853241
2.079885959625244 -0.8173844814300537 0.8672221302986145
2.8677244186401367 -0.44256865978240967 0.07147549092769623
1.325317621231079 0.977320671081543 0.42770183086395264
-1.2528188228607178 0.14288029074668884 -0.2722272276878357
-2.0882577896118164 0.16603437066078186 0.10784511268138885
2.0852372646331787 -0.7708687782287598 0.7071338891983032
0.3884206712245941 0.9360042214393616 -0.8415672779083252
-0.13310669362545013 -0.25967222452163696 0.5299495458602905
-0.8011103868484497 -0.26573696732521057 -0.720840334892273
-1.3770636320114136 0.6091987490653992 0.8017914891242981
1.9911123514175415 -0.6333925127983093 0.6881272792816162
-1.6976711750030518 -0.7435784339904785 0.9494425058364868
-1.5200514793395996 0.2182902842760086 -0.7378767728805542
1.6205800771713257 -0.14094340801239014 1.1311856508255005
2.281601905822754 -0.6396017074584961 -0.8460991978645325
-1.6083859205245972 -0.06030169129371643 0.8983474373817444
2.8252065181732178 -0.2973906099796295 -1.014310598373413
-0.35518521070480347 0.9590033292770386 0.8547603487968445
0.38317278027534485 -0.3114788830280304 -0.8199065923690796
1.58858060836792 0.7114944458007812 -0.6044763922691345
1.8859165906906128 -0.3537501394748688 -0.32641738653182983
2.0676238536834717 0.15061725676059723 1.131318211555481
-0.03335801884531975 0.7748040556907654 0.9560253024101257
2.9011363983154297 0.08136157691478729 1.0128239393234253
-1.3800092935562134 0.11553048342466354 -1.0171767473220825
1.9950493574142456 -0.7050452828407288 -0.7864095568656921
-1.422702431678772 -0.1927444487810135 -0.6763883829116821
-2.0598978996276855 0.5120251178741455 -0.8762127161026001
2.968400716781616 0.4541698694229126 -0.24751970171928406
-1.0964407920837402 -0.5431737899780273 0.5611407160758972
1.1553596258163452 0.8334051370620728 -0.9374151825904846
-1.2639856338500977 -0.7375675439834595 -0.5337912440299988
-1.6130249500274658 0.1397009938955307 -0.00023999065160751343
0.2064584195613861 0.26058539748191833 -1.1124670505523682
-1.9909696578979492 0.41645175218582153 0.7256143093109131
-0.09467146545648575 1.2212810516357422 -0.45741522312164307
1.7867969274520874 0.6015841364860535 0.767328679561615
1.5870014429092407 -0.3661763072013855 -0.5791413187980652
3.187211036682129 -0.18331097066402435 -0.5954550504684448
-2.6448066234588623 0.018345504999160767 0.5310343503952026
2.2758255004882812 0.6277435421943665 0.113420769572258
2.589883804321289 -0.5729203820228577 0.7039564847946167
2.5113208293914795 0.04812592267990112 1.1514729261398315
1.0983530282974243 0.577150821685791 -1.0129975080490112
2.590862512588501 -0.3739584684371948 0.7242310047149658
1.7954801321029663 -0.30149704217910767 -1.0791184902191162
-0.47358232736587524 -0.2979375123977661 -1.000712513923645
-0.48928022384643555 1.0145506858825684 0.6188747882843018
-0.49115070700645447 1.2377655506134033 0.2721540927886963
1.762204647064209 -0.4320136308670044 -1.0850480794906616
1.7462315559387207 -0.3391905426979065 -0.21794621646404266
-0.4813467860221863 -0.2343001365661621 0.31216859817504883
-0.21213845908641815 0.8165072202682495 -0.0051611741073429585
-1.6403453350067139 -0.2000436931848526 -0.07803142815828323
-1.375856876373291 -0.5483270883560181 0.917742908000946
2.675318717956543 -0.3607822060585022 0.41881582140922546
-0.18256404995918274 -0.22384975850582123 -0.12730567157268524
-1.1383782625198364 -0.736892580986023 -0.6114083528518677
-0.8564769625663757 -0.18436123430728912 0.3904429078102112
-1.6380013227462769 0.4123508334159851 0.8500850200653076
1.1707088947296143 0.7645320892333984 0.9620969295501709
-0.19630330801010132 0.7303184866905212 0.15934891998767853
3.086874008178711 -0.21006901562213898 0.08347874134778976
3.0399327278137207 0.19758521020412445 -0.6942793726921082
-0.7765948176383972 0.4168599843978882 -0.7979827523231506
-2.484565019607544 0.4682442545890808 1.0510728359222412
-0.9091601371765137 -0.4334108233451843 -1.005866527557373
0.7325746417045593 -0.003509998321533203 -1.1231825351715088
-0.70843505859375 0.8905870914459229 -0.6797679662704468
0.4435690641403198 -0.30887946486473083 1.108711838722229
-2.0692479610443115 0.056061066687107086 -1.1230173110961914
2.2162892818450928 0.5783858299255371 -0.8367902040481567
-2.114973306655884 -0.2513622045516968 -0.9193390607833862
1.8584678173065186 -0.6189576387405396 -1.0295140743255615
3.1638050079345703 -0.17651236057281494 -0.5849158763885498
-1.854807734489441 -0.4752700924873352 0.8159510493278503
-0.5264168381690979 -0.2728330194950104 -0.911369264125824
0.9412515759468079 0.7450308799743652 -0.9395697712898254
2.097151517868042 -0.34277454018592834 -1.0616172552108765
-2.654292583465576 0.2210649698972702 -0.7260279059410095
1.94492769241333 -0.1416081041097641 -0.7773860096931458
2.5165228843688965 -0.1766195297241211 -0.9337461590766907
-0.1552523672580719 -0.2873874306678772 0.9476115703582764
-1.9384419918060303 0.18193289637565613 -0.25010642409324646
2.6402294635772705 0.2576122283935547 1.0894263982772827
2.816253662109375 -0.4286038279533386 0.06815002858638763
2.008880615234375 -0.5626387000083923 1.1369235515594482
-1.0703582763671875 -0.5821796655654907 -1.104733943939209
-2.041078567504883 0.05816785991191864 0.9518774151802063
0.17030321061611176 -0.28863024711608887 -0.48971793055534363
-1.4092313051223755 0.31358277797698975 1.1262385845184326
-1.5588339567184448 -0.8140219449996948 0.6997362375259399
-1.601288914680481 -0.6971759796142578 -1.046600580215454
2.428501605987549 0.3883015811443329 1.0619899034500122
-0.23761001229286194 1.2211538553237915 -0.7081508040428162
-2.0520050525665283 0.2100222110748291 1.0907758474349976
0.14143063127994537 -0.3714096248149872 -0.9623108506202698
-0.07830758392810822 0.7086476683616638 0.18055132031440735
2.9303078651428223 0.3973959684371948 0.7625797390937805
-0.6929042935371399 0.10879626870155334 -0.6999512314796448
-2.491746664047241 -0.17600245773792267 -1.065690279006958
0.7676653861999512 1.2193199396133423 0.02883962355554104
-1.8822890520095825 -0.537431001663208 -1.0406122207641602
-0.43281838297843933 0.9690214991569519 0.8409791588783264
0.21034680306911469 0.24392341077327728 -1.1214207410812378
-2.1308419704437256 0.4550814926624298 1.0928051471710205
2.742119312286377 -0.5486752986907959 -0.9307355284690857
-1.429193139076233 0.6010482907295227 1.027430772781372
0.12700603902339935 0.17793551087379456 -1.1193400621414185
-2.6259336471557617 0.08264465630054474 0.9671323895454407
1.5821655988693237 -0.24858587980270386 1.1429842710494995
-1.8958816528320312 -0.2076416313648224 -0.09075580537319183
-1.0900858640670776 -0.16805696487426758 0.2011481523513794
2.374885082244873 -0.2893362045288086 0.8584142327308655
-0.8576265573501587 -0.22650232911109924 0.6631797552108765
-1.7598650455474854 -0.18692085146903992 0.1048363670706749
-0.889774739742279 0.29948896169662476 0.7964778542518616
-0.3363930583000183 0.6656103134155273 0.4079394042491913
2.8998963832855225 0.32740527391433716 -0.7866816520690918
-1.5020115375518799 -0.15623094141483307 -0.6893143057823181
2.6125290393829346 -0.4139697849750519 0.5496927499771118
2.554381847381592 -0.6974598169326782 0.7422751784324646
2.3598785400390625 -0.36446136236190796 -0.43850383162498474
-0.5592696666717529 0.5487457513809204 -0.5197012424468994
-1.3341165781021118 0.18621648848056793 1.0739731788635254
-2.6445364952087402 0.5458354353904724 -0.147230863571167
-0.7369595170021057 0.1382150799036026 -0.31167125701904297
2.9127461910247803 -0.4315563440322876 -0.5244835019111633
-1.5290086269378662 0.3004755973815918 -1.1200556755065918
3.055020809173584 0.002191513776779175 -0.7973515391349792
-0.4860735535621643 0.9152314066886902 0.561980664730072
2.9280529022216797 0.4850269854068756 0.5542283654212952
-0.6602902412414551 -0.1887432336807251 -1.1028374433517456
2.5587806701660156 -0.7912140488624573 -0.9412607550621033
-0.33860400319099426 -0.18672622740268707 -0.43097928166389465
-0.2987889051437378 1.0745030641555786 0.1062975600361824
2.0197534561157227 -0.7424108386039734 -0.8559637665748596
-0.921791672706604 0.33483433723449707 -1.1011919975280762
1.3573335409164429 -0.3992312550544739 -0.9340633153915405
2.602351665496826 -0.1309419721364975 -1.048998475074768
2.5317933559417725 -0.49872738122940063 0.7340992093086243
-1.9098446369171143 -0.1384223997592926 -1.0782527923583984
1.039061188697815 -0.3541528880596161 -0.688052773475647
1.9017225503921509 -0.3626454770565033 -0.4303015172481537
-1.8609946966171265 -0.5911520719528198 -1.0366580486297607
1.3020360469818115 0.580128014087677 -1.1712579727172852
-0.367699533700943 1.2135753631591797 0.6794992685317993
-0.5081754922866821 1.0327377319335938 0.4825986325740814
-1.1965408325195312 -0.8086960315704346 0.8339676260948181
-1.9536553621292114 0.11899856477975845 0.6954574584960938
-1.9587440490722656 0.4113773703575134 0.7214263677597046
-0.024675879627466202 1.2172901630401611 0.6689153909683228
-1.8658013343811035 0.20028169453144073 -0.5590491890907288
0.399867981672287 1.0081943273544312 0.8554801940917969
1.0766648054122925 0.13736626505851746 1.1250439882278442
3.134312152862549 -0.09148150682449341 -0.6958524584770203
-2.1353421211242676 -0.18664014339447021 1.03707754611969
-1.794283390045166 0.4944211542606354 0.7418391704559326
1.4957077503204346 -0.36485952138900757 -0.6534824967384338
-0.9472472071647644 -0.4929467737674713 1.0748670101165771
-1.7690784931182861 -0.6948264837265015 -0.5920456051826477
-0.5228371024131775 0.9664429426193237 0.3053223192691803
1.1571199893951416 -0.1554265320301056 -1.1057884693145752
-0.8171020746231079 -0.06917613744735718 1.1035068035125732
0.32622289657592773 -0.32253503799438477 -0.45877760648727417
-2.7025790214538574 -0.12825292348861694 -0.17479275166988373
-2.645419120788574 0.5006933212280273 -0.021435178816318512
-2.640162706375122 0.06764169782400131 0.701707124710083
2.05279541015625 -0.1777791529893875 -0.7701992392539978
0.49390849471092224 1.2255107164382935 -0.26388290524482727
-0.05466169863939285 -0.2598732113838196 0.5601296424865723
-2.4654431343078613 0.09901365637779236 1.0452827215194702
3.157907724380493 -0.12273621559143066 0.45184382796287537
2.79512095451355 -0.5106119513511658 0.7864238023757935
-0.6968435645103455 -0.20684142410755157 0.2950684130191803
3.015934467315674 0.3982210159301758 -0.36284714937210083
-0.1591140627861023 -0.3466840982437134 0.9497931003570557
0.4093693494796753 -0.34763386845588684 0.18156698346138
-1.2330524921417236 -0.18251165747642517 0.8440781831741333
-0.015756964683532715 -0.25868335366249084 -0.5544959306716919
-1.6846842765808105 0.24687188863754272 -0.7706785798072815
-2.272738456726074 0.5949538946151733 -0.9401580691337585
-2.6284120082855225 0.5657845139503479 -0.43565836548805237
-1.118880271911621 0.22964638471603394 -1.1064155101776123
2.1050076484680176 -0.1564592868089676 -1.0346839427947998
3.0809378623962402 0.13685806095600128 0.3608558773994446
-1.2347748279571533 0.13834580779075623 0.0465083085000515
-2.499537706375122 0.08205047249794006 -1.0685510635375977
3.0047919750213623 0.4496123790740967 0.18571439385414124
0.20664674043655396 -0.22049522399902344 1.1288797855377197
3.1047282218933105 0.18455664813518524 0.321513831615448
-0.30270180106163025 0.5132566690444946 -1.0356059074401855
0.4693053960800171 1.2252161502838135 0.22400294244289398
2.3694114685058594 -0.7949199676513672 1.0683568716049194
-0.6616633534431458 -0.3287034034729004 0.9316027164459229
-1.037556767463684 -0.47161656618118286 1.0829976797103882
0.142502099275589 -0.3237195611000061 -0.8634108901023865
3.0921409130096436 -0.25955888628959656 -0.28560981154441833
-0.6430543661117554 0.4405209720134735 -0.8500458598136902
-0.5618165731430054 0.07589215040206909 -1.1212728023529053
2.8513643741607666 0.4054015874862671 -0.7556537985801697
2.385899066925049 0.23891112208366394 1.1232483386993408
-2.6594204902648926 0.01991303265094757 -0.826226532459259
-2.6423096656799316 0.344354510307312 0.9352836012840271
2.221451997756958 -0.19809842109680176 -1.0281610488891602
2.059957504272461 -0.29784372448921204 1.1465399265289307
1.5532679557800293 -0.3503555357456207 0.47088727355003357
2.24660062789917 0.5815436840057373 0.8629640936851501
-0.012655504047870636 -0.3707119822502136 -0.974552571773529
-1.5386117696762085 -0.5727752447128296 -0.8502950668334961
1.4407421350479126 0.7148513197898865 -0.8947252035140991
0.9541807174682617 -0.3580936789512634 -0.6917504668235779
-1.282080888748169 0.5865211486816406 1.044453740119934
-0.536270260810852 1.178126573562622 0.21459762752056122
0.10264617949724197 -0.2601388096809387 0.8278469443321228
-2.4196109771728516 0.2164348065853119 -0.16441087424755096
1.1665574312210083 0.6621216535568237 -0.9647455215454102
0.23116278648376465 0.458477258682251 -1.0621517896652222
-2.5129685401916504 -0.27211421728134155 -1.0435662269592285
-2.420214891433716 0.49732017517089844 0.5766019821166992
-1.8450323343276978 -0.1736939251422882 1.0829436779022217
1.5974303483963013 -0.3530474901199341 0.2907584607601166
-2.575500965118408 -0.27777165174484253 0.7320079803466797
2.0335073471069336 -0.34646233916282654 0.9101832509040833
1.936688780784607 -0.12059010565280914 1.1527009010314941
2.942194938659668 0.07641918212175369 0.9733713865280151
1.978554368019104 -0.6970030069351196 -0.8520639538764954
-0.9365217089653015 -0.5134505033493042 -0.9694114327430725
-0.8635187149047852 -0.29087793827056885 0.7678263187408447
-1.4215266704559326 0.00660628080368042 -0.8246385455131531
-0.4747264087200165 0.9215093851089478 0.7208656072616577
-2.6719167232513428 -0.06890076398849487 0.33833831548690796
-0.0050771161913871765 0.201393723487854 1.1302721500396729
2.0746026039123535 -0.7644482851028442 -0.9985069036483765
2.5598361492156982 -0.7264482975006104 -0.7664146423339844
-0.1821332573890686 -0.2064206302165985 -0.6013281345367432
1.5418983697891235 -0.10890239477157593 1.1320651769638062
-1.0810543298721313 -0.40738552808761597 1.076052188873291
2.6112968921661377 -0.10083453357219696 0.7888447642326355
2.6456730365753174 -0.6353880167007446 1.092613697052002
1.9167001247406006 -0.3826688230037689 -0.519565999507904
2.2358686923980713 0.14956635236740112 -0.8339421153068542
0.2463320791721344 1.0905414819717407 -0.7703354954719543
-0.2570488452911377 1.2742866277694702 0.3189208209514618
2.4473884105682373 -0.7405118942260742 0.7402629256248474
-0.36518409848213196 0.5270240306854248 -1.038435935974121
2.937145233154297 -0.4388575553894043 -0.2022111564874649
-0.4293660521507263 -0.2627904713153839 -0.8844281435012817
-1.780595064163208 -0.20997273921966553 -1.0025385618209839
-0.4643723964691162 0.6855173110961914 -0.9755563735961914
-1.8774232864379883 -0.2663305997848511 0.6718347668647766
0.5410315990447998 -0.320198118686676 -0.19684067368507385
-0.6903044581413269 0.8297219276428223 -0.43355947732925415
-0.9485771656036377 0.1245063915848732 -0.7071548700332642
-1.4007411003112793 -0.2260081022977829 1.0690149068832397
2.058168649673462 -0.3503011167049408 0.6966917514801025
-2.158249855041504 -0.19675442576408386 0.8109893202781677
-2.3075485229492188 -0.2784108519554138 -0.39586135745048523
-1.388425588607788 -0.7202233076095581 0.628405749797821
-1.2628690004348755 0.12861628830432892 -0.5220821499824524
1.2371785640716553 1.049431562423706 0.4429568648338318
0.16084632277488708 1.2116129398345947 0.5781481862068176
0.9344315528869629 -0.01611045002937317 -1.1379622220993042
-1.0715357065200806 -0.40505173802375793 0.4608743190765381
-1.9579219818115234 0.6406508088111877 0.9933800101280212
0.5851227045059204 0.41955798864364624 1.0905542373657227
-0.15780723094940186 0.6904056072235107 -0.03715559095144272
-1.7913192510604858 -0.24782273173332214 -0.5472298264503479
2.2505621910095215 0.6178374290466309 0.0736326351761818
2.1736955642700195 0.5286597013473511 -0.9772654175758362
1.3182364702224731 0.6859440207481384 1.222744345664978
-2.7126870155334473 -0.1126319169998169 -0.6365271806716919
-1.162305474281311 -0.1664534956216812 -0.006911581847816706
-2.3474483489990234 0.5980412364006042 1.0032658576965332
-1.7472575902938843 0.1571979522705078 -1.1101558208465576
1.8047444820404053 -0.20917223393917084 -1.0909308195114136
-0.5893244743347168 -0.35600680112838745 0.9065417647361755
2.2432057857513428 0.44879087805747986 1.055673360824585
-0.4895152151584625 0.9166797995567322 -0.3208938241004944
1.570683240890503 0.7068160772323608 0.65137779712677
-1.8547371625900269 -0.6379661560058594 0.996309220790863
-1.28146493434906 0.19360727071762085 1.101837158203125
-0.30048155784606934 1.0384684801101685 -0.8342721462249756
2.4045474529266357 0.19164974987506866 -1.0997668504714966
-1.8414678573608398 -0.29875290393829346 -1.0146453380584717
-2.0536601543426514 -0.39020228385925293 0.3533895015716553
-2.70890474319458 -0.09522192180156708 -0.3236483931541443
3.1134843826293945 0.29608774185180664 0.05649947002530098
2.2042174339294434 -0.2833256721496582 -0.6827549338340759
-2.653311014175415 -0.2849571704864502 0.29642847180366516
1.8604016304016113 -0.3495534360408783 0.543522298336029
2.6426162719726562 -0.46703529357910156 -0.23099087178707123
2.8843536376953125 -0.10852330923080444 -0.99850994348526
-1.8361409902572632 -0.1990649253129959 -1.088989496231079
2.9471569061279297 -0.43151339888572693 0.2457742989063263
-0.3587897717952728 0.747920572757721 0.935195803642273
2.8528358936309814 0.19444085657596588 -0.9853640198707581
1.6783956289291382 -0.36849522590637207 0.8019817471504211
2.3746755123138428 0.6125094890594482 -0.5081160068511963
2.24204158782959 -0.2882230877876282 1.157839298248291
2.698176860809326 -0.028758779168128967 1.1348096132278442
0.4340595602989197 -0.006035804748535156 1.124263048171997
0.7326784729957581 0.9750555157661438 -0.8219357132911682
0.5596293210983276 -0.34148406982421875 0.036345601081848145
-1.6193218231201172 -0.4850115180015564 1.0321369171142578
1.6908363103866577 -0.36494117975234985 0.007875362411141396
-0.2425142526626587 -0.27054864168167114 0.4983983635902405
-2.6941988468170166 -0.29814276099205017 0.29438862204551697
0.780251681804657 -0.35382989048957825 0.31605544686317444
-1.5977492332458496 -0.3392708897590637 -0.9553453326225281
-1.0435714721679688 -0.6326891183853149 1.11025869846344
1.28659188747406 0.5670493245124817 -1.1673424243927002
2.92421293258667 0.5046048760414124 -0.15152288973331451
0.22754161059856415 0.2557235360145569 1.1175564527511597
-2.052574872970581 -0.02037978172302246 0.7846119403839111
-0.32936251163482666 -0.2221865952014923 0.0933016687631607
2.1631596088409424 0.02114042639732361 0.7813239097595215
1.0507726669311523 -0.35124534368515015 0.839157223701477
2.4480905532836914 -0.6182032823562622 0.7612907886505127
0.13020074367523193 1.2250192165374756 0.2722184360027313
-1.85380220413208 -0.1642262488603592 -1.0200303792953491
-0.4319189190864563 0.8919422626495361 -0.29494690895080566
-1.397975206375122 0.18707811832427979 -0.2719131112098694
-0.20477186143398285 -0.28936782479286194 0.42616376280784607
2.8401434421539307 0.525597095489502 -0.18794561922550201
1.4976459741592407 0.7742695808410645 -0.7426285743713379
-1.5773546695709229 -0.04599691927433014 1.0906184911727905
2.3940563201904297 -0.36778849363327026 0.15264876186847687
-1.4526950120925903 0.15727978944778442 0.11086200922727585
-1.5471676588058472 0.24754168093204498 1.1141188144683838
-1.9235217571258545 0.5245221257209778 -1.0538243055343628
0.4343481957912445 -0.3627513647079468 -1.0545134544372559
-2.2286832332611084 -0.3964763879776001 0.9608469009399414
0.7371687889099121 1.1244016885757446 0.7848864793777466
0.858798086643219 1.1879502534866333 0.4579620659351349
-2.5413482189178467 0.2882686257362366 -1.0528604984283447
2.1591832637786865 -0.699338436126709 -1.08057701587677
-0.46492522954940796 -0.26595139503479004 0.2934500575065613
0.9392518997192383 -0.34696120023727417 0.9591478705406189
-0.3125462532043457 -0.11083284020423889 -1.1078078746795654
1.1518882513046265 -0.30265507102012634 1.106899619102478
2.0893945693969727 -0.11886841058731079 0.9594078660011292
0.5159013867378235 -0.35781776905059814 -0.6148373484611511
2.216750383377075 0.3114745020866394 1.1284846067428589
-1.0253130197525024 0.48692768812179565 1.0907405614852905
0.9885695576667786 0.7609900832176208 0.9444407224655151
-0.10171405971050262 -0.2263103425502777 -0.6150569319725037
0.14376476407051086 1.0524873733520508 -0.7847276329994202
-0.6966308951377869 0.5898598432540894 1.0317447185516357
2.7584264278411865 -0.4236886501312256 0.055873122066259384
2.330568790435791 0.582775354385376 0.5276101231575012
3.0723605155944824 -0.1559973806142807 0.733716607093811
1.7629314661026 -0.20108702778816223 1.0726202726364136
-1.0255123376846313 -0.4136096239089966 1.0592150688171387
-1.0986862182617188 -0.588098406791687 1.0799113512039185
-0.5170385837554932 0.49999165534973145 0.16098938882350922
0.7935119867324829 0.661959171295166 0.985223650932312
-2.405693769454956 -0.23744356632232666 0.3062364459037781
-1.5064929723739624 0.5496268272399902 -1.0587278604507446
2.2013278007507324 -0.23907947540283203 -1.0541588068008423
2.175781726837158 -0.05654330551624298 -0.8016587495803833
0.0006692633032798767 0.4361414909362793 1.0914393663406372
2.5228867530822754 -0.3136764168739319 0.8902053236961365
0.03680119663476944 1.2248042821884155 0.07099587470293045
0.5645240545272827 -0.3504014313220978 -0.518123984336853
-2.4489357471466064 0.5767865180969238 1.0124582052230835
2.0145576000213623 -0.0075661540031433105 1.1061943769454956
-0.508926510810852 0.8533124327659607 -0.3688080310821533
1.7543858289718628 0.6438319683074951 0.41075360774993896
-0.20347103476524353 -0.2219061553478241 -0.7411796450614929
-2.386765241622925 0.29500633478164673 0.4208779036998749
0.0028935857117176056 1.011065125465393 -0.8207045197486877
2.618739366531372 0.5466768741607666 0.6778579354286194
-1.5700510740280151 0.07322344928979874 0.8591095209121704
1.2096627950668335 -0.3584806025028229 -0.5995376110076904
0.5269787907600403 0.7952399849891663 -0.9166339039802551
-0.881266176700592 -0.4656962454319 -1.0110832452774048
0.3567654490470886 -0.35972169041633606 1.0339316129684448
-1.2963669300079346 0.33524104952812195 1.099016785621643
-0.24978354573249817 -0.20920562744140625 -0.277366578578949
-0.781995952129364 -0.19245781004428864 1.0972135066986084
-2.258463144302368 -0.292227566242218 -0.6255390048027039
1.2678788900375366 0.736243724822998 -1.1701915264129639
-2.3855221271514893 -0.31020087003707886 -1.0316450595855713
2.358844518661499 -0.035586923360824585 0.8442760705947876
2.2679269313812256 0.5825746059417725 0.817223072052002
-1.3517664670944214 -0.613018274307251 -0.9475171566009521
-1.9392077922821045 -0.36587363481521606 0.7378713488578796
-2.626737594604492 0.5601869821548462 0.6913158297538757
-2.7187294960021973 -0.24855178594589233 -0.5117155313491821
2.098111629486084 -0.22260233759880066 -0.8172912001609802
2.150729179382324 0.009431391954421997 -0.7834323644638062
2.8486251831054688 0.5196245908737183 0.4307502210140228
-0.4958947002887726 1.0224071741104126 0.27362293004989624
2.0167880058288574 0.0759279802441597 1.0118231773376465
-1.104361891746521 -0.030982092022895813 -1.1510076522827148
-1.7756056785583496 -0.24663695693016052 0.711226224899292
-0.43218904733657837 0.25745952129364014 0.10166122019290924
-1.6870815753936768 0.18008466064929962 1.1348457336425781
2.996912956237793 0.2982012629508972 0.79777991771698
-0.8228271007537842 0.5083844661712646 1.093884825706482
2.494875192642212 -0.5662680268287659 1.1267805099487305
-1.8165490627288818 -0.3325929045677185 0.7739776968955994
-2.023549795150757 0.5037966966629028 -0.872248649597168
-2.546694755554199 0.5954442620277405 -0.8614429831504822
-2.2543163299560547 0.5808514356613159 0.7989884614944458
-0.9101933836936951 -0.49222326278686523 0.9836191534996033
-2.097369432449341 0.46386632323265076 -1.0598628520965576
0.7201930284500122 0.6146836280822754 0.9939954280853271
-1.6537431478500366 0.6319044828414917 -0.9160057306289673
2.5764968395233154 -0.5568156242370605 -0.8083361983299255
-1.4166663885116577 0.21106134355068207 0.7480782866477966
-0.1296505331993103 0.6035999059677124 -1.0038774013519287
-1.7370543479919434 0.588736355304718 1.0420984029769897
2.873095750808716 0.532000720500946 0.20358091592788696
2.485058307647705 -0.7171424627304077 0.7351480722427368
1.5865576267242432 -0.1290547400712967 -1.1105387210845947
-2.4075655937194824 0.5217633247375488 -0.3618122637271881
-0.362531840801239 0.06526987254619598 1.1146283149719238
-0.03558613359928131 -0.27445539832115173 0.9329491853713989
0.6800804138183594 1.2178117036819458 0.1559864580631256
-0.4885233938694 0.9836797714233398 -0.03879357874393463
1.6306471824645996 -0.3559912145137787 -0.7892893552780151
2.700270175933838 -0.420852392911911 -0.348082959651947
0.7821155786514282 0.6405290365219116 0.975452184677124
2.9199142456054688 -0.421707421541214 0.3304939270019531
-1.4863556623458862 -0.1499616950750351 0.7101733684539795
-2.016477584838867 0.19094577431678772 -0.3518761992454529
-0.36480918526649475 0.0887855514883995 -1.1245431900024414
1.6770802736282349 0.6417490243911743 0.6730049848556519
1.769903302192688 -0.36511802673339844 0.5173430442810059
-0.4053356647491455 1.2320343255996704 -0.7536529302597046
-2.7135095596313477 -0.16515563428401947 -0.39560407400131226
-0.0552997924387455 0.7538854479789734 0.959140956401825
2.2937891483306885 -0.4121413230895996 1.1178536415100098
-0.9865127205848694 0.45733439922332764 0.7723549008369446
2.367830753326416 0.11799603700637817 -0.7611874341964722
0.4540068209171295 1.2105132341384888 -0.42998769879341125
-1.1852399110794067 -0.4673386812210083 -0.8689048886299133
1.3546550273895264 -0.035642385482788086 -1.1281157732009888
0.5128663182258606 0.7515848875045776 0.9488081336021423
-1.691542625427246 0.2002088874578476 -0.6377187371253967
-1.4448878765106201 -0.6482853293418884 -0.76924729347229
0.6427189111709595 -0.05821633338928223 -1.139338493347168
-1.7747057676315308 0.16133983433246613 0.3404151499271393
-0.7465953230857849 0.15481694042682648 -0.7848740220069885
-1.3020092248916626 0.6219215989112854 0.9738146662712097
1.8523846864700317 0.626121461391449 0.7066525816917419
0.01841443032026291 -0.2629914879798889 0.25090986490249634
1.9511476755142212 0.013681963086128235 -0.8665295243263245
-2.117497444152832 0.3375493288040161 1.0889512300491333
2.4045262336730957 0.3277209401130676 1.0846271514892578
-1.7185885906219482 0.23650555312633514 -0.8685495257377625
1.92722749710083 -0.6464436054229736 -0.8281487822532654
-2.6300270557403564 0.535102903842926 -0.7396197319030762
-1.2923933267593384 0.5473042130470276 0.7961837649345398
2.8624801635742188 -0.4637199938297272 0.6777421832084656
-2.2363107204437256 -0.21433952450752258 1.058122992515564
-1.4270625114440918 -0.5457709431648254 1.0613075494766235
-0.8762370347976685 0.4168323874473572 0.769555926322937
-1.7286453247070312 -0.21761402487754822 -0.20508460700511932
0.0052005089819431305 -0.37406933307647705 -0.9646274447441101
-0.49607694149017334 0.17050281167030334 -0.019176442176103592
0.715830385684967 0.8987804651260376 -0.857429563999176
2.2891294956207275 0.38695085048675537 1.0838853120803833
-2.6378965377807617 0.021326705813407898 0.47491493821144104
-1.1076674461364746 0.34336310625076294 1.091956377029419
1.9954606294631958 -0.1650460809469223 -0.848044753074646
1.16477370262146 1.106062412261963 0.29126623272895813
2.4674487113952637 -0.7355018854141235 0.7315126061439514
-0.07031537592411041 1.2278902530670166 0.4723578691482544
0.3614680767059326 0.5574465990066528 -1.0224621295928955
0.888298749923706 1.1092050075531006 0.799826443195343
-1.437311053276062 -0.34408897161483765 -0.9080791473388672
-0.8166792988777161 -0.1836169958114624 -0.35601839423179626
3.1805686950683594 -0.2521944046020508 -0.38051456212997437
1.01220703125 -0.32887303829193115 -1.0653533935546875
-0.9854902625083923 -0.5709242224693298 -1.0718215703964233
0.6336193084716797 -0.33287346363067627 0.41156989336013794
2.3940484523773193 -0.40225744247436523 0.8012734055519104
2.1512482166290283 -0.05711802840232849 0.9384775757789612
-1.618874430656433 0.5160437822341919 1.0714526176452637
2.9779698848724365 -0.19712363183498383 -0.9344227910041809
-2.2428133487701416 0.10660485923290253 1.0499868392944336
-0.9728222489356995 -0.6320750117301941 -0.5882539749145508
2.816011667251587 -0.463659405708313 -0.3344001770019531
1.0423321723937988 0.6920519471168518 -0.9444640874862671
1.3482834100723267 0.7016451358795166 1.2135772705078125
-0.17418310046195984 -0.21983101963996887 1.1051697731018066
2.275460958480835 0.01174250990152359 0.7319311499595642
2.072214365005493 0.5809077620506287 0.8923183083534241
-2.151177167892456 0.2136872410774231 -0.821969211101532
-2.6573405265808105 0.13841526210308075 0.6442995071411133
2.8888981342315674 0.52882319688797 0.026221096515655518
-2.6602771282196045 0.0010353922843933105 -0.9219052791595459
2.2690041065216064 0.05531391501426697 0.8277855515480042
-2.6713478565216064 0.03189310431480408 0.13310697674751282
2.385319709777832 0.0648307353258133 0.7949129939079285
-0.4284170866012573 0.28292107582092285 -1.100764513015747
-1.1601117849349976 -0.22580687701702118 0.8928742408752441
-1.4932750463485718 -0.16744157671928406 0.16644015908241272
2.3282620906829834 0.5751105546951294 -0.8400209546089172
2.89115571975708 0.2737763524055481 0.9890725016593933
-0.3663334846496582 -0.19242292642593384 -0.47369635105133057
-2.6533443927764893 0.03191705048084259 -0.06546346843242645
2.16497802734375 0.6379048228263855 -0.19229444861412048
-0.8445249199867249 0.615425169467926 0.9902220368385315
-1.4573124647140503 -0.01234927773475647 1.0919556617736816
-1.3665343523025513 0.16591119766235352 0.6881732940673828
-0.5823777318000793 0.1598781943321228 -0.7107274532318115
-1.1028707027435303 0.16459333896636963 0.669389009475708
-2.4010932445526123 0.5313687324523926 0.026967953890562057
-0.9599530696868896 0.133065328001976 0.6079208850860596
-1.486520528793335 -0.2756292223930359 0.8243593573570251
1.159988522529602 1.0500339269638062 -0.7053026556968689
-2.2717361450195312 0.33397942781448364 1.0792852640151978
1.7354031801223755 -0.3632085919380188 0.9940568208694458
-1.105124592781067 -0.375051349401474 -1.0122634172439575
2.0764427185058594 -0.03269165754318237 -0.8039233684539795
2.965029716491699 -0.22917303442955017 -0.950281023979187
0.5859594941139221 0.4930402636528015 1.063966989517212
-2.423668384552002 -0.2743181586265564 0.2048906832933426
3.0672414302825928 0.07374967634677887 0.6353353261947632
-1.3842535018920898 0.6027859449386597 -1.0214428901672363
-0.685773491859436 0.37817463278770447 1.098469853401184
-1.2624657154083252 0.40194928646087646 -0.8509193062782288
-0.5007537603378296 1.066495656967163 -0.27348625659942627
-1.3581503629684448 -0.11030876636505127 -0.7452278137207031
-1.0537235736846924 0.17671604454517365 -1.1318657398223877
2.206305742263794 0.6209585666656494 0.30604246258735657
1.7669646739959717 -0.34946349263191223 -0.43153226375579834
2.20009183883667 0.5894113183021545 -0.8102468252182007
2.1285171508789062 -0.8173678517341614 0.8250145316123962
0.21577703952789307 -0.2859761118888855 -0.05185355246067047
-2.65879487991333 -0.07637917995452881 0.847609281539917
-0.11572949588298798 1.2352951765060425 -0.07056363672018051
1.8297959566116333 -0.5212695598602295 1.060983657836914
1.016026258468628 -0.3554612994194031 0.11910396069288254
2.153318405151367 -0.4608091115951538 -1.038714051246643
1.4175149202346802 0.6444544196128845 0.9862217903137207
-1.7574704885482788 0.1548023521900177 0.2651803195476532
0.6600450873374939 -0.26181331276893616 1.1165944337844849
3.006335973739624 0.24785774946212769 0.7800358533859253
2.4093692302703857 -0.31913894414901733 -1.0366880893707275
2.9278690814971924 0.1124000996351242 -0.9307700395584106
1.5848116874694824 0.6868014335632324 0.7049127221107483
-1.417789101600647 -0.8412829041481018 -0.7324366569519043
2.90244722366333 0.07183215767145157 1.0009448528289795
2.6498029232025146 -0.4897961914539337 -0.6534339785575867
0.033532287925481796 1.219216227531433 0.18256810307502747
-1.6207431554794312 -0.6758867502212524 0.6500869393348694
2.6251840591430664 0.5702405571937561 -0.4909970760345459
1.1138033866882324 0.0794864371418953 -1.1286102533340454
-2.2140417098999023 0.45305147767066956 -1.0712313652038574
-2.1342506408691406 -0.24323107302188873 0.5910710692405701
0.7557889819145203 0.3789696991443634 -1.089834451675415
1.6761126518249512 -0.22513402998447418 1.1225041151046753
1.7060917615890503 -0.3709767460823059 -0.7816629409790039
-0.4714656472206116 0.5855334997177124 -1.0292524099349976
-1.801256537437439 0.25658971071243286 -0.8423659801483154
-1.9513839483261108 -0.455296128988266 1.0173979997634888
-0.1843414157629013 0.9034110307693481 -0.07454681396484375
0.2321077287197113 -0.3069162666797638 -0.15086475014686584
-2.089925527572632 -0.20244109630584717 0.2117922157049179
0.07664745301008224 1.2306562662124634 -0.07445886731147766
-1.9997615814208984 -0.23310436308383942 0.7975952625274658
1.8875494003295898 0.18924248218536377 1.1568505764007568
-0.5019680261611938 1.1765661239624023 0.5302486419677734
-0.5083333849906921 1.1019495725631714 -0.12604527175426483
-2.3479137420654297 0.4785977602005005 -0.8050066232681274
-1.2440050840377808 0.6180441379547119 -0.9576880931854248
2.232700824737549 -0.7999542951583862 -1.044448733329773
1.0666579008102417 0.9267969131469727 0.9007006883621216
0.8173263669013977 -0.35099124908447266 0.04525132104754448
-2.6505022048950195 0.2109600156545639 0.9614137411117554
2.504567861557007 0.0608312264084816 0.8585934638977051
2.8140997886657715 0.05981197953224182 1.0610525608062744
0.9449867606163025 -0.15686476230621338 1.1345338821411133
-0.5793600678443909 0.3463139235973358 -1.094090461730957
-0.4245108664035797 0.6842261552810669 0.9280446171760559
1.0048909187316895 1.1427973508834839 0.5241061449050903
2.184964895248413 0.48020124435424805 1.0350995063781738
-0.9173180460929871 0.20586085319519043 -0.8660578727722168
1.1247992515563965 -0.3512345254421234 -0.022580591961741447
2.343731641769409 -0.36210575699806213 1.000972032546997
0.4637036919593811 -0.32692235708236694 0.5643365383148193
1.493523120880127 -0.34465616941452026 -0.1319870501756668
-1.306251049041748 0.04561462253332138 1.102841854095459
1.3737852573394775 0.11275799572467804 -1.1330654621124268
-1.1314043998718262 -0.1624622642993927 0.20838996767997742
-1.8717737197875977 0.16288116574287415 0.05077222362160683
2.8340890407562256 -0.4256306290626526 -0.9662376046180725
2.0146050453186035 -0.514479398727417 -1.1040642261505127
-2.3999133110046387 0.5119880437850952 -0.026898251846432686
-2.122192859649658 -0.18091438710689545 1.0848826169967651
1.1724251508712769 1.1244275569915771 0.15383809804916382
-2.647587776184082 0.33591750264167786 0.9102802276611328
2.132216453552246 -0.39436691999435425 -1.0011577606201172
-2.645775556564331 0.2137175053358078 0.9731026887893677
-0.7635286450386047 0.3890916705131531 1.0949311256408691
-0.3005019724369049 -0.3008517622947693 -0.9208534359931946
-2.2027292251586914 0.15986281633377075 0.02563648670911789
0.006145317107439041 0.15135718882083893 -1.1203573942184448
1.68677818775177 -0.3565436601638794 -0.0904323160648346
-1.3571432828903198 -0.050357118248939514 -1.0825289487838745
-0.9506184458732605 -0.5771437883377075 0.73161780834198
-1.6841003894805908 0.16018016636371613 0.3335517942905426
2.4892215728759766 -0.7478877305984497 -1.042112112045288
1.278393268585205 0.7198512554168701 -1.1222898960113525
-1.9567817449569702 -0.36108118295669556 -0.7945833802223206
-2.610987663269043 -0.3299781382083893 -0.18023864924907684
-0.18529275059700012 0.5588647127151489 -1.0305930376052856
1.8762977123260498 0.15695014595985413 1.1387578248977661
0.6179766654968262 -0.34430575370788574 -0.2821117341518402
2.0611062049865723 0.6194404363632202 0.46049028635025024
2.402553081512451 0.3228634297847748 -1.0881010293960571
-1.5916328430175781 -0.39537230134010315 0.9461310505867004
1.8609176874160767 0.6359512209892273 0.537908673286438
-2.66192626953125 0.2403908371925354 0.04279102385044098
-0.2797051668167114 0.8398399949073792 0.0019198916852474213
0.4533766210079193 -0.33885458111763 0.3232358694076538
-2.154702663421631 0.6144217252731323 -0.9319705963134766
-2.4978854656219482 0.3945821523666382 1.0457603931427002
2.1643226146698 -0.506449818611145 0.8410018682479858
0.8301097750663757 0.9084258079528809 0.8980088829994202
-2.3572840690612793 0.4951251745223999 0.3440251350402832
1.7404546737670898 -0.3613045811653137 0.10187527537345886
-2.268123149871826 -0.20544035732746124 0.11028915643692017
-2.459554672241211 -0.3881162703037262 -0.6844421625137329
-1.3681042194366455 0.5727682709693909 1.044572114944458
-0.5210829973220825 -0.17929582297801971 -0.17828577756881714
-0.212384894490242 0.11593914777040482 1.1224868297576904
-1.2004011869430542 0.20699599385261536 -1.1041864156723022
2.526118516921997 0.019709065556526184 1.1478880643844604
1.2075343132019043 0.6784448027610779 0.9806023836135864
1.7502422332763672 -0.5036419034004211 -1.0389105081558228
1.0347572565078735 0.21996527910232544 -1.1131342649459839
2.288588762283325 -0.6508370637893677 -0.9634422063827515
0.4920813739299774 0.396923303604126 1.1086928844451904
2.905345916748047 -0.3406185507774353 0.9696534872055054
2.406444549560547 -0.6386809349060059 0.8311901092529297
-1.0781989097595215 -0.6640357375144958 0.5896474123001099
-0.23983561992645264 -0.20706483721733093 -0.05699380114674568
-0.19213548302650452 -0.21754240989685059 -0.5202137231826782
-2.2866034507751465 0.24061883985996246 1.068548560142517
-0.419321209192276 0.3225889801979065 -1.094824194908142
-1.839233636856079 -0.5775434374809265 -0.5923829674720764
-1.5379483699798584 -0.13582152128219604 0.8752223253250122
-1.0466227531433105 -0.42386484146118164 1.0733381509780884
0.654927134513855 0.05262035131454468 -1.1100995540618896
-1.5714871883392334 0.2678016424179077 0.6596513986587524
0.9808204770088196 0.7204237580299377 0.9627466201782227
0.4576655924320221 0.5907292366027832 1.03329336643219
3.1638970375061035 -0.11698037385940552 -0.312791645526886
-1.46310555934906 -0.21268416941165924 0.979750394821167
-0.07989084720611572 1.0114854574203491 -0.8074701428413391
1.2327488660812378 0.9718353152275085 0.7853021621704102
-0.6732479929924011 0.5924280881881714 1.035300612449646
-0.5108169913291931 -0.2298329472541809 0.36705610156059265
2.1876473426818848 0.6099053621292114 -0.6100518107414246
1.4857571125030518 0.4665762782096863 -1.0796515941619873
1.5121852159500122 -0.05218997597694397 -1.113610863685608
1.367100715637207 0.6655873656272888 -1.2311679124832153
1.575325846672058 -0.3479428291320801 -0.3609737753868103
1.549930214881897 -0.35355061292648315 -0.5473080277442932
3.087298631668091 -0.17815716564655304 -0.5265843272209167
2.3493475914001465 0.6094194650650024 0.48250478506088257
0.742952287197113 1.1934586763381958 -0.5498641729354858
1.1123229265213013 -0.35693004727363586 0.26441365480422974
-2.3873326778411865 -0.22625546157360077 -1.0280110836029053
-1.3617850542068481 -0.8188263177871704 -0.738930344581604
2.1887669563293457 -0.6611276865005493 -1.0677541494369507
-2.65399169921875 -0.3101117014884949 -0.5388659238815308
0.001776818186044693 -0.0899411141872406 -1.1059484481811523
-1.0653531551361084 -0.22324523329734802 0.8673036694526672
0.33939510583877563 1.2267662286758423 0.029346181079745293
0.9358949065208435 -0.34184572100639343 0.8891133069992065
2.8412275314331055 -0.4331814646720886 -0.503192126750946
2.1367578506469727 -0.3649662137031555 -0.5266563296318054
-1.7662221193313599 -0.5524202585220337 1.0908070802688599
3.0759475231170654 0.2658505141735077 -0.30680397152900696
-1.6444590091705322 0.17317833006381989 -0.38277310132980347
-0.7329875230789185 0.24061787128448486 -0.8321521282196045
0.3270605206489563 1.2210676670074463 -0.37829285860061646
-1.5714669227600098 -0.19285136461257935 -0.020045824348926544
-0.7923749089241028 -0.1824207752943039 -0.5458373427391052
2.461503744125366 -0.6509518623352051 0.7166429162025452
1.393067717552185 0.3381056785583496 1.1252073049545288
-2.6201257705688477 0.533907413482666 0.2707008123397827
-0.5256837606430054 1.1134235858917236 0.12116154283285141
2.085641384124756 -0.38100990653038025 1.163031816482544
-2.483811616897583 0.6361528635025024 -0.06322932988405228
-0.28950849175453186 0.9650765657424927 -0.8564732670783997
-1.2715471982955933 0.6181551218032837 1.006772518157959
2.4673616886138916 -0.1503337174654007 0.9652575254440308
-1.5688650608062744 -0.23636369407176971 0.7953742742538452
-1.558300256729126 -0.39262479543685913 0.8870182037353516
2.438107967376709 -0.718156099319458 0.722810685634613
-1.3426687717437744 -0.605301022529602 0.6559178829193115
2.1036086082458496 -0.6055023074150085 -0.6853324174880981
2.8516945838928223 0.5382031202316284 0.1614823043346405
-1.4516199827194214 -0.7937324047088623 -0.5938218235969543
-1.9401196241378784 -0.3204919099807739 0.7448108792304993
2.2428510189056396 -0.6649298071861267 0.8556532263755798
1.7200381755828857 0.06547174602746964 1.1376335620880127
2.1560330390930176 -0.7879244685173035 -0.9184497594833374
2.937152624130249 0.36844441294670105 -0.6371764540672302
2.194328546524048 0.40945136547088623 -1.0646544694900513
-0.9843609929084778 -0.6688307523727417 -0.5729039907455444
-1.9891903400421143 -0.3251856863498688 -0.5771714448928833
2.0208041667938232 0.4246441125869751 -1.0585880279541016
-1.0568873882293701 0.48941975831985474 0.7983169555664062
1.4014532566070557 0.45553329586982727 -1.1458581686019897
-2.628571033477783 0.5664717555046082 -0.25582510232925415
-1.7655892372131348 -0.042835742235183716 -0.8208075165748596
-0.10807915776968002 0.7785122990608215 -0.006327612325549126
-1.615504264831543 -0.4773889183998108 -0.8424853086471558
-1.9646031856536865 0.191421240568161 -0.5309492945671082
1.8442752361297607 0.6529389023780823 0.3034787178039551
-1.6245450973510742 0.12607571482658386 -1.0778741836547852
-1.286698341369629 -0.31807941198349 0.633914053440094
2.058326482772827 -0.36485204100608826 0.029853515326976776
1.997360348701477 -0.3652641475200653 0.36269983649253845
0.013835571706295013 -0.35799118876457214 -1.0171397924423218
2.6130523681640625 -0.3681003749370575 0.21902835369110107
