ply
format ascii 1.0
element vertex 813
property float x
property float y
property float z
end_header
-0.9498377442359924 0.263688862323761 -0.461414098739624
0.04318646341562271 -0.5610120296478271 0.043655045330524445
1.2383657693862915 -0.5642150640487671 -0.3625074028968811
0.4647829532623291 -0.00744020938873291 0.33241647481918335
-0.3262467682361603 -0.28731733560562134 0.2626732587814331
1.6399240493774414 0.6172392964363098 1.464700698852539
-0.06463180482387543 -0.18328909575939178 -0.6959459185600281
-2.5901741981506348 0.06479565799236298 -1.0840296745300293
0.11872027069330215 0.4667731523513794 -1.478535532951355
-0.8355993032455444 0.6810934543609619 0.5070223808288574
0.3060716986656189 1.001029372215271 -0.8665109872817993
1.3389968872070312 -0.42681267857551575 0.01766994222998619
-2.2773633003234863 0.1550966203212738 0.7311022281646729
1.0783127546310425 0.8862651586532593 0.634397566318512
-0.0016087815165519714 -0.3414805829524994 0.4378485679626465
2.1605210304260254 -0.458795428276062 0.6374409198760986
-1.8772023916244507 0.18615762889385223 -0.8019022345542908
0.818514347076416 -0.06328043341636658 0.7275487184524536
-1.2933790683746338 0.9457415342330933 -0.22266682982444763
1.5333694219589233 0.18284660577774048 0.45765313506126404
-1.226823091506958 0.00016826391220092773 0.7110050916671753
-1.218700647354126 -0.5110982656478882 -0.05670792981982231
0.8657463788986206 -0.3942410945892334 0.6001249551773071
-2.0194225311279297 0.17768728733062744 -0.22640465199947357
-1.6735326051712036 0.4635336995124817 0.4107510447502136
-0.55171799659729 -0.3569701910018921 -0.07758059352636337
-0.5501900315284729 0.193245530128479 -1.0026761293411255
-1.0163618326187134 0.029444441199302673 -0.7188985347747803
0.584000825881958 -0.03987739980220795 0.8975090384483337
2.0323305130004883 -0.1733381748199463 0.395689994096756
1.2136551141738892 0.12144683301448822 0.33406874537467957
-1.3270477056503296 0.036870360374450684 0.8124939799308777
-0.50626540184021 1.0292366743087769 -0.26524123549461365
0.053969282656908035 -0.3124895691871643 1.1684778928756714
1.26338529586792 0.25127410888671875 0.8093159794807434
1.3487364053726196 -0.15570689737796783 0.7187471389770508
0.24619437754154205 0.4429425597190857 1.2868103981018066
-0.5176253318786621 -0.28175580501556396 0.320208877325058
0.5944676399230957 1.0385934114456177 -0.8444070219993591
2.916498899459839 0.15618880093097687 0.12405101209878922
-1.935739278793335 0.6389939785003662 1.0563185214996338
1.1703418493270874 -0.2416808009147644 1.0125173330307007
1.278692603111267 -0.4077357053756714 -0.3872719407081604
-0.41967546939849854 0.07172571122646332 -1.0148588418960571
0.2446853071451187 -0.33101803064346313 1.3964579105377197
0.614736795425415 -0.059948086738586426 0.7038075923919678
0.6846315264701843 -0.19153018295764923 0.3924892544746399
0.24550288915634155 0.5437415838241577 1.2710306644439697
-0.787834107875824 0.28067487478256226 -0.9511817097663879
1.9401085376739502 -0.0548190176486969 -0.16251210868358612
-0.9011083245277405 -0.3439962863922119 1.424694538116455
-2.3743786811828613 0.37273383140563965 -0.08520380407571793
1.8034396171569824 -0.5202735662460327 -0.7540902495384216
-1.0313303470611572 0.7387065887451172 0.6103851199150085
1.4380648136138916 -0.4300716519355774 -0.5629246234893799
-1.4825022220611572 -0.30410659313201904 0.7731257677078247
-1.1706656217575073 0.4494132399559021 0.6192465424537659
-1.1350200176239014 0.19139090180397034 -0.007576565258204937
-2.2273097038269043 0.4846152365207672 -1.2244272232055664
1.280302882194519 0.9455416202545166 0.22433294355869293
-1.103105902671814 0.611891508102417 1.319433331489563
-1.9564156532287598 -0.522756814956665 1.144972324371338
0.888990581035614 -0.2310945689678192 -0.9366057515144348
0.5792665481567383 0.302444726228714 -0.026719389483332634
1.7039668560028076 0.8860834836959839 -1.1147053241729736
0.33775949478149414 -0.5693965554237366 0.07429391890764236
-2.092132806777954 0.7457613348960876 0.40347006916999817
-1.5323799848556519 0.19248203933238983 -0.08435164391994476
-1.759151577949524 -0.2744945287704468 0.526818037033081
-1.4116246700286865 -0.4162118434906006 1.487987756729126
2.3255715370178223 0.07205702364444733 0.730770468711853
-0.9345071911811829 0.1246705949306488 -0.5500940680503845
-1.2565276622772217 0.31952303647994995 0.6171464323997498
0.839810848236084 -0.5521434545516968 -0.6791877746582031
-0.19972392916679382 -0.38387995958328247 -0.6236814260482788
1.3551698923110962 0.14679352939128876 1.319366693496704
0.6382282376289368 0.7404094338417053 -1.3665128946304321
0.9727903604507446 0.01364542543888092 0.9648770689964294
-1.6939388513565063 0.13838517665863037 1.291722297668457
1.8495218753814697 -0.5790942907333374 0.6987848877906799
-0.4991680383682251 0.10222993791103363 -1.082054853439331
2.5070295333862305 0.29712408781051636 -0.40194082260131836
0.8634554743766785 0.9337072968482971 0.054496895521879196
-2.011098623275757 -0.06173713505268097 -0.02566213719546795
1.8718042373657227 -0.519005298614502 0.5332638025283813
2.6582155227661133 -0.38295847177505493 0.7573485374450684
1.7040214538574219 0.38276010751724243 0.1915980577468872
0.572335422039032 -0.371085524559021 0.9969316720962524
-0.614574670791626 -0.5645893812179565 1.1724357604980469
-2.5483977794647217 0.20489299297332764 -0.41942960023880005
-0.5748189687728882 0.6129657030105591 0.05989852920174599
0.37405338883399963 -0.5338892340660095 0.3869172930717468
-1.1866236925125122 0.38591140508651733 -1.0973808765411377
0.47892075777053833 0.5270458459854126 1.1169081926345825
1.0394529104232788 0.9343015551567078 -0.18792398273944855
-2.3135743141174316 0.355031281709671 0.679193377494812
-0.35335955023765564 0.060440510511398315 -1.5545508861541748
2.635866165161133 -0.046637579798698425 0.11345302313566208
-0.441405713558197 0.06044745445251465 -0.7194564342498779
-0.30369821190834045 0.7790889739990234 -0.9165157675743103
-0.8934850096702576 0.9220017194747925 -1.347981572151184
2.6414971351623535 -0.45028960704803467 -0.5311839580535889
1.6496387720108032 -0.41909247636795044 -0.3096001148223877
-0.1285969614982605 -0.26738089323043823 1.0440598726272583
1.7563468217849731 -0.22089783847332 -0.4621375501155853
0.519180417060852 0.07655967772006989 0.34001344442367554
-0.4776589572429657 0.30058974027633667 -1.04685640335083
-1.9844982624053955 -0.46878597140312195 -0.8389021754264832
0.2580903172492981 1.007199764251709 -0.30314862728118896
0.8929805159568787 0.28612780570983887 1.480234980583191
1.36421537399292 -0.5474803447723389 -0.1820526272058487
1.2776141166687012 -0.46286603808403015 -1.7378426790237427
-1.0319751501083374 0.3274136185646057 -1.1901421546936035
0.5957414507865906 -0.19762496650218964 -1.130869746208191
1.478371262550354 0.8558188676834106 0.07972443103790283
1.8416826725006104 -0.5112699866294861 1.5396180152893066
0.4052959680557251 1.0335878133773804 -0.08405066281557083
1.5188195705413818 0.14976070821285248 0.51075679063797
-1.5510174036026 -0.5064272880554199 -0.9739444255828857
-2.1991708278656006 -0.5084466338157654 -0.6398200988769531
-1.2521082162857056 -0.3078289031982422 0.30726316571235657
2.0890493392944336 -0.5404993295669556 0.30290108919143677
0.8204895853996277 0.1986342817544937 1.1395831108093262
2.55374813079834 0.29774224758148193 -0.8366689682006836
-0.6269568800926208 0.17438015341758728 0.8105435371398926
-1.3495012521743774 -0.48055052757263184 0.39383354783058167
-1.0240169763565063 -0.5427064895629883 -0.3832387328147888
1.5815733671188354 0.5085172653198242 0.7305644750595093
1.0613352060317993 -0.13390140235424042 -0.7251533269882202
0.8566951751708984 -0.3656466007232666 -0.40445977449417114
2.5204644203186035 -0.10726422071456909 -0.7065727710723877
0.2693098485469818 0.39605551958084106 -0.11501490324735641
1.0097969770431519 0.49590378999710083 -0.760567843914032
1.1134579181671143 -0.5669010281562805 -1.1492000818252563
1.551262617111206 -0.04452583193778992 -0.20011696219444275
1.6396037340164185 -0.5928599238395691 -0.6172754168510437
-1.2008222341537476 0.8816261887550354 -1.3551478385925293
1.9768702983856201 -0.11215686798095703 0.9014562964439392
1.7759199142456055 -0.15776488184928894 -0.5165033340454102
-0.791090726852417 -0.24134579300880432 -0.5325406789779663
1.0683001279830933 0.34068137407302856 -0.8222923278808594
-1.8722587823867798 0.9538214206695557 0.01760430634021759
1.2550448179244995 0.8358262777328491 0.7959696054458618
2.6393187046051025 -0.1724516749382019 -1.2031556367874146
1.6471617221832275 -0.6186304092407227 0.6254037022590637
-1.4970072507858276 -0.4912484884262085 -0.40205827355384827
1.8218265771865845 0.3879390358924866 1.4996411800384521
1.8444856405258179 0.10908496379852295 -0.12678168714046478
2.102964162826538 0.06255784630775452 -0.04107484593987465
-0.8910143971443176 -0.30446189641952515 -0.5092611312866211
2.616197347640991 -0.2727617621421814 0.13260546326637268
-1.493114948272705 -0.10697327554225922 -0.7976627349853516
-1.6875510215759277 -0.53277587890625 0.7223374247550964
1.101220965385437 0.044366613030433655 1.3309929370880127
1.0386542081832886 -0.5592268705368042 -0.40529295802116394
1.8554967641830444 -0.13908228278160095 -0.04136621206998825
-0.2725828289985657 1.031631350517273 0.23265217244625092
-2.3605639934539795 -0.12488934397697449 -0.044806964695453644
-0.8845444917678833 -0.4756733179092407 1.4979031085968018
-2.2780416011810303 0.6568082571029663 1.3032108545303345
0.152655228972435 -0.19191275537014008 0.26344117522239685
-0.5803317427635193 0.16141042113304138 -0.3808211088180542
-0.39424774050712585 0.43715929985046387 0.7995224595069885
2.589493989944458 0.03623576462268829 0.5633224844932556
0.5657386779785156 -0.5482476353645325 -0.10654228925704956
0.5020821690559387 -0.35368651151657104 0.8802312016487122
1.5932979583740234 -0.36665356159210205 0.15043522417545319
-1.2466602325439453 0.6879880428314209 0.8458277583122253
-0.9163477420806885 0.08944952487945557 -1.2856874465942383
0.3417404890060425 1.0029205083847046 1.045961618423462
1.4578453302383423 0.6036974787712097 -0.420521080493927
-0.352811336517334 0.44674649834632874 0.12414528429508209
-0.3358164429664612 -0.14486940205097198 0.5690956711769104
2.4463324546813965 -0.5880202651023865 -0.8152009844779968
-0.11320821940898895 0.9136927127838135 -1.1988425254821777
0.6438615918159485 -0.048467278480529785 -0.6505621075630188
2.2029664516448975 -0.0386221706867218 0.8076720833778381
1.4051954746246338 -0.21902652084827423 -0.41118550300598145
-1.4364445209503174 -0.4993814527988434 1.3050159215927124
1.6213834285736084 0.40336573123931885 -0.2388675957918167
1.1147042512893677 0.15333907306194305 0.48700839281082153
1.1947718858718872 -0.5480149388313293 -0.8008963465690613
-0.1347227692604065 -0.5406084060668945 0.4983242452144623
-0.28829318284988403 -0.21559979021549225 -1.0224058628082275
2.479879379272461 -0.4373377859592438 -0.5590287446975708
-0.7479169964790344 0.7721982598304749 0.5800727009773254
-0.7114344239234924 -0.2267058789730072 1.2021746635437012
1.9122073650360107 0.33443158864974976 0.5782239437103271
0.327828973531723 -0.5915220975875854 -1.6149110794067383
2.1248903274536133 -0.5365689396858215 -0.7637389302253723
2.1219539642333984 0.4108811020851135 -0.2829535901546478
-1.9963058233261108 -0.0165090411901474 -0.2327762395143509
-0.744340181350708 -0.3435339629650116 1.3168940544128418
-2.255110263824463 0.5967831611633301 1.1999366283416748
-0.0943603590130806 0.5575263500213623 0.008289841935038567
-0.6748369932174683 0.8874269723892212 0.33448877930641174
0.5282161831855774 0.9979267120361328 -0.4499812126159668
-2.2813711166381836 -0.45849549770355225 1.1101771593093872
-2.8549726009368896 0.5835671424865723 1.0594185590744019
-1.1932753324508667 -0.5781948566436768 -1.2086621522903442
1.5261015892028809 -0.041890159249305725 0.566013753414154
-2.3025712966918945 0.5198991298675537 -0.10248061269521713
2.930940866470337 -0.28616201877593994 0.8388938307762146
-0.7886583209037781 0.6419191360473633 0.9373181462287903
-1.1221078634262085 0.24453583359718323 -0.20622266829013824
1.194878339767456 0.36828941106796265 1.4969934225082397
0.08476845920085907 -0.5792567133903503 -1.1498688459396362
0.34597861766815186 0.9450225234031677 -0.934097945690155
-0.4120806157588959 -0.5407216548919678 1.465242862701416
0.08384771645069122 0.9743908643722534 -0.7543977499008179
1.8706293106079102 -0.29017484188079834 -0.662175178527832
-1.6807796955108643 0.0712990015745163 0.1654120683670044
0.3570293188095093 0.517667293548584 -0.7421550750732422
0.7619513273239136 -0.5884007215499878 -0.6148918271064758
1.3102498054504395 -0.5461812615394592 0.0902092233300209
-1.1075661182403564 0.5454327464103699 0.445138543844223
1.3231821060180664 -0.5620695352554321 0.7309419512748718
1.764283299446106 -0.31781989336013794 -0.1812942773103714
1.9526835680007935 0.19147735834121704 -0.0037211081944406033
-1.2518879175186157 0.952884316444397 -0.6296380162239075
0.37136727571487427 -0.36603879928588867 0.6675649285316467
-0.4527210295200348 0.9801371693611145 -0.6521554589271545
-1.5478399991989136 -0.33615434169769287 1.4523766040802002
-1.1578588485717773 -0.009489238262176514 1.3032673597335815
-0.16839157044887543 0.21463748812675476 -1.3896602392196655
-0.11858271062374115 0.5950095057487488 0.05825784429907799
-1.100390911102295 -0.2622191905975342 0.1727098822593689
-0.42306703329086304 0.49212905764579773 1.434836506843567
-0.0027723051607608795 1.0171416997909546 -0.05344274267554283
-1.3422914743423462 0.4659310579299927 0.05445735156536102
1.123599648475647 0.005899593234062195 0.2516213357448578
0.37941819429397583 -0.0589723140001297 -0.4699093997478485
1.5933936834335327 -0.5457949638366699 0.7916722893714905
1.4654490947723389 0.6392609477043152 0.055056650191545486
1.9486695528030396 0.12601765990257263 1.4405622482299805
-0.2903915345668793 0.0905800610780716 -0.258412629365921
0.9696994423866272 -0.5322796106338501 -0.6915270686149597
1.1954156160354614 -0.52251136302948 1.5399887561798096
2.0364296436309814 0.2736956477165222 1.0302296876907349
-2.596153736114502 0.5214513540267944 0.3542269170284271
-0.5181465744972229 0.7248690724372864 0.031691282987594604
2.705979824066162 0.07459108531475067 -1.1580699682235718
0.29395604133605957 0.37126344442367554 1.229308009147644
0.7888221144676208 -0.5559912919998169 1.1327406167984009
-0.7175185084342957 -0.15176333487033844 0.5190538167953491
0.7362233996391296 -0.2706560492515564 1.3479570150375366
2.0405325889587402 -0.504766047000885 0.4923880398273468
1.6297844648361206 -0.6296514868736267 -0.3834044635295868
-0.5388341546058655 -0.15620750188827515 -0.8610122203826904
0.3993906080722809 0.15256479382514954 0.553791880607605
-1.7155306339263916 0.41570356488227844 0.5943703055381775
-1.0891683101654053 0.8855648040771484 -0.32375800609588623
0.06266727298498154 -0.2944321632385254 -0.7535964846611023
0.7173622846603394 0.6767998933792114 0.8172286152839661
-0.5747191309928894 -0.5574541687965393 0.354968398809433
0.9844262003898621 0.4399244785308838 0.759552001953125
0.9727511405944824 1.01280677318573 -0.22344376146793365
1.0560258626937866 -0.027050748467445374 0.22240717709064484
-0.8537972569465637 0.2868044972419739 -0.9461233615875244
1.2875115871429443 0.84327232837677 -0.4659080505371094
2.0449435710906982 -0.015761181712150574 1.1642842292785645
1.1437568664550781 0.06166696548461914 -0.4762633442878723
1.2663010358810425 -0.4293825030326843 0.060476429760456085
1.1793819665908813 -0.6037145256996155 0.30489450693130493
0.4067620635032654 0.7311530709266663 0.19507284462451935
-2.0406434535980225 -0.5101943016052246 -0.2835644781589508
1.8672881126403809 -0.3853875398635864 -0.6789547204971313
0.9160640239715576 -0.4246608018875122 -0.21657149493694305
0.27630615234375 0.8592553734779358 -0.3638235628604889
1.9350054264068604 0.09199443459510803 0.3662731647491455
-0.9079839587211609 0.9097103476524353 -1.428972601890564
-0.5455774068832397 -0.5379014015197754 -0.5537902116775513
-0.19650238752365112 0.3163376450538635 0.6607856750488281
2.69793963432312 -0.04411286115646362 0.41510438919067383
-2.187023401260376 -0.42614156007766724 1.2844253778457642
-0.5858360528945923 0.12881848216056824 -0.8460903167724609
0.0033900849521160126 -0.5956707000732422 -1.4925082921981812
0.7819599509239197 0.47693073749542236 -0.6637687087059021
-0.963215708732605 -0.22130635380744934 -1.2310506105422974
1.3068524599075317 0.8660488724708557 0.03755038604140282
0.5128111839294434 -0.0731140524148941 0.09585024416446686
-2.326040267944336 0.4819747805595398 0.8419765830039978
1.7456883192062378 -0.5734555721282959 1.1860727071762085
1.4691205024719238 -0.1934337615966797 -1.1617780923843384
0.9801429510116577 -0.5074301958084106 1.3925247192382812
1.3928213119506836 -0.45874419808387756 0.3389538526535034
-0.7641751170158386 0.6322494149208069 -1.3779267072677612
-1.3820734024047852 -0.36861106753349304 1.053971767425537
1.0348750352859497 0.38936206698417664 -0.8690099716186523
0.8644412159919739 -0.5776832103729248 -1.0114610195159912
1.9092390537261963 -0.5594933032989502 -0.47787484526634216
-0.32214099168777466 0.2307477593421936 -0.839072048664093
2.4764862060546875 0.5844699144363403 -0.3127267360687256
0.6408284306526184 -0.5484429597854614 0.3554054796695709
-0.11006622761487961 0.08407682180404663 -1.3848191499710083
-1.6359906196594238 0.41114357113838196 -0.7982058525085449
-1.400211215019226 -0.16560925543308258 -0.3175323009490967
-0.7007594108581543 -0.11450491845607758 1.4197700023651123
1.58164644241333 0.4805900454521179 0.08592243492603302
1.8804017305374146 0.2726441025733948 1.4652721881866455
1.452782154083252 -0.4767819046974182 0.8571655750274658
-1.2017741203308105 0.538637638092041 0.7311693429946899
1.2539786100387573 0.3854261040687561 1.1904873847961426
-1.2109661102294922 -0.1363554149866104 1.463893175125122
-0.3049004077911377 0.4138641655445099 0.06709633022546768
-0.5819947123527527 0.3712584972381592 0.31334543228149414
-1.0260599851608276 0.9870947003364563 -0.19139914214611053
1.6340872049331665 0.20851731300354004 1.1577297449111938
-1.6281846761703491 0.5012267231941223 -0.7443001866340637
-0.04914084076881409 -0.11606849730014801 -0.8619712591171265
0.06796127557754517 -0.2876921594142914 0.9064732789993286
0.9460214376449585 0.019392237067222595 0.01201521698385477
1.71510910987854 0.3412378430366516 -1.5959841012954712
1.5676119327545166 0.803523063659668 -0.0239421259611845
1.0910450220108032 -0.29841408133506775 -0.3317924439907074
-0.10869091004133224 -0.5403191447257996 -0.0014825910329818726
-1.3734521865844727 -0.5084704160690308 0.8196751475334167
1.6940103769302368 -0.5127549171447754 0.7383309602737427
-0.019714459776878357 -0.23992976546287537 0.26023003458976746
1.2084287405014038 0.6097091436386108 -1.2580244541168213
1.2601027488708496 -0.4566466212272644 -0.5703839659690857
-0.6381564140319824 -0.4355030357837677 0.11491589993238449
0.8955181837081909 -0.16620852053165436 0.7807207703590393
2.3340654373168945 -0.09224514663219452 0.3513842523097992
0.3729168772697449 -0.5501453876495361 -0.16839879751205444
0.6550007462501526 -0.33170634508132935 -0.3251776397228241
-0.5162166953086853 -0.2584066390991211 1.0139734745025635
-2.1572277545928955 0.8659226298332214 -0.1884431391954422
0.09945706278085709 -0.11288970708847046 0.2596670389175415
-0.9225284457206726 0.09299615025520325 -1.388725757598877
0.20360824465751648 -0.2693423628807068 0.7650830149650574
-2.4437406063079834 0.4180925488471985 0.6145640015602112
-0.8200154900550842 0.9716072082519531 1.0832823514938354
-1.5198469161987305 0.9366621971130371 0.21869966387748718
-1.1783808469772339 0.6291418075561523 0.28414279222488403
2.1740901470184326 -0.03952352702617645 -1.0978971719741821
1.7504743337631226 1.0478191375732422 0.2774558365345001
-0.4017457067966461 -0.22777903079986572 1.4388736486434937
1.5914801359176636 -0.18463532626628876 -0.29923850297927856
-0.09433138370513916 0.632500410079956 -0.25762519240379333
-1.6458783149719238 0.2681747078895569 -0.3077162206172943
-1.671907901763916 -0.5307714343070984 -0.8681981563568115
0.861248791217804 0.5248560905456543 0.3223317563533783
-1.2256675958633423 0.640216052532196 -0.8568145036697388
2.9034860134124756 -0.5084009170532227 -1.120648980140686
0.025454778224229813 -0.5404932498931885 -1.3087927103042603
-0.6173443794250488 1.0919967889785767 0.4633958637714386
-1.0694221258163452 0.10737305879592896 0.24354924261569977
-0.7043376564979553 0.03416517376899719 0.5764703750610352
-0.9327701330184937 0.8164215087890625 0.3085963726043701
2.301516532897949 0.3254069983959198 0.15706290304660797
-1.5557588338851929 0.9137634038925171 -0.48680031299591064
0.9680414199829102 0.40727800130844116 -1.0799351930618286
-0.7936438918113708 -0.4196084439754486 0.8929159045219421
1.5538084506988525 0.818023681640625 1.1018270254135132
1.2727025747299194 -0.10034453868865967 0.9488531351089478
-1.344110369682312 1.1967171430587769 0.10567152500152588
2.175323009490967 -0.49582213163375854 -0.7204428315162659
-0.7256782054901123 0.2996673583984375 -1.1595953702926636
2.0867693424224854 0.005538582801818848 -1.5710784196853638
1.4102298021316528 -0.13210166990756989 0.5938129425048828
-0.1375279277563095 -0.5765712857246399 -1.0088776350021362
1.0245862007141113 -0.10722842812538147 0.764908492565155
-2.1652395725250244 0.8401995301246643 -0.4542039930820465
0.06778555363416672 0.8982899188995361 -0.5585820078849792
0.7849520444869995 -0.3695283830165863 0.016430892050266266
0.33398374915122986 0.25107747316360474 0.41811326146125793
0.02385149523615837 0.14520318806171417 0.30979782342910767
-0.1477506160736084 -0.025006204843521118 0.8606135845184326
-0.6201079487800598 -0.321615993976593 1.397016167640686
-0.5600941181182861 0.9392489790916443 0.8897053003311157
1.3707269430160522 0.9304273128509521 -0.688973605632782
0.8529864549636841 0.42302370071411133 -0.5387356877326965
0.8299430012702942 0.1778384894132614 -1.4789758920669556
2.193713903427124 -0.0486321747303009 0.37341344356536865
2.3230299949645996 -0.30698978900909424 -0.21340498328208923
-0.9166187644004822 -0.48059701919555664 -1.07541024684906
-1.3991621732711792 0.9682998657226562 -0.11122818291187286
-1.1258068084716797 0.14796864986419678 0.49076348543167114
1.29603111743927 0.29687079787254333 -0.7565730810165405
-1.1367286443710327 0.381306529045105 -0.904199481010437
-0.6496011018753052 1.058245301246643 -0.2737657129764557
2.680570125579834 0.4050634503364563 -0.032645922154188156
1.905726671218872 -0.611983597278595 0.40656474232673645
-1.5481740236282349 0.7012255787849426 0.9391574859619141
-0.8621925115585327 0.5056619048118591 0.5069798827171326
-1.3193758726119995 -0.007397457957267761 1.3993747234344482
2.066075325012207 0.012686803936958313 0.7144528031349182
2.346571683883667 0.5614846348762512 0.38276588916778564
-0.57736736536026 0.41225576400756836 -0.3236049711704254
1.606123685836792 0.03188107907772064 -0.2539682686328888
-0.022592395544052124 -0.3790886402130127 0.8451772928237915
0.09246193617582321 -0.5378386974334717 -0.6239770650863647
2.087575912475586 0.23157522082328796 -0.2600771486759186
-0.6492879986763 1.174259901046753 -0.5375798940658569
0.15470372140407562 -0.6053737998008728 -0.8202730417251587
2.268498420715332 -0.38708457350730896 -0.18485848605632782
-1.833700180053711 0.1815214604139328 -0.8452011942863464
-1.7054040431976318 0.45469585061073303 -0.5032894015312195
2.47135591506958 0.3653428852558136 1.2223585844039917
1.8710857629776 -0.4073844850063324 -1.1490633487701416
-0.4287489652633667 -0.5359647870063782 -1.6031197309494019
-0.415446400642395 0.9304741621017456 -0.6180569529533386
-1.8737553358078003 0.17994758486747742 0.1302967071533203
0.30468931794166565 0.5637239813804626 1.1627800464630127
-0.013636484742164612 0.09718020260334015 1.3596044778823853
1.6167739629745483 -0.1405271589756012 1.3404110670089722
-0.1735689342021942 -0.5727940797805786 -0.4953228533267975
0.16634464263916016 0.13893255591392517 -0.03627631440758705
3.0201516151428223 0.4566809833049774 0.4538060426712036
-1.0438629388809204 0.11981335282325745 -0.1165751963853836
0.1412816345691681 0.7652714252471924 1.1972049474716187
-1.356082558631897 0.6841990947723389 0.6189804673194885
2.121325731277466 0.5429078936576843 0.8055925369262695
-0.30750933289527893 1.0534743070602417 0.11593884974718094
-0.20796996355056763 0.6921262145042419 1.4851497411727905
-0.3974297046661377 -0.40541744232177734 -0.08573645353317261
-0.37764275074005127 -0.31296610832214355 0.26899540424346924
-1.2640314102172852 -0.19257691502571106 -0.11010831594467163
-1.8783448934555054 -0.2808554172515869 1.2422640323638916
1.7296897172927856 -0.5725228786468506 -0.904876172542572
-1.0430867671966553 0.33963918685913086 0.8048974275588989
-1.8346471786499023 -0.010176286101341248 0.4856402277946472
1.9704201221466064 0.14471565186977386 1.2310200929641724
-1.8049286603927612 -0.3970256447792053 0.2700701951980591
-0.4902430772781372 -0.5292057394981384 -0.6263220310211182
-0.617926299571991 0.8408608436584473 -0.7922278642654419
0.3847113251686096 0.1620808094739914 0.14693181216716766
1.0060327053070068 0.3128214478492737 1.5087294578552246
-2.526731252670288 0.07604604959487915 0.5147096514701843
1.722532033920288 -0.016421779990196228 -0.28330519795417786
0.8414482474327087 0.5543972253799438 -1.01967191696167
0.8676435947418213 -0.549872875213623 0.10750960558652878
0.9773010015487671 0.5109676122665405 0.6451568603515625
-0.26113051176071167 -0.39519232511520386 0.33049044013023376
2.6553902626037598 0.17723135650157928 -0.31505778431892395
-0.19302190840244293 0.3140983581542969 -1.4457271099090576
-1.2272347211837769 0.2089456021785736 0.8487919569015503
-0.6567700505256653 -0.5551953315734863 0.40956565737724304
2.223628282546997 0.5738116502761841 -1.0959628820419312
-0.9841161966323853 0.35335373878479004 -0.05496510490775108
-1.072726845741272 -0.5305310487747192 -0.4881232976913452
-2.366529703140259 0.9182741045951843 -0.29694098234176636
-0.42587757110595703 1.0658130645751953 -0.34029093384742737
-2.408297538757324 -0.2991015911102295 -0.44612202048301697
1.8039698600769043 -0.5774729251861572 -0.8606896996498108
2.221938133239746 0.3747658133506775 -1.4764631986618042
0.23127302527427673 0.2513309717178345 -0.20615774393081665
2.3388195037841797 -0.3691442608833313 -1.1882457733154297
2.5652883052825928 -0.14093603193759918 1.1833077669143677
-1.1312527656555176 -0.4027118682861328 -0.7534399032592773
1.0654395818710327 -0.17769841849803925 -0.4706997573375702
-1.1420458555221558 -0.5425534248352051 0.5854646563529968
-1.8684674501419067 0.43598997592926025 -1.5953679084777832
1.1335039138793945 0.2859272360801697 0.8948987722396851
-0.3025844395160675 1.0707004070281982 -0.3290424942970276
0.3601815104484558 0.1542799472808838 -0.721771240234375
0.9870666861534119 0.6092277765274048 0.028722191229462624
0.7668105363845825 0.5767634510993958 -0.3490699827671051
0.6778509616851807 -0.020398646593093872 -0.85736083984375
-0.3641246557235718 -0.3519119620323181 0.2863568365573883
-0.37933045625686646 0.20951655507087708 -0.25770819187164307
-1.3563042879104614 -0.23319201171398163 0.5988439321517944
0.13154570758342743 0.8555205464363098 -0.856306791305542
-0.884393572807312 -0.4070000648498535 -0.11242824792861938
-0.8896157741546631 0.5707640647888184 -0.11468750238418579
1.0605741739273071 -0.5608285665512085 0.1783803105354309
-0.14375384151935577 -0.14160233736038208 -0.8735849857330322
1.7331204414367676 0.08569946885108948 0.5100688338279724
-0.5457231402397156 0.4550057649612427 -0.7263926267623901
-1.2516621351242065 0.07863035798072815 0.04595117270946503
2.2244272232055664 0.488758385181427 -0.263303279876709
-2.2806167602539062 -0.08425705134868622 -0.8656122088432312
0.27354696393013 -0.3453041911125183 0.06571780890226364
-1.0449634790420532 -0.10297003388404846 -1.4691812992095947
1.5278311967849731 -0.6335152387619019 0.38526442646980286
0.44154292345046997 0.70467609167099 0.33524468541145325
-0.25513726472854614 -0.048730358481407166 1.5309852361679077
1.630184292793274 -0.2616732120513916 0.6310247182846069
-0.5408961772918701 0.3582347631454468 -0.9655573964118958
-1.8838207721710205 -0.5009929537773132 0.4082483649253845
-0.8695105910301208 -0.44856810569763184 -1.228417992591858
2.4058120250701904 0.27727752923965454 -1.3934310674667358
0.2910270690917969 -0.19134363532066345 0.34879714250564575
-1.0140310525894165 -0.12073008716106415 -0.9291552305221558
1.262250304222107 0.6257926821708679 -0.6135124564170837
-0.800902783870697 -0.5492651462554932 -0.7691075801849365
-0.28496962785720825 -0.38507309556007385 0.2824700176715851
0.023780416697263718 -0.5854445099830627 -1.0168473720550537
-0.016755200922489166 1.0197466611862183 0.1261434257030487
-1.7040835618972778 0.21726733446121216 1.3942344188690186
-0.34143945574760437 0.004500925540924072 0.8897562026977539
0.04951013624668121 -0.46651899814605713 -0.7486187219619751
1.547945499420166 -0.1419500857591629 1.0640443563461304
2.1355648040771484 -0.15714643895626068 -0.5605374574661255
2.0743184089660645 0.6587133407592773 0.61227947473526
1.4324439764022827 0.11804679036140442 -1.3753105401992798
1.9881882667541504 0.7733830213546753 -1.3989349603652954
-0.05648607015609741 -0.28164878487586975 -0.8866927623748779
-1.1387581825256348 0.9105753898620605 -0.9610329866409302
1.500020980834961 0.09332631528377533 -1.014925241470337
-0.46813881397247314 0.8538044691085815 -0.11104919761419296
1.2116032838821411 0.7469380497932434 -0.22776123881340027
-1.2519789934158325 0.7198143005371094 0.8073273301124573
0.8063620328903198 -0.008343338966369629 -1.0890647172927856
-0.9405336380004883 -0.21600446105003357 0.049135006964206696
0.1576586365699768 -0.2953418791294098 -0.3535161018371582
0.02782837674021721 0.8214355111122131 0.023287411779165268
-1.08122718334198 -0.018795683979988098 0.05022629350423813
-0.48449867963790894 1.1415704488754272 -0.3877561092376709
-1.7672603130340576 0.0007720738649368286 1.131502628326416
1.1197768449783325 0.03425562381744385 -0.6828418970108032
2.1813580989837646 0.04548364877700806 0.7821222543716431
1.3037546873092651 -0.5713263154029846 -0.7213407754898071
-2.231712818145752 -0.30394840240478516 -0.680847704410553
0.48214003443717957 0.5731024146080017 0.8480951189994812
2.133270502090454 -0.26219442486763 0.023903021588921547
-0.03601820021867752 -0.33289358019828796 -0.7050885558128357
-0.24977990984916687 -0.19228149950504303 -0.45590710639953613
0.9487659335136414 0.7783790826797485 -1.2416725158691406
0.989434540271759 -0.5944744944572449 0.050581105053424835
-1.5882444381713867 0.5598325729370117 -1.5129127502441406
-1.3558568954467773 0.8104382157325745 1.0746171474456787
1.8313249349594116 -0.5242647528648376 -1.0639762878417969
-1.805976152420044 -0.14762695133686066 0.7098251581192017
0.9764811396598816 0.19074958562850952 -1.5177170038223267
1.2648296356201172 0.17693032324314117 1.3310288190841675
-0.8056643605232239 -0.5285888910293579 -0.8852702379226685
-1.6209405660629272 -0.5187302827835083 0.4792262613773346
1.9749763011932373 0.05081816017627716 -0.015775276347994804
0.08860219269990921 -0.5264315009117126 1.3956658840179443
1.5126508474349976 -0.37987005710601807 0.10413819551467896
2.8941850662231445 -0.3516041934490204 -1.3346906900405884
-2.1706809997558594 0.13613037765026093 0.48287108540534973
2.169243812561035 0.3248048424720764 -0.43910956382751465
-1.4691457748413086 -0.29545652866363525 0.30231761932373047
-0.005646795034408569 0.46080097556114197 -0.9038372039794922
2.385988235473633 -0.507449746131897 -0.698890209197998
0.06441797316074371 -0.11468422412872314 0.4571745991706848
-0.10874716937541962 -0.4010545015335083 -0.08028849214315414
1.4401867389678955 -0.35592731833457947 -1.166534185409546
-1.2770766019821167 -0.48481953144073486 0.2150835394859314
1.7315400838851929 0.0959109216928482 0.2542303800582886
-1.8007748126983643 0.26669591665267944 1.2854493856430054
-1.7613191604614258 0.31451770663261414 0.4844057261943817
-1.0092308521270752 -0.5219651460647583 0.07212117314338684
1.226789116859436 0.6838834881782532 1.3725628852844238
0.863264799118042 -0.10393784940242767 -0.5881320238113403
0.33998218178749084 0.5723103284835815 -0.8677206039428711
-0.5659990906715393 -0.4315498471260071 -1.2611424922943115
1.1828904151916504 0.8623493313789368 -0.08010652661323547
2.31474232673645 -0.4995632767677307 -0.5365569591522217
-1.300844669342041 -0.07692447304725647 -0.2434864640235901
0.1374916434288025 -0.3845475912094116 1.0538588762283325
0.9166886806488037 0.004464969038963318 0.08609888702630997
-1.4719340801239014 0.45176202058792114 -0.21794044971466064
-0.04428749531507492 0.24435849487781525 1.1169246435165405
-1.2079557180404663 0.24187421798706055 0.3298596143722534
3.7864859104156494 0.23203732073307037 -0.8469275236129761
-0.8087455630302429 -0.547034740447998 0.0189063660800457
2.7734501361846924 -0.46842408180236816 0.0034470614045858383
-1.5474690198898315 0.9247059226036072 0.4803648293018341
-0.8754865527153015 0.037343889474868774 0.5420789122581482
-1.1791855096817017 0.2269500494003296 -0.16224297881126404
-1.049476981163025 0.5983865261077881 -1.3102161884307861
1.5374187231063843 -0.22516776621341705 -0.7570416927337646
0.8933498859405518 0.9720085263252258 -0.07920268177986145
1.200344443321228 0.4533652067184448 1.4750679731369019
1.1519169807434082 0.2180483192205429 0.6623227596282959
0.18414762616157532 -0.550180971622467 0.1126743033528328
0.7677925229072571 -0.34609168767929077 -0.925262451171875
2.7308011054992676 -0.43772464990615845 0.942587673664093
-0.8426532745361328 0.24710066616535187 0.6196742057800293
0.7686119079589844 0.5642786622047424 0.3840043842792511
0.46251216530799866 0.9183661937713623 0.25480660796165466
0.9223714470863342 0.8703140020370483 0.5842117667198181
2.386228084564209 -0.4267258048057556 1.2979180812835693
1.01105535030365 -0.3381327986717224 0.8222688436508179
-1.153676152229309 -0.1698380410671234 0.021254075691103935
0.25971296429634094 -0.244958758354187 -0.9588814377784729
-1.430446982383728 0.439950168132782 -0.4308663010597229
-1.3264082670211792 0.919893205165863 1.0825653076171875
-0.008629053831100464 0.902805745601654 0.7946005463600159
0.9451577067375183 -0.37126192450523376 -0.34171488881111145
0.6980294585227966 0.4636670649051666 0.3884957432746887
0.27090826630592346 -0.3140663206577301 0.056785352528095245
-1.2143301963806152 -0.18712499737739563 0.14032062888145447
-0.2153676450252533 0.47122663259506226 -0.15480799973011017
1.2501020431518555 -0.6229963302612305 0.6380110383033752
1.7807530164718628 -0.5236634016036987 -0.7541587352752686
-0.9874054193496704 0.15991586446762085 -0.9962863922119141
-0.8902522921562195 0.9460052251815796 0.01537487655878067
1.8056113719940186 -0.15823230147361755 -0.969920814037323
-2.505368947982788 0.8741334676742554 0.035959407687187195
2.0885705947875977 0.2782178521156311 -1.1239867210388184
-1.3907618522644043 0.3774888515472412 0.9210829734802246
1.5725017786026 0.2984510660171509 -1.083782434463501
1.5877354145050049 0.048177167773246765 -0.7997101545333862
-0.31986281275749207 0.9479956030845642 1.2254565954208374
-1.0254569053649902 -0.36587345600128174 1.2231510877609253
-0.3921796679496765 -0.4956369400024414 -1.095665693283081
-1.6460834741592407 -0.1533764749765396 -0.28162047266960144
-0.9452999830245972 0.5270920395851135 1.2674357891082764
-0.5218047499656677 -0.5762174129486084 -0.3401702344417572
-1.6328809261322021 0.4383937120437622 0.7678760290145874
-1.4564716815948486 -0.30554497241973877 0.2587793469429016
-0.25849270820617676 -0.3891550898551941 -0.14370082318782806
1.137058973312378 0.7671382427215576 1.0310190916061401
2.833233594894409 -0.4075270891189575 -1.0005393028259277
0.1085025891661644 0.5775017142295837 1.2618913650512695
-1.6254363059997559 0.1820191591978073 1.2892967462539673
0.3081662356853485 -0.29923903942108154 -0.26177212595939636
2.1693716049194336 0.059961408376693726 0.2916408181190491
2.0523717403411865 -0.667148232460022 -0.17659857869148254
0.5823859572410583 0.5616194009780884 -0.3228667676448822
2.1664047241210938 0.11424495279788971 -1.5085443258285522
-0.28021058440208435 -0.5725374221801758 0.11278912425041199
-0.8675339818000793 -0.2944406270980835 -0.5874748229980469
-1.7843307256698608 -0.0929008424282074 0.640018105506897
-1.7539923191070557 -0.28168994188308716 0.35850611329078674
-0.4068545699119568 1.0451292991638184 0.0429951511323452
-0.41601571440696716 -0.5805338621139526 1.4147257804870605
-0.36595967411994934 0.21663302183151245 1.1849151849746704
-1.2464525699615479 0.6547620892524719 1.3312981128692627
1.4724427461624146 0.5388797521591187 0.0029896206688135862
0.3982263505458832 0.08765973150730133 0.5564872026443481
-0.5523408055305481 0.595164954662323 1.4446579217910767
1.0819311141967773 -0.32540881633758545 -0.6493090391159058
0.14407582581043243 -0.2225920557975769 -0.985900342464447
0.5112378597259521 0.6531355381011963 -0.8241101503372192
2.808990716934204 -0.39343300461769104 0.7449575066566467
2.343305826187134 -0.5593347549438477 0.7545441389083862
-2.075176477432251 0.46025434136390686 -1.0502864122390747
-1.862818717956543 0.531091570854187 -0.8701148629188538
-0.8437791466712952 0.4147838354110718 -0.38028445839881897
1.4358136653900146 -0.4438447952270508 -0.7037200927734375
0.05413491651415825 0.3671524226665497 0.74161696434021
0.5342469811439514 -0.14721570909023285 1.4651226997375488
-1.1298123598098755 0.329585462808609 -1.3872971534729004
-0.33802396059036255 0.9948062896728516 0.0608421191573143
0.9738678932189941 0.3559337258338928 -0.24649585783481598
1.483225703239441 0.08518530428409576 0.44752392172813416
-0.10050861537456512 0.257169246673584 -0.40873077511787415
-0.182890385389328 -0.5797343254089355 -0.6476413011550903
-1.9948736429214478 -0.4818283021450043 -0.7391708493232727
-0.41658642888069153 -0.2905263900756836 -0.49600136280059814
0.7903667092323303 -0.04972657561302185 -0.2250520884990692
1.0327799320220947 -0.3678457736968994 0.06930477917194366
0.7971332669258118 0.04848407208919525 -0.802739143371582
-0.9609137177467346 -0.41877663135528564 0.6648514866828918
-0.958816409111023 0.166935995221138 1.1634165048599243
1.3345133066177368 0.3745293915271759 0.4424475133419037
-0.7317207455635071 0.2733097970485687 1.1016271114349365
2.5240654945373535 -0.08971531689167023 -0.7350993752479553
-2.578644275665283 -0.4631098806858063 -0.3493806719779968
-0.4625132381916046 0.9429550170898438 0.22226271033287048
0.9551520943641663 -0.00484660267829895 -0.404055118560791
1.846533179283142 0.15319599211215973 0.4597632884979248
-2.35178804397583 0.049162015318870544 0.24825923144817352
-1.1259392499923706 -0.3556309938430786 -0.1378152221441269
0.42913818359375 0.9762573838233948 -0.8767988681793213
-0.45936286449432373 0.4950522482395172 0.41260871291160583
0.42324766516685486 -0.30242210626602173 1.4462860822677612
-1.1658656597137451 -0.3491443395614624 -0.1261133849620819
-1.6235650777816772 -0.313571035861969 0.19672979414463043
1.702553629875183 0.13985055685043335 -1.180389642715454
0.4729219377040863 -0.5471431016921997 -0.8260005116462708
0.8807357549667358 -0.4351097345352173 -1.2422325611114502
0.6417176127433777 0.7682602405548096 -1.245384931564331
-0.2513607442378998 0.7663469314575195 -1.3610564470291138
-1.48069167137146 -0.21009379625320435 1.0132960081100464
1.722815752029419 0.7450039982795715 -0.26760074496269226
-0.22898933291435242 0.8518552780151367 1.4470221996307373
-1.347373366355896 -0.5667401552200317 0.969377338886261
1.059875249862671 -0.4985935091972351 0.25528278946876526
-1.865285038948059 -0.1641119122505188 0.4509531259536743
-0.5001559257507324 -0.4807547926902771 0.03176194801926613
-1.9337681531906128 0.775429368019104 -1.008212685585022
0.34769076108932495 0.18280147016048431 -0.7784979343414307
2.3648648262023926 -0.6446031928062439 0.5950626730918884
1.081734299659729 -0.4375815987586975 -0.39530882239341736
-0.32102495431900024 -0.5437687635421753 -0.7832053303718567
-1.3098630905151367 -0.5622301697731018 0.3010861575603485
0.009213756769895554 0.37565910816192627 -1.0443509817123413
1.9262011051177979 0.7631587982177734 0.25076696276664734
2.408743381500244 0.22892829775810242 1.0258337259292603
-1.89466392993927 -0.08900037407875061 -1.3400927782058716
-1.1345045566558838 0.9272043704986572 -1.004755973815918
0.7565884590148926 0.051741838455200195 -0.8149513006210327
2.8989346027374268 0.15515680611133575 -0.9849207401275635
-0.12023688852787018 0.9992120265960693 -0.5223641991615295
0.13526637852191925 -0.14997369050979614 -0.15368308126926422
0.9833406805992126 0.7497451901435852 -0.8125656247138977
1.6721493005752563 -0.5450156331062317 -0.5859382152557373
1.0426456928253174 0.34369519352912903 -1.2932792901992798
-1.0334429740905762 -0.4294666051864624 -0.4450971782207489
-0.5783174633979797 -0.3222220540046692 0.16605044901371002
-0.25940918922424316 -0.12636618316173553 1.1128044128417969
-0.416677325963974 -0.3663923740386963 -0.3193063735961914
1.3024768829345703 -0.33685314655303955 -0.8889153599739075
0.2173987179994583 -0.5509166121482849 -0.3824421167373657
-2.507340431213379 -0.4585050940513611 -0.6900468468666077
0.6021605730056763 -0.11592979729175568 0.018811536952853203
1.5804628133773804 -0.23105370998382568 -0.23845155537128448
-2.1382570266723633 0.33590230345726013 -0.5809891819953918
-1.2705914974212646 0.3711246848106384 0.7910649180412292
0.3586139380931854 1.0229204893112183 -0.6966058611869812
-1.6550209522247314 0.9472391605377197 -0.35756075382232666
2.917783498764038 -0.4778422713279724 0.5555458664894104
-1.5022128820419312 0.35501518845558167 -1.19600510597229
0.3651376962661743 1.0970722436904907 0.5735266208648682
0.09947694092988968 0.8275822401046753 -0.33117809891700745
2.4060635566711426 0.54560387134552 -1.5151350498199463
2.6821632385253906 -0.0894785225391388 0.1298815906047821
-1.082323670387268 -0.11883418262004852 -0.6011478304862976
2.569512128829956 -0.014335989952087402 1.3395986557006836
-0.7202780246734619 -0.5655127167701721 -0.8525491952896118
2.360487937927246 0.5570080876350403 0.051113247871398926
0.2727031111717224 -0.11057242751121521 0.08264876157045364
-2.2198598384857178 -0.06778497993946075 -0.2712743580341339
-0.16934901475906372 -0.5306699275970459 1.0113123655319214
-1.288440227508545 0.27421891689300537 -0.9058907628059387
-0.32892748713493347 -0.5712049007415771 -1.4659380912780762
0.9462071657180786 0.11118334531784058 0.3830537796020508
-0.11064326018095016 0.5385996103286743 0.4323055148124695
-1.7797303199768066 -0.49785342812538147 -0.8518979549407959
-0.6780880689620972 -0.3347540497779846 -0.17600584030151367
-1.903899073600769 -0.5406690835952759 1.112531065940857
1.6389029026031494 -0.549766480922699 -0.8402372002601624
1.5048052072525024 -0.5189388394355774 -0.527090847492218
2.523125648498535 -0.08655838668346405 0.4708575904369354
1.3641537427902222 -0.01983417570590973 0.5633504986763
-1.517381191253662 -0.2516484558582306 0.24609100818634033
-0.3182520866394043 -0.44119226932525635 -0.7242138385772705
-0.6540321707725525 0.47534066438674927 -0.27267375588417053
1.6987162828445435 -0.5815845727920532 -0.36188381910324097
0.43448778986930847 0.45808011293411255 0.37154993414878845
-0.9333714246749878 0.5144156217575073 0.8774253129959106
-0.9529015421867371 0.000986531376838684 0.3310539722442627
2.1534078121185303 0.1705002784729004 0.36532941460609436
-1.6609519720077515 -0.28621864318847656 -0.5005283355712891
0.709255576133728 0.9394315481185913 0.43455269932746887
-0.43749260902404785 -0.526013195514679 1.5139458179473877
0.1409226953983307 -0.5178877115249634 -1.071152925491333
0.5199384093284607 -0.3464168310165405 1.4632911682128906
2.6261134147644043 -0.005590274930000305 1.1259015798568726
-1.3560760021209717 -0.1623201072216034 -0.4351370632648468
-1.9946064949035645 0.4786449074745178 -0.1269567906856537
2.0400550365448 0.5257613062858582 -0.3014831244945526
2.22817063331604 -0.2516651451587677 1.0399878025054932
-2.526885986328125 0.8676263689994812 0.534166157245636
0.8392581939697266 0.4049212336540222 0.33164381980895996
-0.7303721904754639 -0.11820341646671295 -0.07364021241664886
3.1476261615753174 0.33276447653770447 -0.638393759727478
2.0680415630340576 -0.2735152840614319 -0.4219600558280945
1.6486928462982178 0.13022759556770325 0.4012748897075653
1.8264464139938354 -0.6147860884666443 0.0779654011130333
1.7298431396484375 -0.5777965784072876 0.11332912743091583
-0.7271432280540466 -0.07021619379520416 -1.0727068185806274
0.029727742075920105 1.037869930267334 -0.04875205457210541
1.0129812955856323 -0.2693573236465454 0.9705437421798706
1.695290446281433 -0.28840371966362 -0.16935721039772034
2.208702564239502 0.07231369614601135 -0.14990705251693726
0.7476388216018677 0.35150837898254395 -0.5113757252693176
1.451464056968689 0.872553825378418 0.27790942788124084
2.0314958095550537 -0.5719847679138184 0.007006003987044096
-0.061085913330316544 -0.09741277992725372 -0.02154465764760971
-1.544825553894043 0.22636710107326508 -0.8134883046150208
1.5681469440460205 0.3361935019493103 0.1999232918024063
-1.9934866428375244 -0.12499408423900604 -0.16497747600078583
0.0160268172621727 0.33862167596817017 -0.3326382339000702
1.8181856870651245 -0.5204730033874512 -0.9526177048683167
-0.6773974299430847 1.009084939956665 0.5619648694992065
-1.858561635017395 -0.4008103609085083 -0.11249805986881256
-1.7203388214111328 -0.09282095730304718 -0.17143785953521729
2.6779913902282715 0.4453202188014984 1.00547194480896
-0.6052481532096863 0.5037550330162048 -0.08545871078968048
0.9141460061073303 -0.23170362412929535 1.0361577272415161
-2.2350540161132812 -0.5252527594566345 0.13566327095031738
1.3484859466552734 0.8526753187179565 -0.3875272870063782
-1.3540350198745728 0.752090573310852 1.4449323415756226
1.3057239055633545 -0.30825042724609375 -0.29891112446784973
-0.4852508306503296 -0.5232291221618652 -0.05021128058433533
-1.6144691705703735 0.05210106074810028 -0.37741735577583313
-1.1314895153045654 0.3646843433380127 1.4626811742782593
1.3055408000946045 0.31745895743370056 -1.3470168113708496
0.9055219888687134 -0.30016759037971497 -0.23705986142158508
2.2055275440216064 0.7047957181930542 -0.7372059226036072
0.569597065448761 -0.5346778631210327 0.788913369178772
-1.37643301486969 0.49559903144836426 -1.0149381160736084
-0.974405825138092 -0.18583902716636658 0.765006959438324
1.3238898515701294 -0.5135068893432617 1.0867105722427368
3.513619899749756 0.1397131383419037 -0.6396635174751282
0.5678613185882568 0.1827380210161209 -0.8214761018753052
-1.7868443727493286 0.7263301610946655 1.2889705896377563
0.08285345137119293 0.5218982696533203 -1.263150691986084
-1.465123176574707 0.6652084589004517 -1.3656378984451294
-2.0883843898773193 0.5274373292922974 -0.170261412858963
1.0329959392547607 -0.2151922732591629 0.8969310522079468
-0.9582400918006897 0.21002158522605896 1.1033439636230469
-0.26031428575515747 0.1354026049375534 0.01747198961675167
-0.36588311195373535 -0.317974716424942 -0.36249881982803345
-1.043270230293274 0.718116283416748 0.7704159021377563
0.43430882692337036 0.1942559778690338 0.3939370810985565
-1.2024989128112793 -0.22721944749355316 -0.23820610344409943
-1.218225359916687 0.14787842333316803 -0.5865337252616882
0.721899688243866 -0.5147521495819092 1.3092812299728394
1.051589846611023 0.6696845889091492 0.771435558795929
-1.8207767009735107 1.0741996765136719 0.1593707650899887
1.6873304843902588 -0.5679430365562439 -0.5181567668914795
0.7639236450195312 0.012423321604728699 -1.0403724908828735
0.6426028609275818 -0.1128154993057251 -1.5209550857543945
1.7101134061813354 -0.16976501047611237 -0.7362239956855774
