ply
format ascii 1.0
element vertex 815
property float x
property float y
property float z
end_header
0.383842796087265 1.14224374294281 -0.48234814405441284
-2.548391103744507 0.1533314287662506 -1.0997074842453003
0.009522821754217148 -0.38200944662094116 0.4585295617580414
-0.5695319771766663 0.6722904443740845 -1.0090242624282837
-0.14440281689167023 0.12377478182315826 1.156085729598999
2.528865337371826 -0.3811619281768799 0.4747482240200043
-0.6452696323394775 -0.3763236105442047 -0.6505072712898254
-2.0535836219787598 -0.05930563807487488 1.121222734451294
-1.895540475845337 0.7989760637283325 -0.10678622126579285
-0.41798844933509827 0.9656343460083008 0.8762229681015015
-0.6118850708007812 0.30801868438720703 1.137183427810669
-0.7572947144508362 0.8512486815452576 -0.9068121314048767
1.0313113927841187 -0.358145147562027 1.0999890565872192
-2.288459539413452 0.6561750769615173 -0.7480362057685852
-0.8739750981330872 -0.37596410512924194 -0.49659037590026855
-1.7459341287612915 0.8556016683578491 -0.3966207504272461
0.21665625274181366 1.142929196357727 -0.6070756912231445
-0.9409974217414856 1.0780357122421265 0.7086453437805176
0.6792817115783691 -0.1778952181339264 1.1505494117736816
-0.2624655067920685 -0.38161182403564453 -0.42498815059661865
3.0463194847106934 0.09839436411857605 -0.7677514553070068
-1.4487050771713257 -0.4069632291793823 -0.8974953889846802
-0.7889045476913452 -0.3983291685581207 0.24766552448272705
1.2560570240020752 0.7274833917617798 -0.14517416059970856
1.7404264211654663 0.5407238602638245 -0.8600453734397888
0.4157453775405884 0.025380417704582214 -1.162358045578003
-0.560854971408844 -0.3754572570323944 0.336839497089386
-2.5546743869781494 -0.34264880418777466 -0.4852382242679596
1.7747750282287598 -0.3934416174888611 -0.5730211138725281
-2.3063230514526367 0.6819208860397339 -0.6070347428321838
0.5863509178161621 -0.3889533579349518 -0.7918567657470703
2.0268571376800537 -0.263661652803421 -1.1127294301986694
-0.5273959040641785 1.188300371170044 0.0031573777087032795
1.7326972484588623 0.3016938269138336 -1.1474696397781372
-2.1418843269348145 0.6465171575546265 0.8438618183135986
-0.9709807634353638 1.020707607269287 0.7706102728843689
2.1938869953155518 0.5279080867767334 0.538875937461853
-1.6170973777770996 0.8096543550491333 0.7334944605827332
1.3412271738052368 0.6702789068222046 -0.5790117383003235
0.3184441924095154 -0.1298968344926834 1.1607385873794556
2.8479199409484863 -0.38091057538986206 0.28777197003364563
-0.11187145113945007 -0.3868871331214905 -0.9158850908279419
-2.61271333694458 0.37085890769958496 -0.8270442485809326
-0.44487524032592773 -0.33333301544189453 1.0803804397583008
0.14269214868545532 -0.39593181014060974 -0.06208592653274536
-2.4510250091552734 -0.32191744446754456 -0.7890095114707947
2.3850584030151367 -0.41257530450820923 -0.753994882106781
3.048307418823242 -0.36343473196029663 0.3388936519622803
-0.3800804018974304 1.176997423171997 0.40557920932769775
2.315368413925171 -0.3948504328727722 0.011067397892475128
1.3159339427947998 0.6853140592575073 0.0757254958152771
0.24655939638614655 -0.38739943504333496 -0.14296217262744904
-0.6843832731246948 -0.018566682934761047 -1.1722577810287476
2.1914498805999756 -0.41666340827941895 -1.1170400381088257
-1.7452447414398193 0.23030789196491241 1.1681203842163086
0.17999839782714844 0.4040929079055786 -1.142652988433838
0.33294805884361267 1.1689105033874512 -0.36904919147491455
-2.005988359451294 -0.33421868085861206 0.8527581691741943
-1.4981492757797241 -0.36925938725471497 0.5340415835380554
-1.246338129043579 1.036016821861267 0.09362049400806427
1.8206619024276733 -0.613411009311676 -0.8918797373771667
-1.1165854930877686 -0.43266287446022034 -0.8499268293380737
-1.4026856422424316 -0.2576548159122467 -1.1130659580230713
0.9676297903060913 0.9189808964729309 -0.07135673612356186
0.24779964983463287 -0.3838275074958801 0.09743981808423996
1.57947838306427 0.5972148776054382 -0.6096217632293701
2.406928539276123 0.4278510808944702 -0.8636045455932617
2.442589521408081 -0.3802328109741211 0.06292715668678284
0.55086749792099 -0.3854316174983978 -0.9501043558120728
2.598038673400879 0.4749191105365753 0.31473642587661743
0.04590236395597458 -0.38679438829421997 -0.5722607970237732
-2.2431702613830566 -0.32012397050857544 -0.44990018010139465
-1.9507230520248413 0.6865191459655762 -0.8363932371139526
-1.9294987916946411 0.7580219507217407 -0.5302932262420654
-2.6626834869384766 0.7371737957000732 0.16197364032268524
-0.23700948059558868 -0.3807871341705322 -0.1458360254764557
1.0953688621520996 0.3575848937034607 -1.171090006828308
-0.544192373752594 0.6376277208328247 1.0200293064117432
-0.7347080707550049 -0.3830615282058716 0.06663672626018524
-1.553573489189148 0.8443799018859863 -0.7918967008590698
-2.1283721923828125 -0.1974399983882904 -1.1539342403411865
3.1519713401794434 0.1713535189628601 0.04859866201877594
-1.3077433109283447 0.46879810094833374 -1.097858190536499
-1.7791953086853027 -0.35410213470458984 -0.6946977376937866
-1.0163938999176025 1.1279387474060059 -0.2890065312385559
1.2375379800796509 0.7170791029930115 0.35358723998069763
0.47858884930610657 -0.3867141604423523 -0.3175879120826721
3.0758397579193115 -0.3705131411552429 0.2027563750743866
1.4230008125305176 0.4375511407852173 -1.108277440071106
1.0062334537506104 0.8501147031784058 -0.6149901151657104
2.4126312732696533 -0.47555023431777954 0.7696321606636047
0.27950188517570496 -0.3944428563117981 -0.45434603095054626
2.3746118545532227 0.5115751028060913 -0.00788495410233736
1.4726678133010864 -0.3866991102695465 -0.19673959910869598
2.2195205688476562 -0.5970929861068726 0.7273801565170288
1.4316823482513428 0.06504934281110764 -1.1675643920898438
-0.26957595348358154 -0.3912879228591919 0.17767156660556793
-1.3782621622085571 -0.3536417484283447 1.1295592784881592
1.4245500564575195 -0.3626343011856079 -0.29527437686920166
3.0805771350860596 0.17854347825050354 -0.2278490662574768
0.34977009892463684 0.2609652280807495 -1.1674176454544067
-1.718718409538269 0.6359009742736816 -0.9914876222610474
0.46681058406829834 -0.37783318758010864 -0.13183899223804474
1.9414805173873901 -0.03291592001914978 -1.1302540302276611
0.5650059580802917 0.7536983489990234 -0.9928880929946899
-0.4877687692642212 0.6327210068702698 -1.0328243970870972
2.032961130142212 0.5565211772918701 0.21586772799491882
-0.3520455062389374 0.40539073944091797 1.1163896322250366
-0.9471825957298279 1.134090542793274 -0.3635829985141754
-1.370904564857483 -0.6041675806045532 1.0717560052871704
2.6191251277923584 0.22618243098258972 1.1438251733779907
-2.2334136962890625 -0.3351447582244873 0.005352133419364691
2.542861223220825 -0.3845304250717163 -0.11308164149522781
2.4853763580322266 -0.10051117837429047 1.1220487356185913
-2.660367488861084 -0.03404057025909424 -0.9089337587356567
1.960480809211731 0.5634739398956299 0.3707064092159271
-0.0968191847205162 0.4912077486515045 -1.102466344833374
-1.306475281715393 -0.10932686924934387 1.1316560506820679
-0.8179530501365662 -0.3764732778072357 -0.11953049898147583
0.5542543530464172 -0.20929540693759918 1.1450276374816895
0.017667531967163086 0.9215242862701416 -0.8956770896911621
2.6899049282073975 0.4256715178489685 -0.5467548370361328
0.32645243406295776 -0.3904308080673218 -0.24671612679958344
-0.13735808432102203 1.2025514841079712 0.15740960836410522
-0.18059569597244263 0.06043752282857895 1.1578164100646973
-0.11995354294776917 0.7193126678466797 0.9850837588310242
0.023952800780534744 -0.36739081144332886 -0.3537498414516449
-1.7285290956497192 0.8709148168563843 -0.19112956523895264
1.6771413087844849 0.555195152759552 0.7775814533233643
-2.223076105117798 -0.3236394226551056 -0.27616629004478455
1.2428903579711914 -0.40000033378601074 0.08383216708898544
-1.3871313333511353 -0.5924394130706787 -0.7197514772415161
-2.3982067108154297 0.1585112363100052 1.09003484249115
-0.4916112422943115 -0.3899034857749939 -0.7109851837158203
-1.6034969091415405 -0.5896039009094238 -1.0963528156280518
-2.0139880180358887 -0.30306553840637207 -1.1213271617889404
2.197443723678589 0.4508605897426605 -0.8798642754554749
3.0067505836486816 -0.37892043590545654 0.005631021223962307
-2.0181190967559814 -0.12191930413246155 -1.162542462348938
0.5384982228279114 0.015595749020576477 -1.1857850551605225
0.11549843102693558 0.9622219800949097 0.8875887989997864
0.6747398972511292 0.3851974904537201 -1.1524871587753296
-1.5693387985229492 -0.3624470829963684 -0.6817308068275452
-0.20004796981811523 -0.08809836208820343 -1.1627033948898315
2.3517065048217773 0.13331635296344757 1.1429965496063232
2.3459131717681885 0.054248616099357605 1.1337156295776367
2.083854913711548 0.5574836730957031 0.317190945148468
-1.9648411273956299 -0.3532857298851013 -0.1149001494050026
-0.3449387550354004 -0.3843497633934021 -0.08872417360544205
-0.45028263330459595 1.0049399137496948 -0.8305202126502991
-0.32960909605026245 0.014591991901397705 -1.1637836694717407
0.8678513169288635 -0.3576623499393463 0.39798882603645325
0.12315461039543152 -0.13702991604804993 -1.140341877937317
1.250796914100647 -0.4014357328414917 0.6119183897972107
-1.7315986156463623 -0.153890460729599 -1.1412369012832642
-1.4426178932189941 0.9248244166374207 -0.7194418907165527
1.3410435914993286 0.21715305745601654 -1.1762371063232422
1.9338465929031372 -0.30949777364730835 -1.0965754985809326
-2.65226411819458 0.47442537546157837 -0.20615161955356598
-2.6926352977752686 0.6592637300491333 0.7772535681724548
1.551811695098877 -0.3961557447910309 -0.8682507276535034
3.21736741065979 0.10531270503997803 0.5686365962028503
1.2327018976211548 0.06698828935623169 1.1352607011795044
-1.6640119552612305 -0.3435105085372925 -0.8004427552223206
-0.08192281424999237 0.34551429748535156 -1.1416051387786865
0.4007365107536316 0.29756367206573486 1.1290369033813477
-1.1655076742172241 -0.37753376364707947 -1.0906316041946411
-1.1368091106414795 -0.46470093727111816 -1.0413835048675537
0.16927024722099304 -0.13098415732383728 0.5849108695983887
-2.181246280670166 -0.318118155002594 0.6689525842666626
0.4092056155204773 -0.3853137791156769 1.060284972190857
-1.1672654151916504 0.307101309299469 -1.1423043012619019
1.9441120624542236 0.5732728242874146 0.1652851402759552
-1.6184085607528687 -0.3768512010574341 1.1146079301834106
3.060591697692871 -0.022732898592948914 -0.5904484987258911
2.39202618598938 -0.3211296498775482 -1.0732475519180298
-1.9084800481796265 -0.3428528308868408 0.7854939103126526
2.848616123199463 -0.07025836408138275 1.1327306032180786
1.7251654863357544 0.5999223589897156 -0.5495644211769104
-1.170847773551941 0.03992726653814316 -1.1344324350357056
2.7179384231567383 0.3946413993835449 0.8167750239372253
3.090670585632324 -0.33966535329818726 0.3478829860687256
2.6416354179382324 -0.38580819964408875 0.6863681674003601
2.371673583984375 -0.42691072821617126 -0.8597526550292969
1.9257798194885254 -0.387941837310791 -0.10518553853034973
0.3913779854774475 -0.3898521661758423 0.09924602508544922
-2.287360429763794 0.6324095129966736 -0.8700569272041321
0.29190969467163086 1.1462947130203247 0.5093227624893188
-0.23709489405155182 -0.03304864466190338 -1.1755259037017822
0.9697495698928833 -0.3833201229572296 0.2393825501203537
0.893651008605957 0.08282552659511566 -1.1853034496307373
-0.6591125130653381 -0.3761501908302307 0.7384785413742065
0.5644145011901855 -0.3847200870513916 0.5108762383460999
-0.17445871233940125 0.5152101516723633 1.071611762046814
-2.0304651260375977 0.6851369142532349 -0.7754001021385193
-0.55604088306427 1.1624526977539062 -0.5071157217025757
-2.176342010498047 0.35112297534942627 -1.1400291919708252
-0.8010900020599365 -0.2899305820465088 -1.1216552257537842
-1.5928057432174683 0.9224380254745483 -0.23656322062015533
3.096740484237671 0.1832703799009323 0.18920184671878815
0.009700853377580643 1.1866596937179565 0.14954647421836853
2.676616907119751 0.47958439588546753 -0.04384054243564606
-2.47282075881958 -0.3662381172180176 0.5946429967880249
0.8375831246376038 -0.39444273710250854 0.6840758919715881
0.3127007484436035 -0.38590386509895325 0.684482753276825
-1.2688206434249878 1.0151891708374023 0.20966924726963043
1.3196938037872314 0.1308584213256836 -1.1779457330703735
0.5589048266410828 -0.39718496799468994 0.953488826751709
-0.3816893994808197 0.857718825340271 0.9233925342559814
1.6095235347747803 -0.41366827487945557 0.9806345105171204
-2.1818175315856934 0.6906033754348755 0.740452766418457
-0.054783839732408524 1.171046495437622 -0.4622488021850586
-1.7147843837738037 -0.5105421543121338 -0.8170902132987976
-1.0254309177398682 1.1005322933197021 0.06564896553754807
-0.6931940913200378 0.1757154017686844 -1.1686646938323975
1.611892819404602 0.5827352404594421 0.6727279424667358
0.9469442963600159 0.8939391374588013 -0.5893422365188599
-1.5804401636123657 0.926471471786499 -0.30370208621025085
-0.8690928220748901 0.877379834651947 0.8930619359016418
-2.125255584716797 0.506960391998291 1.0226390361785889
1.7098634243011475 0.5569268465042114 -0.7497597932815552
-1.7972573041915894 0.2994447946548462 -1.140617847442627
2.393441677093506 0.4726305305957794 0.8311135768890381
-2.622157335281372 0.4056192934513092 -0.6053581833839417
-2.6319594383239746 0.3837522268295288 -0.5152961611747742
-0.20997698605060577 0.27866798639297485 1.143681287765503
1.8874523639678955 -0.3928583860397339 -0.0755997821688652
2.5631392002105713 -0.3919839859008789 0.501613199710846
-2.664611339569092 0.464721143245697 0.5348680019378662
1.3402303457260132 -0.38955581188201904 -0.18786002695560455
-2.0579867362976074 0.4090254306793213 -1.1233012676239014
1.4530097246170044 0.5973784923553467 -0.6685221195220947
1.441815972328186 0.47092965245246887 1.109236240386963
-2.5739922523498535 -0.12953300774097443 1.0435285568237305
-1.0911110639572144 -0.44964736700057983 0.9996351599693298
-0.03239937871694565 1.1835166215896606 0.35728269815444946
0.7511416673660278 -0.3830167055130005 0.3142557144165039
-2.592289686203003 0.6702046990394592 -0.7030855417251587
-1.3775591850280762 -0.37736183404922485 -0.7193423509597778
-2.662482261657715 -0.0914667397737503 -0.9641463756561279
-2.2028627395629883 0.3881748914718628 1.069157600402832
1.9731446504592896 -0.3871797025203705 0.6489372849464417
2.494873523712158 -0.39486950635910034 -0.6239492893218994
-1.6682798862457275 0.45971593260765076 -1.0883020162582397
-2.024702787399292 0.7505795955657959 -0.039412979036569595
-2.6805646419525146 0.06213562935590744 0.9504503011703491
-1.7583856582641602 0.5884215235710144 -1.0145299434661865
-0.7232569456100464 1.1694649457931519 -0.5023956894874573
-1.1020655632019043 -0.37565165758132935 0.7808688282966614
-0.9319232106208801 -0.38400977849960327 0.12324262410402298
0.7887986302375793 0.8297634124755859 -0.9776736497879028
-0.13985228538513184 0.3755418658256531 1.1191171407699585
2.8304598331451416 0.3918154835700989 -0.32974109053611755
0.47986268997192383 -0.38830751180648804 0.7413578033447266
1.7855581045150757 -0.3926125764846802 0.5401975512504578
2.2361342906951904 -0.37715211510658264 -0.15119975805282593
-0.6980034112930298 -0.38074493408203125 0.5725026726722717
-1.8018836975097656 0.6637226343154907 -0.952533483505249
-2.6016907691955566 0.35387349128723145 -0.9194203615188599
1.1375792026519775 0.3753890097141266 1.1438068151474
-1.7435956001281738 -0.3315226137638092 -1.107113003730774
0.9212915301322937 0.7166277170181274 -1.1460955142974854
-2.632509231567383 -0.2617945373058319 0.7693703770637512
0.7317156791687012 -0.39305368065834045 0.5525808930397034
-0.8669800162315369 -0.37457045912742615 -0.5639466643333435
-2.6726653575897217 0.14850260317325592 -0.3687630891799927
-1.0903874635696411 1.0119719505310059 0.7507842183113098
0.4083270728588104 1.139380931854248 0.5528528094291687
-2.302337646484375 -0.3144446015357971 0.6367683410644531
-1.1245747804641724 1.080352544784546 -0.008881231769919395
-0.3507653772830963 -0.40446752309799194 0.25498682260513306
-1.5841840505599976 -0.3682261109352112 0.3960845172405243
0.8110787272453308 0.08971519768238068 1.1672778129577637
1.001727819442749 0.8608133792877197 0.48049652576446533
0.5502324104309082 0.44971466064453125 1.089241862297058
2.204131841659546 0.4675390124320984 0.9755035638809204
3.0693047046661377 0.1069391518831253 -0.9599419832229614
2.6609866619110107 -0.38588589429855347 -0.08154314011335373
2.7063522338867188 -0.38683944940567017 0.03463418781757355
-0.8988487720489502 -0.38053226470947266 0.9343779683113098
-1.9068305492401123 -0.5704104900360107 -1.0338727235794067
0.29152482748031616 1.1585196256637573 0.45799925923347473
-2.5099148750305176 0.29629576206207275 -1.1256316900253296
0.7425438761711121 -0.1128738671541214 1.1892306804656982
-2.653610944747925 0.6040903925895691 0.7538765668869019
-1.7264831066131592 0.7016180753707886 0.885668933391571
-2.507129192352295 0.2534754276275635 -1.1316444873809814
1.5111595392227173 0.5898170471191406 -0.7091980576515198
2.393641471862793 0.4947110116481781 -0.4300824701786041
-2.4172234535217285 -0.3361020088195801 -0.02751006931066513
-2.7067058086395264 -0.010986745357513428 0.42828285694122314
-0.6256505846977234 -0.39565953612327576 0.9887909889221191
0.5267696380615234 0.9376333951950073 -0.8979700207710266
-1.585189938545227 0.8958562612533569 -0.6143314838409424
-1.516998052597046 -0.3845107853412628 -0.2935909032821655
1.1340162754058838 0.795630931854248 -0.4191886782646179
-0.28755149245262146 1.1693673133850098 -0.4286719858646393
1.0160419940948486 0.6052923798561096 1.1722899675369263
-0.014528937637805939 -0.08795005083084106 -1.156113862991333
1.8041281700134277 0.5526058673858643 -0.747894823551178
3.0377399921417236 0.25512439012527466 0.6083955764770508
-1.8645962476730347 -0.352372407913208 -0.08432910591363907
-0.03715512156486511 1.2059584856033325 0.19182457029819489
2.378624439239502 -0.3801038861274719 0.674214780330658
-2.2538161277770996 0.591346263885498 -0.948538064956665
0.6306805610656738 1.035826563835144 -0.759479284286499
-1.8822288513183594 0.2774870991706848 1.113997459411621
2.0252861976623535 -0.7655870318412781 1.0916718244552612
0.6524009704589844 -0.3817042410373688 -0.9641998410224915
-2.275010347366333 0.029322482645511627 1.09749174118042
-2.6679725646972656 0.4022659659385681 0.5358574390411377
-1.0494499206542969 0.5190593004226685 1.0658555030822754
2.889936923980713 -0.3787478804588318 0.5412163138389587
-1.9437754154205322 0.1897900253534317 1.1246693134307861
-0.8458101749420166 1.1402764320373535 0.049694690853357315
0.2410852313041687 1.172053575515747 0.019499748945236206
-1.4577618837356567 -0.3506002426147461 1.1397751569747925
2.4997689723968506 0.4618871808052063 -0.4878448247909546
-0.088503398001194 -0.3831039071083069 -0.35627713799476624
-2.1561403274536133 0.11351856589317322 -1.1657766103744507
0.6809492111206055 0.3826656937599182 -1.1557122468948364
1.0590354204177856 -0.3866206705570221 -0.2811628580093384
-2.0957438945770264 -0.3300991952419281 0.3178369402885437
-0.6918397545814514 1.1131975650787354 0.7396289706230164
2.7717373371124268 0.3973592519760132 -0.5390710830688477
2.5361931324005127 0.48932164907455444 -0.007832036353647709
0.6086785793304443 0.7452550530433655 -0.9995539784431458
2.3545968532562256 -0.38275229930877686 -0.8321069478988647
0.6397436857223511 0.45313939452171326 -1.13258695602417
-1.8992435932159424 -0.50525963306427 -0.8197922706604004
1.909969687461853 0.5761566162109375 0.43452879786491394
-2.571394681930542 0.6077734231948853 -0.9248915314674377
0.9750211238861084 0.44265827536582947 -1.1483869552612305
-2.336423873901367 0.34470105171203613 1.0677368640899658
-0.6774048209190369 1.010931372642517 0.8364131450653076
2.4724678993225098 -0.39049968123435974 0.6158221960067749
0.27764013409614563 -0.03144267201423645 -1.1770268678665161
0.4969116151332855 -0.015796169638633728 -1.179699420928955
-0.21391375362873077 1.199222207069397 -0.22970540821552277
2.119974374771118 0.4867340922355652 0.9498158693313599
2.812058687210083 -0.3288464844226837 -1.0861446857452393
-0.2108544111251831 0.6082620620727539 1.032626748085022
-2.0001096725463867 -0.3760407567024231 0.10016286373138428
0.6766648292541504 -0.38404154777526855 0.742967426776886
2.6197657585144043 -0.3165384531021118 -1.113501787185669
1.2670843601226807 -0.38707444071769714 1.0613116025924683
1.7986904382705688 0.5799214243888855 -0.06806380301713943
2.397122621536255 0.4785628914833069 0.7196539640426636
0.012982621788978577 -0.3917456865310669 0.7002543210983276
-0.2819586992263794 -0.1781432032585144 -1.1452009677886963
-1.7230502367019653 0.8764379024505615 -0.009229046292603016
1.3337846994400024 0.5552187561988831 -1.0467041730880737
-2.6980772018432617 -0.012215748429298401 -0.3231015205383301
-0.34502044320106506 -0.3846244215965271 0.5429983139038086
0.4155946671962738 -0.38969865441322327 -0.2853773832321167
2.0821101665496826 0.36272895336151123 -1.1052956581115723
2.398510694503784 0.39564943313598633 1.0597777366638184
-1.7319366931915283 0.863865852355957 0.2692747712135315
-0.13822650909423828 -0.36138004064559937 -0.9694028496742249
2.907602310180664 0.23330533504486084 1.1001472473144531
-2.6874685287475586 0.0043694376945495605 -0.08514538407325745
-1.727716088294983 0.43324413895606995 -1.1058870553970337
-1.8848503828048706 0.49987947940826416 -1.0759965181350708
0.2508067488670349 -0.3844450116157532 0.7390480041503906
-2.5315401554107666 -0.22843752801418304 0.9871475696563721
-0.8080491423606873 1.1817879676818848 -0.11460647732019424
-1.987539529800415 -0.3474835753440857 -1.1127915382385254
-2.6098058223724365 0.6953915953636169 0.3415945768356323
-0.73372882604599 0.4809153079986572 1.0872048139572144
-2.669464349746704 0.6964282989501953 0.17599213123321533
2.854283571243286 0.33768364787101746 -0.747292697429657
-0.6589913368225098 -0.3819589912891388 0.6295617818832397
0.963097870349884 0.9049340486526489 -0.06801997870206833
0.9993001222610474 0.8063326478004456 0.8383877873420715
-0.9568999409675598 -0.3818148374557495 -0.21619683504104614
0.5988501310348511 -0.3812573552131653 0.9846731424331665
1.5991384983062744 0.6234650015830994 0.12375365197658539
0.826035737991333 0.9796291589736938 -0.53684401512146
1.316857099533081 -0.39800113439559937 0.6667677164077759
3.1240787506103516 -0.3465365767478943 0.1945565640926361
2.301180601119995 0.054075226187705994 -1.1250876188278198
2.776378870010376 -0.38557755947113037 -0.6678016781806946
2.841684341430664 -0.38729920983314514 -0.5056489706039429
-0.16621196269989014 -0.12722323834896088 1.1504005193710327
-2.6575920581817627 0.4781911373138428 0.7312608957290649
0.08893882483243942 0.4837709665298462 -1.1073992252349854
0.6618111729621887 0.8907530307769775 0.9343018531799316
0.14582891762256622 -0.3841817080974579 -0.5270268321037292
-0.5028238296508789 1.0272237062454224 -0.8065276741981506
-2.6485514640808105 0.4530797600746155 -0.19101744890213013
0.38581305742263794 0.052368149161338806 1.1602842807769775
-1.8145787715911865 0.8374689817428589 0.1663185954093933
0.7948635220527649 -0.09698982536792755 -1.145061731338501
-2.6164026260375977 0.33707305788993835 -0.8560090065002441
1.966726541519165 -0.44298771023750305 -0.813533365726471
0.39654257893562317 -0.3901577293872833 0.9509257078170776
0.4274664521217346 -0.39063557982444763 0.5955124497413635
0.44299745559692383 -0.38041210174560547 0.8666608333587646
1.4103490114212036 -0.41419461369514465 0.24663780629634857
2.768902540206909 -0.3936363756656647 -0.20574037730693817
-2.5851030349731445 0.5733410716056824 -0.9301624894142151
1.13277006149292 -0.39455318450927734 0.4066794812679291
-2.47356915473938 0.6736899614334106 0.26043567061424255
-2.4076943397521973 0.6735532283782959 0.08314429968595505
-1.466024398803711 0.44137418270111084 -1.1012808084487915
1.483031988143921 0.20998957753181458 -1.173828125
3.024854898452759 0.12254580855369568 -0.7676427364349365
1.760339379310608 -0.396529883146286 0.3139916658401489
-2.4612369537353516 -0.27055618166923523 -1.0373764038085938
2.8712518215179443 -0.39190152287483215 1.0000207424163818
-0.4702914357185364 0.1640613079071045 1.177978277206421
2.1046297550201416 0.5598528981208801 -0.10212162137031555
-1.49990713596344 0.06141345947980881 -1.1620266437530518
-0.7555891275405884 0.9707033634185791 0.8622459173202515
-1.6416268348693848 -0.35025379061698914 -0.4468209147453308
-1.9961446523666382 -0.32718461751937866 -1.117826223373413
-1.2134090662002563 1.0563101768493652 -0.04485040158033371
0.32150378823280334 1.170624017715454 0.32905444502830505
1.962268352508545 -0.5637315511703491 -1.1075541973114014
-2.005434513092041 0.3496719002723694 -1.141801357269287
1.266832709312439 -0.3947010636329651 0.10664542764425278
2.0590906143188477 -0.37809816002845764 0.8238198161125183
-1.4399402141571045 0.2048400640487671 -1.1583362817764282
1.9408420324325562 0.3102649450302124 1.127402663230896
-0.41885295510292053 1.130912184715271 -0.672653317451477
-1.1203023195266724 1.06217360496521 0.24632921814918518
0.11381853371858597 1.0995593070983887 0.776505172252655
-2.2979822158813477 -0.3212783932685852 0.197884663939476
2.3185606002807617 -0.4250831604003906 0.7639502882957458
1.495532512664795 -0.3921431303024292 0.8652573227882385
-0.2240716814994812 1.1436625719070435 0.7036966681480408
-2.6533203125 0.5536931157112122 0.36215367913246155
-0.13433966040611267 0.18916863203048706 -1.1586953401565552
0.7189306616783142 1.0185221433639526 -0.7300809025764465
-0.9592116475105286 0.2446867823600769 -1.165672779083252
-0.9437740445137024 0.6406734585762024 0.9978392124176025
1.5628001689910889 0.1218714490532875 1.1657017469406128
2.6658456325531006 -0.050813257694244385 -1.119205117225647
1.1177564859390259 -0.38782304525375366 0.7641906142234802
-0.7933458685874939 -0.4216810464859009 0.2734518051147461
2.846468210220337 0.3572067618370056 0.7936394214630127
-1.873581886291504 -0.5435066819190979 -0.8526257276535034
1.2290419340133667 -0.40616700053215027 -0.6313203573226929
-1.3715227842330933 -0.095465287566185 1.1283777952194214
-0.181966632604599 -0.20975016057491302 1.1430093050003052
0.09693147987127304 1.2004200220108032 0.03701051324605942
0.7632774710655212 0.7738986015319824 -1.0129789113998413
-1.437514066696167 0.9642811417579651 -0.5471352934837341
0.705248236656189 -0.3020903468132019 -1.0997388362884521
-1.1909879446029663 -0.10977564752101898 -1.1526728868484497
-2.038179874420166 0.7256747484207153 0.6559403538703918
1.0759425163269043 0.8349279165267944 -0.25460052490234375
3.0280816555023193 0.19942606985569 0.9986897110939026
0.703266978263855 -0.3904353380203247 -0.4972494840621948
1.2816004753112793 -0.3869173526763916 -0.9424605965614319
-2.0481204986572266 -0.08241662383079529 1.1279804706573486
-1.9275017976760864 -0.004972591996192932 1.1278212070465088
0.7514632940292358 -0.38618695735931396 0.5150995254516602
-2.5243749618530273 0.6575801968574524 0.18803560733795166
-1.5688600540161133 -0.19945667684078217 1.1136161088943481
-2.454219341278076 -0.2549302875995636 0.9882611632347107
-2.704137086868286 -0.07748560607433319 0.2625238001346588
0.22283849120140076 1.1638972759246826 -0.6243089437484741
-0.5030821561813354 0.9695151448249817 0.8671556711196899
1.6126295328140259 -0.390765905380249 0.033245980739593506
1.475266695022583 -0.13772161304950714 -1.1497292518615723
-0.4160206615924835 -0.21235783398151398 1.1343610286712646
0.2556547522544861 1.1751563549041748 0.3023052513599396
-1.6542729139328003 0.8640281558036804 0.5282189249992371
1.136565923690796 -0.37951329350471497 1.0659281015396118
-2.4581985473632812 0.6072322130203247 -0.9436585307121277
-2.622586488723755 0.7330107688903809 0.31597593426704407
0.3655581474304199 -0.24932195246219635 1.1397947072982788
3.0440642833709717 -0.14947590231895447 -0.8388673663139343
-0.6468505263328552 -0.3610946536064148 0.06179395318031311
2.1837029457092285 -0.11360369622707367 -1.1274033784866333
1.9974331855773926 0.051951222121715546 -1.1247055530548096
0.7562785148620605 0.7599316239356995 0.964658260345459
-2.6775341033935547 0.46479421854019165 0.40016528964042664
0.8170641660690308 0.9857754111289978 0.06591690331697464
-2.3267312049865723 -0.29710477590560913 0.7236514687538147
-2.625882148742676 0.6294226050376892 0.07135865837335587
-0.6502029299736023 -0.38160473108291626 0.23135541379451752
-2.0210213661193848 0.2981594204902649 -1.1417101621627808
-1.360127329826355 0.7998248934745789 -0.9053539037704468
-1.8203201293945312 -0.2368573397397995 -1.135282278060913
0.3044576048851013 1.1730502843856812 0.17605502903461456
1.667594313621521 0.5872856974601746 0.407866895198822
-0.42360642552375793 0.9157459735870361 0.9081701636314392
1.8646492958068848 -0.39103278517723083 0.14429250359535217
3.0931286811828613 -0.30745741724967957 0.5869048237800598
-2.661870241165161 -0.2351873368024826 -0.4003256857395172
-2.6759040355682373 0.6280465126037598 0.6298589110374451
-1.0478525161743164 -0.3747284412384033 -0.5904728770256042
-2.251288890838623 0.6765742897987366 0.17328451573848724
2.204761028289795 -0.3854866921901703 0.3080666661262512
2.731374740600586 -0.3853023946285248 0.4931941032409668
1.3332581520080566 0.245615154504776 -1.1719669103622437
-1.1458454132080078 1.0183887481689453 -0.6878952383995056
2.510699510574341 -0.3325772285461426 -1.12837553024292
0.1713140308856964 1.190499186515808 -0.02849656529724598
1.0842461585998535 0.4974757432937622 1.1146587133407593
-2.688354015350342 -0.16331057250499725 -0.1177135705947876
0.566114068031311 -0.3897046148777008 0.8527384400367737
-0.22673305869102478 0.4144156575202942 -1.1192831993103027
-2.6751439571380615 -0.16894207894802094 0.3916757106781006
-0.9834371209144592 -0.37733107805252075 0.09424608200788498
-0.546267032623291 1.1331477165222168 -0.6610413789749146
-1.1137057542800903 0.5924738049507141 -1.0460484027862549
-2.6600449085235596 0.25170445442199707 0.3750017285346985
0.8718672394752502 -0.3931097984313965 0.38396012783050537
0.5450087785720825 1.1321687698364258 0.10449790209531784
-2.6552135944366455 0.3001924157142639 0.08653675019741058
0.5286112427711487 0.029684409499168396 1.1632988452911377
2.2763752937316895 0.5235036015510559 0.0710984468460083
2.7605392932891846 -0.38554203510284424 -0.8149301409721375
2.6735310554504395 0.45442435145378113 -0.24764512479305267
-2.236495018005371 0.5394651293754578 0.9958220720291138
0.5935881733894348 1.0938351154327393 -0.35514941811561584
0.8011053800582886 0.7151238918304443 -1.0438627004623413
2.1883468627929688 -0.6410344243049622 -0.9449027180671692
-0.9499356150627136 -0.3774857521057129 -0.02518993802368641
-2.1548781394958496 0.2040756195783615 -1.1644158363342285
-2.4822471141815186 0.08706814795732498 1.0974723100662231
1.4067531824111938 -0.39168694615364075 -0.38736119866371155
2.169872522354126 -0.4190777838230133 1.0740711688995361
-2.3012068271636963 0.6849340796470642 -0.3768438696861267
0.9116165637969971 -0.3900373876094818 0.537441611289978
-1.1919704675674438 -0.37768980860710144 0.056674305349588394
-2.540951728820801 0.7050355672836304 -0.09609074890613556
2.2132997512817383 -0.6655891537666321 0.9193554520606995
1.5141310691833496 -0.21415695548057556 -1.1393494606018066
0.9856881499290466 0.6883893013000488 -1.2144181728363037
-2.094615936279297 -0.10046476125717163 -1.1669137477874756
-0.2024780809879303 1.1408576965332031 -0.691975474357605
1.0319808721542358 -0.42131125926971436 -0.9339527487754822
2.4116156101226807 -0.47234341502189636 1.023483395576477
-0.6645815372467041 -0.38104137778282166 0.1818271279335022
0.7111446261405945 0.2624486982822418 -1.170852780342102
-1.182207703590393 -0.021366044878959656 1.1542327404022217
2.154690980911255 -0.3822014629840851 0.2166721075773239
-2.2983922958374023 -0.3157084882259369 -0.4301591217517853
1.1919000148773193 0.5551046133041382 1.1050337553024292
-2.700122356414795 0.03773766756057739 0.7295569777488708
-1.852346420288086 0.21099816262722015 -1.1529020071029663
2.014169454574585 0.5590978264808655 -0.392863392829895
-0.6542389988899231 -0.3769693970680237 0.02242455817759037
0.20751860737800598 1.1273953914642334 0.7290103435516357
-2.015626907348633 0.45895934104919434 1.0573190450668335
1.1235785484313965 0.7513203620910645 0.7671673893928528
-1.6999086141586304 -0.42074307799339294 -0.8688660860061646
1.7201571464538574 0.5483449697494507 -0.8329705595970154
-0.42573487758636475 -0.28395336866378784 -1.1145732402801514
2.422834873199463 0.4990391731262207 -0.30568727850914
-1.0066206455230713 -0.17817024886608124 -1.1414248943328857
0.3637230098247528 1.139290690422058 0.6512313485145569
-0.4976503551006317 -0.3763786256313324 0.4690771698951721
-0.5812975168228149 0.14789925515651703 -1.1708998680114746
2.0626561641693115 0.543369710445404 0.49472594261169434
-1.3697679042816162 0.5258686542510986 1.0682450532913208
-2.531688928604126 0.6698578596115112 0.8483679294586182
-2.101241111755371 -0.3232894241809845 0.3946119248867035
-1.4254573583602905 0.9729921817779541 0.1684836447238922
-1.0439882278442383 0.07432644814252853 1.1539746522903442
1.9560073614120483 -0.6438450217247009 1.0354975461959839
1.8168374300003052 0.5634493827819824 0.546913206577301
1.810002088546753 0.3520532250404358 1.134334683418274
-0.724843442440033 0.0640176385641098 1.1631122827529907
1.0872724056243896 0.6203629970550537 1.1920937299728394
3.0985817909240723 0.25631582736968994 0.6033188700675964
0.26625120639801025 0.6895170211791992 0.9959928393363953
-2.394737958908081 0.4921732544898987 -1.0679055452346802
-1.5579456090927124 0.6293674111366272 -1.005342721939087
1.7148587703704834 -0.5226180553436279 0.9474253058433533
-2.6255946159362793 0.7256028652191162 -0.6631824970245361
-1.8744752407073975 -0.34654346108436584 0.6196040511131287
2.1912841796875 -0.3893207311630249 0.6316931247711182
-2.5411601066589355 -0.2948986887931824 -0.9473766684532166
-0.11875571310520172 -0.36820560693740845 -0.04079696536064148
1.49257230758667 -0.3534335196018219 -1.0913207530975342
0.435483455657959 0.4337438941001892 -1.1339889764785767
2.3091518878936768 0.5024247169494629 0.7153322696685791
-1.972222089767456 0.7615572214126587 0.1816500723361969
-1.5341472625732422 -0.4559246599674225 1.1237000226974487
0.854583203792572 0.8895620107650757 -0.895346999168396
0.7072803974151611 0.7217245101928711 -1.0214260816574097
1.395566701889038 -0.4262862801551819 -0.047211725264787674
-1.3770684003829956 -0.5120759010314941 -1.1080949306488037
1.7500176429748535 -0.4086642265319824 0.7474212646484375
-1.760300636291504 0.8174062967300415 0.552167534828186
-1.7292226552963257 0.5454838275909424 -1.0541948080062866
2.778311014175415 -0.38284242153167725 0.7534024715423584
-2.493204116821289 0.6565707325935364 -0.8094238042831421
2.9719603061676025 0.25925785303115845 -0.7221919298171997
0.5909949541091919 -0.385646253824234 -0.9653158187866211
-1.440950870513916 0.5276570916175842 1.0564308166503906
-0.4642519950866699 -0.37632763385772705 -0.25779131054878235
-1.0335270166397095 -0.2232990264892578 -1.1342694759368896
-2.2770018577575684 -0.2631629705429077 -0.8952101469039917
0.49705782532691956 0.3770950436592102 -1.1590805053710938
-1.6412971019744873 0.06996291130781174 1.1431562900543213
1.2373145818710327 -0.17861407995224 -1.1463860273361206
0.07895078510046005 0.7877509593963623 0.968457043170929
-1.9115203619003296 -0.2430354207754135 1.1099724769592285
0.1764131784439087 1.0974771976470947 0.8050716519355774
1.7402405738830566 -0.5411827564239502 0.949641227722168
2.8576011657714844 0.29890066385269165 -0.9216683506965637
1.8706865310668945 -0.3939369320869446 -0.47902247309684753
0.26575663685798645 1.1244730949401855 -0.6930686831474304
-2.6589057445526123 0.3460990786552429 0.47482386231422424
1.1683236360549927 0.7646772861480713 0.37225350737571716
2.106015682220459 0.10209996998310089 -1.1584869623184204
-1.4893442392349243 -0.44312241673469543 -1.0324119329452515
-1.8571724891662598 -0.33584678173065186 -0.46319103240966797
-1.327652931213379 0.6398891806602478 -1.007432460784912
3.0644166469573975 -0.2772639989852905 0.29650792479515076
-2.151533842086792 0.0016165375709533691 -1.1797853708267212
-1.7640910148620605 0.8469247221946716 -0.004311704076826572
1.92247474193573 -0.3897988796234131 0.5344598889350891
0.2840725779533386 -0.37989816069602966 -0.484666109085083
1.846893072128296 0.567074179649353 -0.5213338136672974
1.879107117652893 -0.1509818434715271 1.1280083656311035
-1.3236210346221924 1.0036375522613525 0.18423737585544586
-2.54529070854187 -0.3382410407066345 -0.01755906641483307
0.6742669939994812 -0.37600886821746826 0.04804040864109993
-0.4686104953289032 0.3731228709220886 1.1263798475265503
1.047541618347168 0.858278214931488 -0.19518251717090607
-0.6965007185935974 0.8382689952850342 -0.9087033271789551
-0.10810370743274689 0.663441002368927 1.0051933526992798
-1.6310735940933228 0.8796029090881348 -0.6778852939605713
0.02077590301632881 -0.38803523778915405 -0.15894006192684174
-2.666962146759033 0.29996180534362793 0.31693407893180847
1.0866128206253052 0.7484661936759949 -0.858966588973999
-1.6083239316940308 -0.1478111892938614 -1.1344168186187744
-1.527209997177124 0.13323375582695007 -1.1579054594039917
2.603147029876709 -0.0661059021949768 -1.1245322227478027
1.3215100765228271 0.6375856399536133 0.6710999608039856
2.2632524967193604 -0.40407612919807434 0.5734743475914001
3.1156558990478516 -0.26560837030410767 0.337675541639328
-1.9651265144348145 0.7441582679748535 -0.5909419059753418
1.3486264944076538 0.6753244400024414 -0.19420002400875092
-0.7370908856391907 1.1063809394836426 -0.13899889588356018
-1.6711289882659912 0.22257524728775024 -1.1659907102584839
1.6445224285125732 0.5811936855316162 0.5566251873970032
1.086544394493103 0.7514616250991821 -0.8668153882026672
2.5727171897888184 -0.3995625376701355 -1.0140082836151123
-1.0432952642440796 1.083756685256958 0.3098931312561035
1.0052618980407715 0.860741376876831 -0.5771924257278442
1.7595134973526 0.5516718029975891 0.7601056694984436
1.1563262939453125 0.19038257002830505 -1.1814411878585815
0.33576565980911255 1.0434834957122803 -0.8216404914855957
-1.813636064529419 -0.34545087814331055 -0.33008357882499695
0.7120546102523804 -0.38836953043937683 -0.13365432620048523
1.996218204498291 0.17801673710346222 -1.1554945707321167
-1.65883207321167 0.09196022897958755 -1.1611318588256836
0.6492425799369812 -0.35473066568374634 1.1047844886779785
0.09210987389087677 -0.3814401626586914 0.6023324728012085
-0.6644138097763062 0.3814939260482788 1.1225618124008179
1.0014723539352417 -0.39207202196121216 0.17664624750614166
-2.575650691986084 -0.31046515703201294 0.01728053018450737
-1.9667750597000122 0.5219401717185974 1.0337295532226562
-1.407780647277832 -0.3561530113220215 0.6934723854064941
-0.025167781859636307 -0.38245049118995667 0.5829747319221497
0.2971908152103424 -0.38571852445602417 -0.6600016355514526
0.12200005352497101 1.0213062763214111 0.8616325259208679
1.0183885097503662 -0.3981879949569702 0.11230006068944931
-1.511033296585083 0.9538152813911438 -0.07214359939098358
-1.293655276298523 -0.5612386465072632 -1.0608519315719604
2.557068109512329 -0.3827659487724304 -0.13134002685546875
1.6100784540176392 0.1203746348619461 1.1576671600341797
-2.6108040809631348 0.7340644598007202 -0.3713604807853699
0.4530515670776367 0.1322181522846222 1.1645599603652954
1.1618012189865112 0.776074230670929 -0.48520150780677795
-2.6356990337371826 0.2226005494594574 0.8729717135429382
3.0930774211883545 -0.08333298563957214 0.5180935859680176
-0.573828399181366 0.06293922662734985 -1.2112072706222534
-2.4330878257751465 -0.31958064436912537 -0.5485418438911438
1.284196138381958 -0.33526182174682617 -1.0999282598495483
2.3914198875427246 -0.44032296538352966 -0.8497269153594971
-1.6037383079528809 -0.4562586545944214 -1.1074668169021606
1.1045657396316528 -0.34576570987701416 1.102925181388855
3.024407148361206 -0.35120415687561035 0.7079744338989258
-2.279813051223755 -0.32597893476486206 0.5418543815612793
-1.7135589122772217 0.1483071893453598 -1.1822147369384766
1.1459622383117676 0.7378538250923157 -0.806294858455658
-1.5144624710083008 -0.3422378897666931 -0.6982900500297546
0.5616466999053955 1.0679733753204346 0.7831746935844421
2.207775115966797 0.18375486135482788 1.1398632526397705
-2.2007176876068115 -0.327104777097702 -0.31987452507019043
-0.4861551523208618 0.6703264713287354 1.0067057609558105
-0.9263715147972107 0.9611829519271851 0.8518702387809753
1.1275417804718018 -0.38466528058052063 -0.21666492521762848
2.1666624546051025 -0.38379982113838196 0.4051523208618164
1.5401842594146729 0.4460632801055908 -1.0975373983383179
-1.4307695627212524 -0.7054659724235535 0.984994113445282
2.8690106868743896 0.4105680584907532 0.25516897439956665
3.0105812549591064 -0.2147788107395172 1.069044828414917
-2.635127067565918 0.38845735788345337 -0.4411521553993225
0.8242064714431763 0.9447960257530212 0.7298044562339783
-0.8707402348518372 1.1443389654159546 -0.5088714957237244
1.790908694267273 -0.3952177166938782 -0.535140872001648
-1.2106150388717651 -0.5522328615188599 1.0261873006820679
1.390937328338623 -0.3913585841655731 -0.732521116733551
-1.5230684280395508 -0.3428077697753906 -0.9004639983177185
-1.4576793909072876 0.49395716190338135 -1.0864598751068115
-2.652601957321167 0.34541577100753784 -0.31416600942611694
2.505086898803711 0.49831247329711914 -0.3493172526359558
-1.873178243637085 0.7766939401626587 -0.6730440258979797
-2.4893670082092285 -0.25436925888061523 -1.089063048362732
-2.169433832168579 0.7090275883674622 -0.507713794708252
-1.0461809635162354 1.103094220161438 -0.31492185592651367
0.4820970892906189 -0.3878735303878784 -0.4533173143863678
1.1798746585845947 0.4943387508392334 1.1431121826171875
1.3395907878875732 0.6591790914535522 0.26598870754241943
0.0014615096151828766 -0.3923540711402893 -0.7499215006828308
1.5520803928375244 0.5697056651115417 -0.8570491075515747
-2.6007883548736572 -0.2918957471847534 -0.8016417622566223
-0.6279722452163696 0.2681344747543335 -1.156925916671753
-1.9715862274169922 -0.356096088886261 0.8704351186752319
3.1515324115753174 -0.09026975929737091 0.5888170599937439
-0.5721186399459839 1.1358509063720703 0.5908350348472595
1.4015730619430542 -0.3938581645488739 0.7801174521446228
-2.365241050720215 -0.12587763369083405 -1.1586908102035522
2.3337700366973877 -0.36126625537872314 1.0828046798706055
-0.4641778767108917 -0.37244680523872375 0.9811578989028931
-2.377363681793213 -0.2862749695777893 0.7598267793655396
0.07238587737083435 -0.38302332162857056 0.4414844810962677
3.050992250442505 0.30537480115890503 -0.30714067816734314
-1.3639403581619263 1.0120385885238647 -0.5457042455673218
-1.519348382949829 0.781519889831543 -0.8970552682876587
-1.371660828590393 0.368405282497406 -1.1359456777572632
0.022908378392457962 1.1737055778503418 0.5234729051589966
-2.683997631072998 0.139743834733963 -0.10061817616224289
-1.5771335363388062 0.9034173488616943 0.3640141785144806
-2.5361199378967285 0.5722805261611938 -0.945747435092926
-1.7279472351074219 0.8470953106880188 -0.5205349922180176
2.8638360500335693 0.38717925548553467 -0.4864200949668884
3.034524440765381 -0.38727429509162903 0.2596093416213989
1.9160008430480957 -0.4002056121826172 -0.42480581998825073
1.5262012481689453 0.5667635202407837 -0.8964717388153076
1.323094129562378 -0.3792321979999542 0.4103752672672272
1.787161111831665 -0.0426093190908432 -1.1244145631790161
2.4289188385009766 0.4482012987136841 0.8887772560119629
-0.07277870923280716 -0.32594311237335205 1.1053062677383423
-0.19987276196479797 -0.3607828915119171 -1.0798335075378418
0.9976329207420349 -0.38806071877479553 0.12002763152122498
2.9176135063171387 0.4033403992652893 0.17388741672039032
-0.4214177131652832 1.1979397535324097 -0.06941594183444977
-1.9393336772918701 0.49599283933639526 -1.0600273609161377
1.8568450212478638 0.06416133046150208 -1.1312215328216553
1.9267809391021729 -0.3882564902305603 0.05445627123117447
3.0231881141662598 -0.2394598126411438 -0.9494998455047607
-1.9675406217575073 0.7743377685546875 0.173481747508049
3.135496139526367 0.20387592911720276 0.7217448949813843
-0.5586602687835693 0.36641085147857666 1.1272236108779907
1.5826294422149658 -0.1978418529033661 -1.1331948041915894
-1.5727382898330688 -0.6893479228019714 0.9750657081604004
-2.286912679672241 -0.30423736572265625 0.7893054485321045
-1.4060206413269043 -0.39313435554504395 0.034584976732730865
1.808100938796997 0.27686452865600586 -1.1442596912384033
-0.4769405424594879 -0.37956053018569946 -0.7823823690414429
-0.2428111881017685 -0.28526151180267334 -1.1095033884048462
-2.5016818046569824 0.7208454608917236 -0.42498302459716797
-0.8898705840110779 -0.29628366231918335 1.1108527183532715
-0.8410477042198181 -0.3775494694709778 0.6379555463790894
-2.465162515640259 -0.019207969307899475 1.0774699449539185
-1.4887267351150513 -0.3531652092933655 0.716171383857727
-2.0316407680511475 -0.3719936013221741 0.1241225078701973
-0.5586491823196411 -0.12302285432815552 -1.1553720235824585
-2.003169059753418 -0.33224642276763916 0.7968723773956299
-2.5880439281463623 0.7476358413696289 -0.556145966053009
0.5475399494171143 -0.3730960488319397 -0.978076696395874
-0.8627382516860962 0.1271517425775528 1.1484614610671997
0.1898660808801651 1.0850244760513306 -0.7925525307655334
1.421600103378296 0.28254830837249756 -1.1656383275985718
-2.654707670211792 0.5594879984855652 -0.02492731809616089
-0.19459740817546844 0.20142866671085358 -1.1574745178222656
0.021283958107233047 -0.37519586086273193 0.42355990409851074
-0.21785669028759003 -0.3501858711242676 -1.080423355102539
-0.16230572760105133 0.3454362154006958 -1.1413904428482056
-1.5422688722610474 0.84247225522995 0.7207313179969788
-1.7620218992233276 0.8439774513244629 0.3096931278705597
0.539199709892273 0.15006422996520996 -1.170825719833374
2.650242567062378 0.45198601484298706 -0.4000310003757477
1.2827972173690796 0.6832146644592285 -0.6424161195755005
-0.0343291200697422 1.149680256843567 0.5607736706733704
-1.0971351861953735 0.2626737356185913 -1.1480262279510498
1.1716970205307007 0.759969174861908 0.3139994442462921
0.13090817630290985 0.9602555632591248 0.8908417820930481
-2.702850580215454 -0.08734266459941864 0.34186747670173645
2.0430214405059814 0.17237427830696106 -1.156813144683838
1.6059660911560059 0.5886741876602173 -0.6786215305328369
0.7552985548973083 -0.38718801736831665 0.3018030524253845
0.8900229334831238 0.0012892484664916992 -1.1675478219985962
0.1591922640800476 -0.3849237561225891 0.013621101155877113
0.05404060333967209 -0.1534801423549652 1.1521556377410889
0.31494295597076416 1.155127763748169 -0.18582022190093994
0.6913710832595825 -0.32956892251968384 -1.0933524370193481
-2.5651795864105225 0.5112946033477783 -0.9584318995475769
3.065138578414917 0.04131399840116501 -0.510739266872406
-1.2343593835830688 -0.40955162048339844 0.43898043036460876
-1.8531550168991089 -0.5131021738052368 -1.0832791328430176
-0.6121082901954651 -0.27097779512405396 -1.1275525093078613
-2.564692258834839 -0.32239657640457153 -0.04713563248515129
-0.8582034111022949 -0.1365516036748886 -1.154310941696167
0.7598658204078674 1.018151044845581 -0.005074046086519957
1.3389501571655273 -0.38282835483551025 0.35455384850502014
-2.173516273498535 -0.04069298505783081 1.095379114151001
2.373575210571289 -0.38896700739860535 -0.30351901054382324
-0.7942161560058594 1.1699225902557373 0.14218586683273315
2.504114866256714 0.4804043471813202 -0.389865905046463
-1.0284559726715088 1.1142797470092773 -0.05655822157859802
-0.7452783584594727 0.8560140132904053 -0.9044816493988037
1.8790026903152466 -0.39593368768692017 -1.1213093996047974
3.125863552093506 -0.09027950465679169 -0.06243137642741203
