ply
format ascii 1.0
element vertex 816
property float x
property float y
property float z
end_header
2.3677213191986084 -0.18191353976726532 -0.8110341429710388
-1.05755615234375 -0.506224513053894 0.6172652244567871
-1.805951714515686 0.7151113152503967 -0.9773201942443848
1.999472975730896 -0.45371052622795105 -0.8036515116691589
1.0480746030807495 -0.03846636414527893 -1.2071858644485474
-1.1185895204544067 -0.5689213275909424 -0.8221135139465332
0.21506239473819733 -0.5707019567489624 0.5506951212882996
-0.4944750666618347 -0.19452305138111115 1.1995348930358887
-2.3190855979919434 0.8647618293762207 0.33629462122917175
1.8943636417388916 -0.5569531321525574 0.5203113555908203
-0.2684422433376312 -0.24372315406799316 1.1808773279190063
-0.3523418605327606 1.1212700605392456 0.35733306407928467
-0.5751969814300537 1.1104052066802979 -0.47574055194854736
2.054903745651245 0.5471434593200684 -0.41646891832351685
1.428017020225525 -0.6291840672492981 0.9176554679870605
1.6216310262680054 0.43617701530456543 -1.0229567289352417
-0.9648385643959045 -0.6058782935142517 -0.664741039276123
-1.673717975616455 -0.3358253538608551 1.0136795043945312
-0.46971678733825684 0.6615018844604492 -1.0286037921905518
-0.7649942636489868 -0.3574610650539398 1.1066497564315796
-0.811102569103241 -0.5813922882080078 -0.9205065965652466
0.1288856863975525 1.0652213096618652 -0.6615960001945496
1.680740475654602 -0.5307714939117432 0.8566842079162598
2.649461507797241 -0.5662342309951782 -0.45123738050460815
1.4292188882827759 0.6292544603347778 -0.47257739305496216
1.8459045886993408 -0.445966899394989 -0.8259681463241577
0.2051135152578354 1.1010022163391113 0.09334877878427505
1.8158944845199585 -0.5738096237182617 -0.2341766208410263
-1.8670859336853027 -0.32759585976600647 -0.3725542426109314
2.1659796237945557 0.4958398938179016 0.011310316622257233
2.7738213539123535 0.30975478887557983 0.3405780494213104
-2.2041070461273193 -0.6702249646186829 -1.0269763469696045
-1.1571950912475586 0.24516966938972473 -1.19131600856781
-2.412161111831665 0.06754211336374283 -1.1759326457977295
-1.2463933229446411 -0.6307098865509033 0.7771996259689331
-0.7460157871246338 1.124037504196167 0.34188857674598694
-1.3990505933761597 -0.5872541666030884 1.1748491525650024
3.089665412902832 0.08237610757350922 0.3579757511615753
-0.8368296027183533 -0.5952165126800537 0.2727174162864685
0.5785837173461914 0.9896440505981445 0.46644720435142517
1.632515788078308 0.37822508811950684 -1.0636682510375977
2.0353541374206543 0.5101807117462158 -0.5326207280158997
-1.3668543100357056 -0.5240420699119568 0.7000721096992493
-2.216524124145508 0.5238298177719116 -1.093477487564087
-2.5019516944885254 0.6884598731994629 0.5148406624794006
2.3536362648010254 -0.540883481502533 0.6032313108444214
-2.670325994491577 -0.6076561808586121 0.85249924659729
2.6153736114501953 0.37210193276405334 0.05978897213935852
-2.07977032661438 0.35432109236717224 -1.1511894464492798
-2.261819362640381 -0.18743844330310822 -0.4308241903781891
-1.4092233180999756 -0.5737943649291992 1.1825793981552124
-2.344383716583252 0.13929688930511475 0.3825966417789459
-2.0507001876831055 -0.153080016374588 -1.1908880472183228
1.7600020170211792 -0.7181695103645325 1.0194734334945679
-1.223984718322754 1.1218931674957275 0.08590228855609894
1.2255239486694336 0.720801055431366 -0.3851477801799774
-0.6317917108535767 0.20469538867473602 1.1893607378005981
2.6332976818084717 -0.6320517063140869 1.1265095472335815
-2.4061856269836426 0.022960558533668518 -0.29188022017478943
-0.16300760209560394 0.24807307124137878 -1.1939066648483276
-2.5155389308929443 0.1897278130054474 1.1590936183929443
-2.2133491039276123 0.33427363634109497 1.182459831237793
1.3594794273376465 0.6747078895568848 -0.235883429646492
0.7524870038032532 0.7577524185180664 0.9737085103988647
0.6349599957466125 0.22968846559524536 -1.1924724578857422
-2.423205852508545 0.7559298276901245 -0.37570786476135254
-2.1070425510406494 0.9588503837585449 -0.6910098195075989
0.7093032598495483 0.48796433210372925 1.1056252717971802
-2.399341106414795 0.06506016850471497 0.3061666786670685
3.182326316833496 -0.2636393904685974 -0.04979559779167175
-2.449418783187866 -0.08431567251682281 -1.184399127960205
-2.505096435546875 -0.5286673903465271 0.12105672806501389
2.495021104812622 -0.14605428278446198 -0.9329925179481506
1.0922030210494995 0.16762755811214447 -1.1989622116088867
-0.8337655067443848 1.1084600687026978 -0.5333443284034729
-0.5858771204948425 -0.5891808271408081 -0.9146354794502258
1.240983486175537 -0.5701714754104614 -0.15438887476921082
-0.8006646633148193 -0.5426642298698425 1.0488189458847046
-1.1369723081588745 0.22024860978126526 -1.1992379426956177
1.4441568851470947 -0.5666752457618713 0.2985938787460327
-1.1866893768310547 -0.6010897755622864 0.1850101798772812
2.8645434379577637 -0.004408583045005798 1.1056002378463745
1.2939181327819824 0.7158268094062805 -0.12759603559970856
0.1530332714319229 0.9095249176025391 -0.8215989470481873
-0.5155854225158691 1.1249580383300781 -0.41867685317993164
0.9587251543998718 0.04001264274120331 -1.2026495933532715
-0.23337867856025696 -0.03322643041610718 -1.1933763027191162
0.2982649803161621 1.0375369787216187 -0.6018271446228027
0.6822974681854248 -0.5877383947372437 0.7438620328903198
0.4597168266773224 -0.1582667976617813 -1.1981931924819946
2.5368590354919434 -0.4747776985168457 1.160081386566162
1.0047308206558228 -0.5771429538726807 -0.04203643649816513
-1.257224678993225 -0.4371657967567444 -0.11612145602703094
-0.7076489925384521 -0.5059772729873657 0.909674882888794
-2.644782781600952 0.36843299865722656 0.2561807930469513
-1.431480050086975 -0.164535790681839 -0.3020987808704376
3.1322124004364014 -0.138281911611557 -0.7139062285423279
1.6927298307418823 0.5438385009765625 0.046887706965208054
-0.4492207467556 -0.3606589436531067 1.1973999738693237
-1.1197558641433716 1.1216262578964233 0.03638892620801926
2.0545763969421387 -0.2493993043899536 -1.1834912300109863
-2.497962713241577 -0.15521906316280365 0.09892674535512924
-1.403402328491211 -0.4972430467605591 0.4555114209651947
-1.8727824687957764 0.09544692933559418 0.4626060724258423
1.5432498455047607 0.5490706562995911 0.8623217344284058
3.177812337875366 -0.3699309825897217 0.5460918545722961
-2.4802823066711426 -0.2841508686542511 0.018702751025557518
0.7637956738471985 -0.5279001593589783 1.1452045440673828
-0.3943220376968384 1.131283164024353 0.000107087820651941
2.059396743774414 -0.5923266410827637 0.5840059518814087
3.1398322582244873 0.03285735845565796 0.2502744495868683
-1.0298826694488525 1.1163859367370605 -0.19583220779895782
0.5394288897514343 1.0257916450500488 -0.11592942476272583
-1.5747466087341309 -0.18841993808746338 -1.1516659259796143
2.0685956478118896 -0.7519824504852295 0.9212879538536072
-1.9660983085632324 -0.02199617028236389 0.40835705399513245
-2.5899319648742676 0.40871599316596985 -1.0561920404434204
2.3923380374908447 0.45058849453926086 -0.16147729754447937
2.433138847351074 0.4042153060436249 0.6807618141174316
-1.3903671503067017 -0.6410505175590515 -1.0794676542282104
-1.829264760017395 -0.33229416608810425 0.8724045753479004
-0.5703926682472229 -0.5138672590255737 0.08531033247709274
-2.0115365982055664 1.0103288888931274 -0.1450071483850479
-1.6510646343231201 0.6722626090049744 -0.9968751072883606
2.8859622478485107 0.0675887018442154 -1.004014492034912
-2.763777256011963 -0.059194713830947876 -0.015170024707913399
1.576452374458313 0.561860203742981 -0.22868789732456207
0.5380104184150696 -0.5804830193519592 -0.9407957792282104
-1.94017493724823 -0.5654413104057312 -1.1324865818023682
2.2534191608428955 0.4896043837070465 -0.284030944108963
-0.18331851065158844 -0.5927972197532654 1.131626009941101
-2.0108628273010254 -0.4364965856075287 -0.20135058462619781
1.7853803634643555 -0.5569241046905518 0.20475000143051147
1.009592056274414 -0.5689756274223328 0.6269515156745911
-1.4164155721664429 -0.5786331295967102 0.010223285295069218
1.2328448295593262 0.7259488701820374 0.31853699684143066
-0.6171725392341614 0.27480554580688477 -1.1856070756912231
1.8107478618621826 -0.6392752528190613 0.7965041995048523
1.405167818069458 0.5893590450286865 0.7359256744384766
-0.398965060710907 -0.5707693696022034 -0.7641405463218689
1.520871639251709 0.013827681541442871 -1.2222217321395874
2.229705333709717 0.3743571639060974 1.0258749723434448
1.8220443725585938 -0.19438436627388 -0.9665224552154541
-0.608284592628479 1.1472166776657104 0.030627010390162468
-0.30569952726364136 -0.501613974571228 1.1745017766952515
2.1998331546783447 -0.5653936862945557 -0.6381608843803406
0.779958963394165 0.15008194744586945 1.2030829191207886
-2.687516927719116 0.16827446222305298 0.45382532477378845
0.26145219802856445 0.006897255778312683 -1.2151072025299072
2.8657798767089844 -0.6852796077728271 -0.8396588563919067
2.5719268321990967 -0.5631396174430847 -0.23203538358211517
0.12190601974725723 0.6464829444885254 -1.009737253189087
1.409828782081604 0.6323050260543823 0.19564102590084076
-0.20418451726436615 -0.42042234539985657 1.181899070739746
-0.21381162106990814 1.1106716394424438 0.4747638404369354
0.5332093238830566 -0.5695726275444031 -0.5675107836723328
0.14206689596176147 -0.5764333009719849 0.6287878155708313
2.2650601863861084 0.4268888831138611 -0.9072503447532654
-1.9250564575195312 0.3588266372680664 1.1544891595840454
2.213808059692383 -0.16462871432304382 1.0070066452026367
-2.7206127643585205 -0.4920596480369568 0.2021191269159317
-0.6009283661842346 -0.3982982933521271 -1.1547480821609497
1.1882346868515015 0.75065016746521 -0.030431672930717468
2.9339637756347656 -0.5657914280891418 1.0235849618911743
-0.15697337687015533 -0.14345388114452362 -1.1906923055648804
-2.196866273880005 -0.5826978087425232 -0.576543927192688
-1.6431810855865479 -0.33756351470947266 -0.24264530837535858
-0.7642271518707275 1.1188292503356934 0.358282208442688
0.868298351764679 0.5871288180351257 -1.2082997560501099
2.4817261695861816 -0.13408532738685608 -0.9073431491851807
0.10812041163444519 -0.574449896812439 -0.5919926166534424
-1.2439576387405396 -0.5724215507507324 -0.646943986415863
1.9041434526443481 0.5219411253929138 0.632603645324707
1.3057162761688232 -0.6098883748054504 1.0218979120254517
-1.1860014200210571 0.3171956539154053 1.167075276374817
-2.3227035999298096 0.847658097743988 -0.44259944558143616
-1.6822335720062256 1.0734264850616455 -0.3389967381954193
1.3791580200195312 -0.3835163116455078 -1.0881965160369873
3.1392710208892822 -0.5068800449371338 0.29495853185653687
-1.6778815984725952 -0.0014969855546951294 1.1791999340057373
3.1064131259918213 -0.3750988245010376 -0.6654655933380127
1.497286319732666 0.5699942111968994 0.5662308931350708
-1.0555474758148193 -0.5619511604309082 0.7104779481887817
2.5364022254943848 0.3391997218132019 0.9314027428627014
0.8591622710227966 0.8007246851921082 0.8787944316864014
-1.4289915561676025 -0.4179699420928955 -1.0796324014663696
-0.354007750749588 0.8875080347061157 0.9249671101570129
-1.5791282653808594 0.6849910616874695 1.0325416326522827
-0.16793817281723022 1.1156134605407715 -0.15025562047958374
-2.375349998474121 0.0392225980758667 0.3902811110019684
-0.28314146399497986 -0.4194202721118927 1.1947495937347412
-1.0931824445724487 0.046612292528152466 -1.1965748071670532
-2.051934242248535 0.9876199960708618 0.574471116065979
-0.4756147563457489 0.8984047770500183 0.9097951650619507
-0.10918624699115753 1.0963330268859863 -0.49155154824256897
0.5715633034706116 0.9169015288352966 -0.7258817553520203
1.3738973140716553 0.6027414202690125 0.7551797032356262
2.475353956222534 0.40791311860084534 0.47685885429382324
-1.4030612707138062 0.7323125004768372 1.018423318862915
1.203775405883789 0.06155093014240265 -1.2445696592330933
-2.3994202613830566 -0.03121902048587799 -0.905975878238678
0.4736672043800354 -0.595745325088501 -0.9916608929634094
2.272411346435547 -0.5696550011634827 -0.5046862959861755
-2.2377443313598633 -0.239341601729393 0.4539293944835663
-1.307044267654419 -0.6858018636703491 1.1003719568252563
1.5140331983566284 0.5970245003700256 -0.13265922665596008
-0.3928871154785156 1.1089832782745361 -0.4085202217102051
1.5189182758331299 -0.7653793096542358 -0.8151927590370178
1.814670443534851 -0.10926491022109985 1.110657811164856
-0.7381051778793335 -0.5702563524246216 0.9561097621917725
1.7346967458724976 -0.32993006706237793 -0.8330422043800354
1.6192514896392822 -0.5657323002815247 0.0827939361333847
-0.18496853113174438 0.08398578315973282 -1.2014224529266357
-2.362433910369873 -0.11240758001804352 -1.1899617910385132
-2.086366891860962 0.15622109174728394 -1.216492772102356
-1.282391905784607 1.100010633468628 0.5321582555770874
1.0177044868469238 0.8315529227256775 0.3579855263233185
0.6926435232162476 0.4085747003555298 1.2813175916671753
0.3424938917160034 1.0692113637924194 0.06308028846979141
3.1085431575775146 -0.38927626609802246 -0.19940704107284546
0.728262186050415 -0.6138136982917786 0.9214317798614502
1.0120311975479126 -0.392092227935791 1.1590913534164429
-1.5951881408691406 0.25652015209198 0.7496960163116455
2.1912002563476562 0.06410215049982071 -1.2288854122161865
0.2980903089046478 1.0289384126663208 -0.7277743220329285
3.0485172271728516 -0.12166336178779602 -0.8776054382324219
-2.7337653636932373 -0.22536645829677582 -1.0070329904556274
2.5292224884033203 -0.5631207227706909 -0.1332295686006546
-2.410367488861084 -0.12667442858219147 0.4105231463909149
-1.6457440853118896 -0.5617202520370483 0.3625449240207672
-0.7247099280357361 -0.5704338550567627 -0.3340601623058319
0.3579678535461426 0.4245946407318115 -1.1391253471374512
-0.826285719871521 0.595405638217926 1.0767531394958496
-2.72567081451416 -0.2387351244688034 0.7156997919082642
1.2284938097000122 -0.5701649188995361 0.05911410599946976
1.3305522203445435 -0.6652197241783142 -0.9049971699714661
1.6611225605010986 0.5739021301269531 -0.5386935472488403
1.981846809387207 0.5085999369621277 0.7099745273590088
0.4159030318260193 1.0150963068008423 -0.5640090703964233
-1.1843149662017822 -0.42790985107421875 -0.6652141809463501
-0.40006959438323975 -0.5701321363449097 0.32850489020347595
2.131746530532837 -0.5696854591369629 0.2766967713832855
3.09623384475708 -0.28739845752716064 -0.7591655254364014
2.0387046337127686 -0.01997235417366028 -0.8589873909950256
2.098402738571167 -0.5208973288536072 1.167590856552124
-0.9514285326004028 0.2347814440727234 -1.1832340955734253
-0.9180210828781128 -0.5044728517532349 -0.246679425239563
2.4436967372894287 -0.22583366930484772 1.1705964803695679
2.3700754642486572 -0.18442797660827637 -0.919702410697937
2.4987664222717285 0.41583073139190674 -0.0009935813723132014
-0.635809063911438 0.48378562927246094 1.1234906911849976
2.065340280532837 -0.22914005815982819 -0.8841993808746338
2.642453670501709 -0.5641664862632751 0.6389893889427185
-0.6866424679756165 1.017813801765442 -0.7936434149742126
0.6919816136360168 0.8045863509178162 0.9443201422691345
-2.2744975090026855 -0.17703352868556976 -0.02507876418530941
-1.1742136478424072 0.6438243389129639 -1.0343648195266724
-0.4212844967842102 -0.5828211307525635 0.8820173144340515
3.0086028575897217 0.20602121949195862 -0.3757636547088623
-2.0171003341674805 -0.2953350841999054 -0.295841246843338
3.1108641624450684 -0.2926490306854248 0.6492700576782227
1.5176525115966797 -0.070535808801651 -1.198483943939209
-1.360718011856079 -0.5787440538406372 -0.13129150867462158
2.06797456741333 -0.19312439858913422 -1.1759374141693115
-1.7955074310302734 -0.22830989956855774 -0.04961901530623436
-1.746013879776001 1.0731220245361328 -0.20347902178764343
0.5420210957527161 -0.5746606588363647 -0.002755656372755766
3.143723487854004 -0.40180230140686035 0.14486373960971832
2.6856353282928467 -0.5729519128799438 0.7767717838287354
0.4944476783275604 1.0007820129394531 0.38751891255378723
-1.4216055870056152 1.0560362339019775 -0.7607163786888123
1.6856964826583862 0.3817233443260193 1.137894630432129
2.677834987640381 0.34066301584243774 0.38053977489471436
0.1785544604063034 1.0989049673080444 -0.19494695961475372
-2.271822452545166 -0.2661144733428955 1.1475088596343994
-2.428704261779785 0.030652940273284912 0.1633143573999405
1.3467435836791992 0.3406667709350586 -1.1367002725601196
-2.412496566772461 0.26867902278900146 0.16918767988681793
0.9862678647041321 -0.6980316638946533 -0.9824615716934204
-2.099478244781494 -0.5877026915550232 0.46960753202438354
0.7609723210334778 -0.5648440718650818 -0.1443798691034317
-2.239760637283325 0.28235816955566406 0.22429002821445465
0.6636059284210205 -0.5844917893409729 -1.0700592994689941
1.5437872409820557 -0.3181498050689697 -1.0406968593597412
-1.9534032344818115 0.5039914846420288 -1.0858056545257568
-2.293358564376831 0.16254056990146637 -0.6729225516319275
0.05212149769067764 1.1140503883361816 0.13153111934661865
0.3938903212547302 1.064402461051941 -0.10069510340690613
0.5136955976486206 -0.5763973593711853 0.6921952366828918
1.1088969707489014 -0.6489324569702148 -0.9279302358627319
-1.7042436599731445 0.22954422235488892 1.2240692377090454
-0.37370872497558594 -0.5552321672439575 -0.3055739104747772
2.130021333694458 -0.26215818524360657 -0.7773470878601074
-1.6905295848846436 -0.04893916845321655 -1.178635597229004
-1.352003812789917 -0.6365164518356323 -0.8681735992431641
2.0993661880493164 -0.5397544503211975 -0.8134167194366455
1.6748143434524536 -0.5561332106590271 0.5691383481025696
2.5263543128967285 -0.2683190703392029 1.179456114768982
2.400836229324341 -0.614525318145752 1.1798338890075684
-0.6963610649108887 -0.16426926851272583 -1.1698181629180908
0.7889775037765503 0.6567846536636353 1.034055471420288
-0.10630374401807785 -0.28302913904190063 -1.1760503053665161
1.448367953300476 -0.6775634288787842 -0.937732458114624
-1.212722897529602 0.17331285774707794 1.3331894874572754
-0.7536603808403015 0.043836548924446106 1.1992284059524536
-1.932154655456543 0.476717084646225 -1.093877911567688
-1.5593012571334839 -0.6555259823799133 -0.8411743640899658
-0.583967387676239 -0.3180960416793823 1.1731173992156982
-2.484600305557251 0.6133520603179932 -0.907122790813446
-0.030498676002025604 -0.5659546852111816 -0.40104010701179504
-1.1711424589157104 -0.5816808938980103 0.2523779571056366
1.450333833694458 0.5748169422149658 0.6526279449462891
2.2138683795928955 0.4795970916748047 -0.5984174013137817
0.11723335087299347 0.24302417039871216 -1.1978400945663452
2.707874059677124 -0.6231297254562378 -0.9844335913658142
-0.9911187291145325 -0.560007631778717 0.4921664893627167
2.873595952987671 0.2062942385673523 0.7878260016441345
-1.6112229824066162 1.007324457168579 0.8145970106124878
-0.7165771126747131 -0.4535275101661682 1.1882632970809937
1.5905719995498657 -0.38600239157676697 -1.1048357486724854
-0.30872800946235657 0.5893603563308716 1.0649791955947876
2.740452289581299 -0.5561090111732483 0.09100637584924698
-2.7115261554718018 -0.03062783181667328 1.147645354270935
-1.8111634254455566 0.05520186945796013 -0.10337550938129425
-1.8065900802612305 1.0530869960784912 -0.4378547966480255
-1.0062958002090454 -0.500809907913208 0.38958925008773804
-1.0487695932388306 -0.5978575944900513 -0.8676310777664185
2.059088945388794 0.4811064302921295 -0.8443678617477417
-1.0139505863189697 -0.5865062475204468 -0.17336855828762054
2.502913236618042 0.39153778553009033 0.5483919382095337
2.737135410308838 -0.18985648453235626 1.1625665426254272
-1.1527398824691772 -0.3206157684326172 -0.8481937050819397
1.4922529458999634 0.5780186653137207 -0.7231537699699402
-0.8814646601676941 -0.1938006579875946 1.2107548713684082
-0.7463963031768799 1.11106276512146 0.47797325253486633
-1.9833723306655884 0.030771471560001373 0.4657665491104126
2.8227930068969727 -0.5557223558425903 -0.1983933299779892
0.4744589626789093 0.36639297008514404 -1.162555456161499
-1.4683620929718018 -0.6118921041488647 1.1757633686065674
1.4865049123764038 0.37852251529693604 1.1405695676803589
-2.28861403465271 0.47366589307785034 -1.1019470691680908
0.5629043579101562 -0.5837297439575195 0.7431250214576721
-0.46713659167289734 -0.5567709803581238 -1.1405986547470093
1.2473067045211792 0.7048810720443726 0.48140615224838257
2.230769395828247 -0.567603349685669 0.126850426197052
-0.6480569243431091 0.6760088801383972 -1.018309473991394
0.663006603717804 0.4936676025390625 -1.0519790649414062
-2.44722843170166 -0.14818790555000305 -0.17453552782535553
2.9282546043395996 0.1342567652463913 0.9021569490432739
0.38421109318733215 -0.5762664079666138 -0.45561182498931885
-2.28889536857605 0.8639100193977356 -0.6568658947944641
-0.8790616393089294 1.1301453113555908 0.300287127494812
3.1915669441223145 -0.21428586542606354 0.1038922443985939
-0.012378565967082977 1.1082954406738281 0.05713840574026108
-2.6978421211242676 0.19984950125217438 -0.6942608952522278
2.8936538696289062 0.10622217506170273 0.9792194366455078
-2.1968517303466797 0.19507907330989838 -1.1814876794815063
0.003632374107837677 -0.5358929634094238 0.12742915749549866
3.0835561752319336 -0.5688437223434448 -0.5784388780593872
1.9983729124069214 -0.5664878487586975 -0.3245958685874939
-1.4781348705291748 0.17981529235839844 0.8396739363670349
-2.224146604537964 -0.08508160710334778 0.3882342576980591
1.3571808338165283 0.4325031638145447 -1.0648531913757324
-2.7284181118011475 0.10399465262889862 -0.020738160237669945
0.6478782296180725 -0.635612428188324 -0.9526380896568298
-2.70601749420166 -0.4768645763397217 0.47430452704429626
2.9285876750946045 -0.6075637340545654 -0.6737002730369568
-0.6275408864021301 1.100874423980713 -0.5544160604476929
-0.207733154296875 0.04324304312467575 -1.1962873935699463
-1.3150007724761963 -0.682000994682312 1.1244916915893555
-2.1035525798797607 -0.17503990232944489 -0.9172055125236511
-2.117286205291748 -0.2977801263332367 -0.08867216855287552
-0.8988955020904541 -0.37689685821533203 -0.7046186923980713
0.7219159007072449 0.6650787591934204 1.0250738859176636
0.4232838749885559 -0.5697161555290222 -1.0962570905685425
-0.30276188254356384 -0.5960618257522583 0.8622637391090393
-1.940608263015747 0.38873547315597534 0.7032132744789124
3.09849214553833 -0.40364038944244385 0.8542879819869995
2.202083110809326 -0.6353774070739746 0.541462242603302
-1.7584683895111084 -0.5269728302955627 0.8929527997970581
-2.735334634780884 0.07675708085298538 0.22457355260849
1.6741154193878174 -0.5398419499397278 0.16168317198753357
-1.3292778730392456 -0.17700618505477905 -0.9983316659927368
2.2013137340545654 -0.21617305278778076 -0.7990397810935974
2.4143075942993164 -0.5490978360176086 1.162463903427124
3.0607118606567383 0.12515752017498016 0.09277414530515671
0.07809733599424362 0.9853455424308777 -0.8190293908119202
-0.9354833364486694 1.097843050956726 -0.5716676115989685
-2.7330455780029297 -0.3170977830886841 0.2068946361541748
2.357527017593384 0.4603349566459656 -0.11910255253314972
-1.8602739572525024 -0.6073489189147949 -1.1331415176391602
-1.3325001001358032 0.767289936542511 -0.9748921990394592
2.076700448989868 -0.442867249250412 0.8077629208564758
2.3075757026672363 -0.5718130469322205 -1.0457737445831299
0.1849682331085205 0.9975643754005432 -0.784938633441925
-2.0947482585906982 0.005446270108222961 -0.9758678674697876
-2.597221851348877 0.4032238721847534 -0.4719865024089813
-0.680003821849823 0.011861518025398254 1.1835463047027588
-1.533599615097046 -0.7424709796905518 1.1900056600570679
-2.127657651901245 0.5638152956962585 -1.0437699556350708
-1.9915039539337158 0.09913695603609085 -0.7079364657402039
-0.8255301713943481 -0.4675418436527252 -0.3311474621295929
-0.27567481994628906 1.1300393342971802 0.07006155699491501
-1.28275465965271 -0.45187169313430786 0.6958787441253662
0.6492068767547607 -0.5836864113807678 -0.6679306626319885
-1.8944569826126099 -0.2698732912540436 0.7213537096977234
-2.457646369934082 -0.279965877532959 0.05000115931034088
1.8104538917541504 0.2683067321777344 -1.1477923393249512
1.1317980289459229 -0.5120558738708496 1.1323812007904053
-1.2039166688919067 1.1068572998046875 -0.4592162072658539
3.0999770164489746 -0.20529520511627197 0.738651692867279
1.0149462223052979 0.6413012742996216 -1.041303038597107
-2.7231152057647705 0.04765551537275314 0.968234658241272
2.571108102798462 0.37057143449783325 -0.5831138491630554
0.5282514691352844 -0.5319197177886963 1.135421872138977
-2.685494899749756 0.2628018856048584 -0.13491737842559814
-1.960198998451233 0.0394572913646698 -1.2041231393814087
-0.5728962421417236 -0.5414569973945618 -0.6143863201141357
-2.552943229675293 0.56632399559021 -0.1168145015835762
-1.9448133707046509 -0.5702323913574219 -0.14450369775295258
3.128951072692871 -0.38698849081993103 0.019903987646102905
1.2805628776550293 0.7135616540908813 -0.12254077196121216
-2.0413098335266113 -0.2758755087852478 1.1668983697891235
-2.408569812774658 -0.19172972440719604 0.2629270553588867
-1.8598814010620117 -0.5714279413223267 0.6267451643943787
1.434206485748291 0.6280367374420166 0.14875757694244385
-0.18689614534378052 -0.008809834718704224 -1.2026784420013428
-0.957423746585846 -0.027422010898590088 1.2271792888641357
-2.568936347961426 0.020058080554008484 -1.1581707000732422
-1.8471823930740356 -0.6225584149360657 -1.1293025016784668
-2.3908538818359375 -0.4206845462322235 -1.1683398485183716
-0.11663894355297089 0.2736413776874542 -1.1916487216949463
1.2685805559158325 0.7070483565330505 -0.36779409646987915
-0.6039036512374878 0.6166549921035767 -1.048967719078064
0.028734643012285233 -0.5895928144454956 -0.9452510476112366
-2.737248182296753 -0.21616514027118683 0.743601381778717
1.6461237668991089 -0.637113630771637 1.0692001581192017
-0.9657500982284546 0.0021400898694992065 1.2154544591903687
-2.009187698364258 -0.1293400526046753 -0.8729631304740906
1.7451505661010742 -0.5790626406669617 -1.2007184028625488
-1.8379758596420288 -0.5649306774139404 0.0598759725689888
-1.9221677780151367 0.8274843692779541 -0.92238450050354
-1.3397594690322876 -0.49456003308296204 0.5527452826499939
-1.8831244707107544 0.08344326913356781 0.5875163674354553
-0.5870606899261475 0.64284348487854 1.0424765348434448
-2.7078802585601807 -0.4934957027435303 0.7597818374633789
-0.3788922131061554 1.1260242462158203 0.022437438368797302
-0.3512706756591797 1.1170355081558228 0.5027998089790344
-0.17063848674297333 0.3932225704193115 1.1426390409469604
-2.3187859058380127 -0.18674954771995544 -0.49881869554519653
-2.305379867553711 0.8797377943992615 -0.10781066864728928
1.8767213821411133 -0.5717630386352539 -0.8407102227210999
-2.245281219482422 -0.33699607849121094 -0.642462968826294
1.8164118528366089 0.5601625442504883 -0.32882559299468994
-2.6292476654052734 0.21172389388084412 0.9009475111961365
2.118479013442993 -0.5560195446014404 -0.6082543134689331
1.1744179725646973 -0.1454944759607315 -1.1849039793014526
-0.8032060265541077 0.5753904581069946 1.073670506477356
0.23390766978263855 -0.5778573155403137 -0.8394625186920166
1.791441798210144 0.251002699136734 -1.1735085248947144
0.38043051958084106 -0.3170818090438843 1.1778550148010254
2.237483501434326 0.4653666019439697 0.4547153413295746
-0.1620834767818451 -0.0776139497756958 -1.199151635169983
-0.5273222327232361 -0.5075294375419617 -1.1479179859161377
1.6810672283172607 0.5479025840759277 0.4625399112701416
-2.7203972339630127 -0.4099521040916443 0.5439622402191162
2.6075096130371094 0.12337430566549301 1.1330424547195435
3.1261038780212402 -0.17196756601333618 -0.6144752502441406
1.2893846035003662 -0.6430404782295227 1.0768691301345825
-1.2145963907241821 -0.5581651329994202 -0.739294171333313
-0.9121026396751404 -0.6018078327178955 -1.1069506406784058
1.2749567031860352 -0.43153297901153564 -1.088694453239441
0.534498929977417 -0.5759519338607788 0.742874801158905
0.5868081450462341 0.3993978500366211 1.1566522121429443
3.2160027027130127 -0.06525032222270966 0.16018646955490112
-2.58415150642395 -0.6341726779937744 -0.5360101461410522
2.5607497692108154 -0.5638254284858704 -0.2662077248096466
2.1159310340881348 0.4897981584072113 -0.6900648474693298
-0.2127503752708435 -0.5890932679176331 -0.9182528257369995
2.467491865158081 -0.02963876724243164 -0.8360769152641296
-1.4271575212478638 -0.6085489988327026 1.2009707689285278
1.3438928127288818 -0.4376462697982788 1.148146152496338
0.7716929316520691 0.5628182888031006 1.0811339616775513
-1.8227723836898804 -0.019503101706504822 -0.22039884328842163
0.2893241345882416 1.0711511373519897 0.30850329995155334
1.4983686208724976 -0.6570165753364563 -0.9291384220123291
3.1219422817230225 -0.11659331619739532 0.12416152656078339
-2.3798389434814453 0.6762977242469788 -0.9733678698539734
0.05901971831917763 -0.5786092281341553 -0.7354293465614319
0.7189823985099792 -0.5726128816604614 -0.6041838526725769
-0.21965253353118896 0.5492887496948242 -1.085789680480957
2.698399066925049 -0.16859745979309082 -1.1762586832046509
-2.728999614715576 -0.16063614189624786 0.4581887423992157
-0.26387181878089905 0.3107989728450775 -1.184456467628479
-0.31738734245300293 0.6490529179573059 1.0357438325881958
-2.0936100482940674 -0.04805494844913483 0.22289906442165375
1.629367709159851 -0.5660962462425232 -0.9477453827857971
-0.6960736513137817 0.12430775165557861 1.1891409158706665
2.511894464492798 -0.40447211265563965 -1.1534106731414795
1.8925323486328125 -0.03753924369812012 -1.2004094123840332
-1.2083412408828735 0.7472827434539795 -0.9812699556350708
-0.9539410471916199 -0.4061432480812073 -0.5039985179901123
-2.63568115234375 -0.6289948225021362 -1.035354495048523
2.740182876586914 -0.6140203475952148 -0.7147656679153442
-2.593344211578369 -0.5267359018325806 0.18354734778404236
0.8416116237640381 -0.0642058253288269 1.1902170181274414
0.07644020020961761 -0.5207581520080566 -0.3118307590484619
1.438254475593567 0.6370283365249634 -0.3306385576725006
-2.6846423149108887 -0.5777965784072876 1.1861134767532349
-0.6594412922859192 -0.5547657012939453 -0.31270092725753784
2.914745807647705 -0.5740220546722412 0.5797626972198486
1.3063092231750488 -0.6118688583374023 -0.8603733777999878
-1.9134501218795776 -0.6063409447669983 0.941603422164917
-1.9373526573181152 -0.5915576219558716 -0.9140899181365967
-0.5717438459396362 -0.23639655113220215 1.1095863580703735
0.03712686896324158 -0.41561514139175415 -1.1566474437713623
2.529050588607788 0.3707667291164398 -0.8060842752456665
0.20571871101856232 0.9146894216537476 0.8993151187896729
0.3410816490650177 1.027565598487854 -0.6981307864189148
-0.16264784336090088 -0.5948473811149597 0.825119137763977
-2.237826108932495 0.909510612487793 -0.07567475736141205
-2.206739664077759 -0.36581552028656006 0.29400405287742615
-1.6584553718566895 0.5397867560386658 -1.0689938068389893
1.2434906959533691 0.72501140832901 0.34190958738327026
2.6719932556152344 0.3506816327571869 0.1550750434398651
-2.437371253967285 0.10484153777360916 -0.04107584059238434
2.243863821029663 -0.25977060198783875 -0.8097566366195679
0.9668655395507812 -0.6327720880508423 -0.8937106132507324
-1.4584708213806152 1.0903286933898926 0.5526971817016602
0.7578436732292175 0.40325987339019775 1.1540040969848633
-2.359877824783325 -0.043588101863861084 -0.5562099814414978
2.7867441177368164 0.2737123966217041 -0.6207926273345947
-2.413715124130249 0.7677832841873169 0.7255755066871643
-2.458019971847534 -0.26517564058303833 0.057150136679410934
2.639885663986206 -0.6636565923690796 1.0654181241989136
-0.24026727676391602 1.114882230758667 -0.21256335079669952
-1.4830573797225952 -0.4056934118270874 1.1846513748168945
-0.2764747738838196 -0.5908188819885254 0.9123286604881287
0.8158984184265137 0.4265440106391907 1.1425920724868774
-2.440619945526123 -0.23948828876018524 -0.38929975032806396
2.514810800552368 -0.5324680805206299 0.6654833555221558
1.9734357595443726 -0.5500824451446533 -0.5348477363586426
-1.333824872970581 0.6423938870429993 -1.0257482528686523
-2.0555272102355957 -0.5603382587432861 1.1702728271484375
-2.3399319648742676 -0.6161945462226868 0.22101764380931854
-0.9912686347961426 0.9322525262832642 0.9198380708694458
0.22301322221755981 -0.2316187620162964 1.184234619140625
-1.6291266679763794 0.2287699282169342 -1.183420181274414
-1.263116478919983 -0.6176851987838745 -1.088147759437561
-2.4997823238372803 0.686743974685669 0.727054238319397
-2.3280189037323 -0.14012981951236725 -0.5351893305778503
-1.1509796380996704 1.1165999174118042 0.19932503998279572
-2.2572360038757324 -0.5633020997047424 -0.8249170780181885
1.1451152563095093 0.2640863358974457 1.1669378280639648
0.4593944251537323 -0.578732967376709 -0.6963294744491577
-1.84865140914917 -0.3033081889152527 0.8171286582946777
-1.2865829467773438 0.4058191478252411 -1.1740696430206299
-2.367673873901367 0.06926383078098297 -0.8802980184555054
1.4998313188552856 0.49052780866622925 -0.9879599809646606
-0.4469124674797058 0.06995531171560287 -1.2051371335983276
-0.9042452573776245 -0.5033382177352905 -0.15936312079429626
-0.250588595867157 -0.5707156658172607 0.23758135735988617
0.5282220840454102 1.0301239490509033 -0.2877710163593292
-1.331190824508667 -0.5012621879577637 0.6824260950088501
2.095956563949585 0.21256685256958008 1.191185474395752
0.7548521161079407 0.948508620262146 -0.0029259412549436092
-0.9207139015197754 1.0770666599273682 -0.7622965574264526
-2.097372531890869 -0.39302730560302734 1.1507468223571777
1.606309413909912 -0.5634101629257202 0.4210076928138733
1.4515459537506104 -0.20652689039707184 -1.1894620656967163
-1.636947512626648 1.04900062084198 -0.7219787836074829
1.1357451677322388 0.730229377746582 0.6693313717842102
1.43557608127594 -0.3985445499420166 -1.076317548751831
-1.8459137678146362 0.34816524386405945 -1.1476867198944092
0.6735721230506897 0.2981225252151489 1.2565418481826782
2.7621233463287354 0.30711033940315247 0.305584579706192
2.6303551197052 -0.2305571287870407 1.1753708124160767
0.3218945264816284 0.4628434181213379 -1.1059181690216064
-0.9171867370605469 0.813852071762085 0.9716912508010864
-0.30456477403640747 1.0977823734283447 -0.6438549757003784
0.5287303924560547 0.7329862117767334 -0.9462692141532898
-1.8978955745697021 -0.23364603519439697 -0.44471946358680725
-0.9992954730987549 -0.5951129794120789 -1.0557993650436401
-2.1094353199005127 0.15435488522052765 0.24687696993350983
2.2074391841888428 -0.3144705295562744 1.1007375717163086
-1.2832621335983276 -0.09894733130931854 1.201023817062378
2.3648860454559326 0.37672629952430725 0.9329721331596375
-0.6240779757499695 1.1076252460479736 0.5187274813652039
3.1555964946746826 -0.3350505828857422 -0.2709396183490753
-1.7730698585510254 0.6021130681037903 -1.0293257236480713
-1.7670015096664429 -0.5429285764694214 0.10900697857141495
1.7212355136871338 -0.2998310327529907 -0.8419659733772278
2.363100528717041 -0.27758485078811646 -1.1721076965332031
-2.498086452484131 -0.258396178483963 0.2521001398563385
-1.5425009727478027 -0.29192838072776794 -0.35784298181533813
-1.9878544807434082 -0.23555755615234375 -0.17915497720241547
-0.2908910810947418 -0.5838639736175537 -1.019605040550232
-0.9363648295402527 1.1230502128601074 -0.016243137419223785
-2.4154958724975586 -0.22824563086032867 0.6461538076400757
2.983945846557617 -0.6257838010787964 0.13175807893276215
-2.3420698642730713 0.002161547541618347 0.7557835578918457
3.137364149093628 -0.020298033952713013 0.6796743869781494
-2.6622965335845947 0.1588764488697052 -0.9452268481254578
3.1584622859954834 -0.28125277161598206 -0.7894405126571655
-0.29609477519989014 0.6594731211662292 1.0306267738342285
-2.7399137020111084 -0.12694679200649261 0.7789598703384399
2.8779428005218506 -0.46799755096435547 1.103920817375183
0.04275314509868622 -0.6225234866142273 -0.9808908104896545
1.4114888906478882 -0.5617652535438538 0.5720769166946411
1.8466520309448242 -0.3139764666557312 -0.8541409969329834
-1.9454295635223389 -0.16035161912441254 1.160134196281433
2.615488052368164 -0.5601640343666077 0.499583899974823
-2.422743082046509 -0.6393237709999084 0.06380757689476013
-1.207444667816162 0.2367953360080719 -1.200332522392273
-1.9514975547790527 0.036674775183200836 0.09248463064432144
-1.5770478248596191 1.047107458114624 0.7806975245475769
-2.712022304534912 -0.39617544412612915 -0.7023726105690002
0.644111156463623 -0.5747836828231812 0.6922631859779358
-2.2262418270111084 0.9009205102920532 -0.5264440178871155
1.4414647817611694 -0.6474274396896362 -0.8425469994544983
1.241917610168457 0.28531283140182495 -1.178764820098877
-2.708770275115967 -0.3326765298843384 1.0441431999206543
-1.0452402830123901 -0.503084659576416 0.5499223470687866
1.0867512226104736 -0.5539553165435791 -0.2324284166097641
0.9740835428237915 -0.5714287757873535 -0.8725649118423462
-0.7444164156913757 -0.5513061285018921 1.0149005651474
-1.0362777709960938 0.21782104671001434 1.2386921644210815
-2.61629056930542 0.27517345547676086 0.7402563691139221
-2.0929555892944336 0.8465144634246826 0.9066901206970215
-0.9199746251106262 -0.570786714553833 0.2981046438217163
2.814561128616333 0.2882280647754669 -0.05200822651386261
-1.9077738523483276 0.09711479395627975 -0.5299767851829529
-2.0206470489501953 0.3729819059371948 0.7693333029747009
-2.656550884246826 0.2825460731983185 -0.6325188279151917
-2.4669151306152344 -0.28265172243118286 0.1998799741268158
-2.3592464923858643 -0.6125267148017883 -0.2635088860988617
-1.3812261819839478 0.7464521527290344 1.0111846923828125
-2.617766857147217 0.29970240592956543 0.7024183869361877
-2.6506168842315674 0.26696354150772095 -0.690354585647583
0.5193638205528259 0.43300923705101013 -1.1149213314056396
0.24596892297267914 -0.5655727982521057 -0.20015043020248413
-2.6361024379730225 0.27089643478393555 -1.0451810359954834
-1.364363431930542 0.5886059403419495 -1.051642894744873
-1.658278226852417 -0.28147000074386597 0.8020641207695007
-2.7079758644104004 -0.03402566909790039 1.1383638381958008
1.927071452140808 -0.534626305103302 -0.9210905432701111
2.3047633171081543 -0.1524357944726944 -0.8488366603851318
-1.859968900680542 0.1749875843524933 1.1878843307495117
-2.250648260116577 0.11049360781908035 -0.9475529789924622
2.6507506370544434 -0.5692002177238464 -0.1591557413339615
2.513388156890869 -0.2864381670951843 -1.1568156480789185
2.0480597019195557 0.511375367641449 0.1857362687587738
2.5544283390045166 -0.6373651027679443 -1.0347157716751099
-2.288353681564331 -0.5781854391098022 -0.03716069087386131
-0.0388391949236393 0.4260476231575012 1.136549711227417
-1.0843031406402588 0.5187127590179443 -1.112065315246582
-0.3579942584037781 0.7204787731170654 -0.9970096945762634
-2.2943942546844482 0.8745031356811523 0.4876961410045624
-2.5654027462005615 -0.6037635207176208 0.7135589718818665
0.49907243251800537 0.19066894054412842 1.1742660999298096
-1.6339986324310303 0.14579543471336365 -1.2027851343154907
-1.4443427324295044 -0.5636035799980164 -0.6995805501937866
-1.8993613719940186 -0.6964046955108643 -1.0236279964447021
1.0168349742889404 0.6440298557281494 -1.1526554822921753
3.067746877670288 -0.5675079822540283 0.5934745669364929
0.39381343126296997 0.9199236035346985 -0.8329247236251831
-1.3306341171264648 -0.12110607326030731 1.1867843866348267
-1.028475284576416 1.1232452392578125 0.15777918696403503
0.954625129699707 -0.6236801147460938 1.0682954788208008
2.279358148574829 -0.35603925585746765 -0.7657288312911987
1.8883649110794067 -0.678127646446228 1.1453185081481934
-1.8632012605667114 -0.4008113145828247 0.6712672710418701
2.4833145141601562 0.38688385486602783 0.6301124095916748
2.297236680984497 0.4427292048931122 0.6044420599937439
1.7701750993728638 -0.7271459102630615 0.9026232361793518
-2.2045702934265137 0.8170718550682068 -0.9071916937828064
1.3215516805648804 -0.5875076055526733 0.8252178430557251
2.4861862659454346 0.409392774105072 0.5323443412780762
2.4081029891967773 0.3997163772583008 0.7847665548324585
-2.437849521636963 0.04114273935556412 0.10461537539958954
-2.743790626525879 -0.11030131578445435 0.14997804164886475
-0.5241300463676453 1.014233946800232 0.8474389910697937
-2.5456511974334717 -0.3266889452934265 -1.1539963483810425
-1.306264877319336 1.080342411994934 -0.7269694209098816
-2.3371496200561523 0.8306547999382019 -0.716326892375946
0.5318417549133301 -0.5720930099487305 -0.28814697265625
-1.357616901397705 1.119219422340393 0.01445845142006874
-1.2683219909667969 0.8736125230789185 -0.918364942073822
0.7938992977142334 0.486454576253891 1.1406983137130737
0.8050967454910278 0.6289886236190796 1.2677891254425049
-2.629434108734131 -0.6322693824768066 -0.8876085877418518
1.9506614208221436 -0.11716651916503906 -0.8616933822631836
0.9788087010383606 0.8508795499801636 0.3020592927932739
-0.039944857358932495 0.927937388420105 0.8973231911659241
-2.454592704772949 -0.2008267194032669 -0.4973143935203552
-2.0763416290283203 0.6388149261474609 -1.0036202669143677
-1.0268316268920898 -0.0010510236024856567 1.2057853937149048
0.3001345098018646 0.48554879426956177 -1.0970107316970825
-1.5298659801483154 1.076638102531433 -0.6230121850967407
2.2315165996551514 0.46854060888290405 -0.6016898155212402
-2.567894697189331 0.4732523560523987 0.9845942854881287
-2.0497913360595703 0.7632485628128052 -0.9443777203559875
1.0875606536865234 0.8068361282348633 -0.030205877497792244
-2.5832018852233887 0.3169107437133789 0.9791463613510132
-2.352881669998169 0.8258805274963379 -0.32371094822883606
-0.6985642313957214 -0.56625896692276 0.7932227253913879
-0.49639892578125 1.0657403469085693 0.7906801700592041
-1.3624902963638306 1.0873377323150635 -0.6400940418243408
0.968255877494812 -0.586439847946167 -0.2551201283931732
-2.4374561309814453 -0.7288838624954224 -0.8782892823219299
-2.048297643661499 -0.5927749872207642 0.49177512526512146
0.22151950001716614 -0.5726755857467651 -0.3763558268547058
2.750157594680786 -0.6175892949104309 -0.9583339691162109
2.1171326637268066 0.5190081596374512 -0.1486821472644806
1.8065948486328125 -0.7004755735397339 0.8559520244598389
2.5679728984832764 -0.5873938202857971 1.1640721559524536
2.6763241291046143 0.280729740858078 0.9387745261192322
0.6677433252334595 -0.5736146569252014 0.6200187802314758
0.14873477816581726 -0.5538967847824097 -0.11753074824810028
-0.6866527199745178 0.9762036204338074 0.8832187652587891
0.9406754374504089 0.869365930557251 -0.006266048178076744
-2.236699104309082 -0.7367777228355408 -1.0969297885894775
-1.1402537822723389 0.5945175886154175 -1.0578898191452026
1.675731897354126 -0.3715026378631592 1.2035154104232788
-0.45033031702041626 1.1255825757980347 0.1088346615433693
0.4150274693965912 0.16365328431129456 -1.1901559829711914
3.067852735519409 -0.45501458644866943 -0.8123266100883484
2.4472224712371826 -0.5712462067604065 -0.33299362659454346
0.4076332151889801 1.0737004280090332 -0.12469697743654251
-2.7109363079071045 -0.4630807042121887 0.29969319701194763
2.453775405883789 0.4081112742424011 0.6210263967514038
0.617563784122467 0.27579033374786377 1.293992280960083
-1.136115312576294 -0.4644164443016052 -0.6836543679237366
-1.338779091835022 -0.5275871753692627 -1.0744318962097168
-2.6435067653656006 -0.6215387582778931 -0.7021758556365967
-0.5383293628692627 -0.0710458755493164 1.1685311794281006
-1.992202877998352 0.989395022392273 -0.5081373453140259
1.8237056732177734 0.5554171800613403 0.4521196782588959
2.520360231399536 0.3852148652076721 -0.5237518548965454
-1.9716765880584717 0.09887947142124176 -0.41088470816612244
1.2261698246002197 -0.5702347755432129 -0.08651691675186157
-0.8846574425697327 -0.42419812083244324 -1.113659143447876
0.23262539505958557 -0.5638482570648193 0.5620067119598389
1.4767847061157227 -0.3470677137374878 1.145965814590454
-1.704319715499878 1.0694921016693115 -0.3938506245613098
-2.2721667289733887 -0.2974907159805298 0.16430260241031647
0.9224099516868591 0.35548412799835205 -1.1594010591506958
2.2829535007476807 0.4780791699886322 -0.33066415786743164
-0.7606189846992493 -0.5851441621780396 -0.8286483287811279
0.27558615803718567 1.065818190574646 0.49914589524269104
-0.0495234914124012 0.9058786034584045 -0.8650296330451965
2.2073826789855957 -0.700579822063446 -0.85847008228302
-2.0433249473571777 0.18581749498844147 1.2070136070251465
-1.6856505870819092 -0.5722570419311523 -0.40706777572631836
3.2350707054138184 -0.45081251859664917 0.36285388469696045
-0.49706602096557617 1.1056246757507324 0.6253488659858704
-2.7445380687713623 -0.13624267280101776 0.5865879654884338
-2.338024139404297 0.5483178496360779 -1.0620197057724
-1.7511060237884521 -0.09069593250751495 1.1573694944381714
-2.452888011932373 -0.30568134784698486 -0.09412409365177155
0.9972031116485596 -0.5719954371452332 0.805642306804657
2.0339295864105225 0.5236045122146606 0.360795259475708
0.5681958198547363 -0.5971363186836243 -1.0247421264648438
1.6555629968643188 -0.5101953148841858 -0.7027332186698914
-2.564318895339966 -0.6567122340202332 0.5534895658493042
-0.8089735507965088 -0.5214274525642395 1.0572041273117065
-0.7735699415206909 0.2834112048149109 -1.1819069385528564
1.5841411352157593 -0.466955304145813 -0.7789894938468933
-1.5352461338043213 -0.29115030169487 -0.3423311412334442
-2.7307932376861572 0.07970637083053589 0.6331321001052856
-2.3620738983154297 -0.710322916507721 -0.9465019702911377
0.3430942893028259 -0.08981339633464813 1.1895902156829834
2.266547203063965 -0.4483269155025482 1.1429200172424316
2.263981819152832 0.13724428415298462 1.2168103456497192
0.8913625478744507 0.7791286706924438 -0.8566478490829468
-2.0745043754577637 0.9745009541511536 -0.8053551912307739
3.139371395111084 -0.01912429928779602 -0.34410959482192993
-1.9705101251602173 0.8170267939567566 -0.9244480729103088
0.8298738598823547 -0.08445870876312256 1.1979165077209473
-0.34778475761413574 -0.5811561346054077 -0.816112756729126
-0.5941035151481628 1.1296746730804443 0.22814889252185822
0.6508221626281738 -0.60359126329422 0.9517108201980591
-1.287307858467102 1.1096160411834717 0.5944074988365173
-2.088935375213623 -0.2012602537870407 -0.601899266242981
-2.7452549934387207 -0.42814743518829346 -0.1578591763973236
0.1837422251701355 0.986329972743988 -0.7995793223381042
-1.5713173151016235 -0.3815862536430359 0.051131512969732285
2.3974928855895996 -0.45622509717941284 1.1620683670043945
-1.9633493423461914 0.5579428672790527 -1.0526291131973267
-2.744271993637085 -0.02005307376384735 0.32413920760154724
-0.9580087065696716 -0.5585178136825562 1.1432981491088867
-2.4992144107818604 0.6798486709594727 -0.21956448256969452
2.006103277206421 0.5022419095039368 -0.7276114225387573
-0.858849823474884 0.7591930627822876 0.992553174495697
1.7843343019485474 0.5854259729385376 0.1638774871826172
-2.4935142993927 -0.08314263820648193 -0.3749397397041321
-0.879728376865387 -0.5739524364471436 0.4366891086101532
-1.164220929145813 1.1104736328125 -0.384909987449646
-1.2364953756332397 1.1227017641067505 -0.02459620125591755
2.60396409034729 -0.28969576954841614 1.196519136428833
-1.2801859378814697 0.27552664279937744 1.2031681537628174
0.4992507994174957 1.0084712505340576 -0.493053674697876
2.8231942653656006 -0.5651165246963501 0.5225775241851807
-1.117188811302185 0.5254466533660889 -1.1070044040679932
-0.5623894333839417 0.46635493636131287 1.131651759147644
-2.0232577323913574 -0.6173872351646423 0.32654306292533875
2.0683486461639404 -0.7536939382553101 1.1329554319381714
-0.8220592737197876 1.1292400360107422 0.2607576251029968
-0.3433248698711395 -0.5306601524353027 -0.03839319199323654
-0.36417049169540405 1.0127148628234863 0.8388950824737549
-2.0989763736724854 -0.1825563758611679 -0.7067804336547852
-2.0865299701690674 0.5796388983726501 -1.032963752746582
1.335739254951477 -0.09714987874031067 -1.1874455213546753
0.336738258600235 -0.5594069361686707 0.353982150554657
-2.1316280364990234 0.4837518632411957 1.1154173612594604
-2.085386276245117 -0.32181674242019653 0.5842928290367126
