ply
format ascii 1.0
element vertex 813
property float x
property float y
property float z
end_header
-0.6643303632736206 0.7610107660293579 -0.16905534267425537
-1.1772387027740479 -0.27384912967681885 0.31713998317718506
1.991495132446289 -0.013068616390228271 0.5012896656990051
0.8499767780303955 0.1100873202085495 -1.144640564918518
-1.8370472192764282 -0.511387050151825 1.0612856149673462
-0.3506014347076416 1.046600341796875 0.3391624391078949
-0.39869868755340576 0.739486038684845 -0.8417432308197021
0.9843401908874512 -0.5976749062538147 0.4488721191883087
2.2643096446990967 -0.5943701267242432 0.5275317430496216
0.45960521697998047 0.42719489336013794 -1.0021378993988037
2.0667548179626465 -0.19188737869262695 -0.12823453545570374
-1.1174684762954712 -0.19592192769050598 -0.3199738562107086
-2.3688106536865234 0.7191190123558044 0.15488867461681366
-0.33829331398010254 0.7279391288757324 -0.8955850601196289
-1.041325330734253 -0.3322914242744446 0.7024853825569153
1.772284746170044 0.49524539709091187 -0.7516955733299255
-0.10707243531942368 -0.17486144602298737 -0.5855956673622131
0.7099259495735168 0.04568341374397278 -1.6383538246154785
-1.8634912967681885 -0.5585424900054932 0.25279155373573303
0.19864395260810852 1.0881370306015015 -0.40636998414993286
1.8810516595840454 -0.030718758702278137 -1.3972182273864746
1.0299429893493652 0.2511827349662781 -0.1988828480243683
-2.0161523818969727 0.3226962089538574 -1.8556605577468872
0.12897631525993347 0.42957472801208496 0.7032778263092041
0.7758590579032898 0.7303041815757751 1.2979270219802856
-0.1218094527721405 -0.38165032863616943 -0.11139129847288132
-0.27693986892700195 -0.2514791488647461 -0.616967499256134
2.098031520843506 -0.5682766437530518 -0.05737204849720001
0.6628386974334717 -0.6261225938796997 0.25503435730934143
-0.07797220349311829 -0.339252769947052 0.952575147151947
2.65263032913208 0.3662140965461731 1.2201493978500366
-0.7406077980995178 -0.14374925196170807 -1.7357960939407349
2.2041995525360107 -0.22863784432411194 0.5419866442680359
2.2513327598571777 -0.5890717506408691 0.7693291902542114
-2.1362009048461914 0.4018746316432953 0.5416232347488403
1.816537618637085 0.5543614029884338 0.12524309754371643
-2.3566336631774902 -0.05616821348667145 -1.3364776372909546
-0.14354492723941803 -0.18174877762794495 0.6173005104064941
-1.1473727226257324 -0.07812212407588959 -1.793110966682434
-1.1757028102874756 -0.061175793409347534 1.731972098350525
0.5353965163230896 0.9049667716026306 0.07198886573314667
1.1082628965377808 -0.6187427043914795 -0.850406289100647
-0.4401406943798065 -0.5790541172027588 1.0849863290786743
-0.3798246383666992 0.7039263844490051 -0.05865468084812164
-0.04186518117785454 0.5839976072311401 -0.34315937757492065
1.4919352531433105 0.10597380995750427 0.7906261086463928
-0.0436459481716156 -0.3704448640346527 0.19281581044197083
-0.6060650944709778 -0.09916429221630096 -0.23976176977157593
-2.108049154281616 0.6038109064102173 -0.9257490634918213
-0.9104475975036621 -0.21413612365722656 0.777574896812439
-1.5236561298370361 -0.44871485233306885 -0.6986002326011658
-2.0250871181488037 -0.053089872002601624 -0.7661002278327942
1.594244360923767 0.45836141705513 -0.11073996871709824
1.2841395139694214 -0.11468778550624847 -1.624349594116211
0.9286324977874756 -0.6029462814331055 -0.4322934150695801
-2.0135607719421387 -0.053907498717308044 0.4846462309360504
-0.28168362379074097 -0.3922906816005707 -0.4961126148700714
-1.6426788568496704 0.68062424659729 0.5754501819610596
-0.47735923528671265 -0.5679280161857605 -1.0997059345245361
0.8405053615570068 -0.08771422505378723 -1.1531779766082764
2.533177137374878 -0.41668999195098877 0.7702304124832153
1.9409546852111816 -0.45173507928848267 -0.889309823513031
-0.8629214763641357 0.4173835515975952 -1.29135262966156
-2.0806519985198975 0.2764698266983032 0.4494912922382355
-1.4601714611053467 -0.4358976185321808 -0.7900794744491577
1.883394718170166 0.5736654996871948 -0.20160257816314697
1.4082766771316528 -0.16762515902519226 -0.12023583799600601
1.8076605796813965 -0.005990669131278992 1.4662398099899292
1.135142207145691 -0.011857658624649048 -1.4021997451782227
2.5293266773223877 -0.06130746006965637 -0.49549832940101624
-1.2296826839447021 0.704957127571106 -0.5820553302764893
0.49188676476478577 -0.30714890360832214 -0.8647610545158386
-1.919353723526001 -0.5458399057388306 0.025188179686665535
0.8895259499549866 -0.622570812702179 0.2956557273864746
0.33799487352371216 0.15145298838615417 -0.43623724579811096
-0.5014668107032776 0.6774287223815918 -0.018350323662161827
1.7180498838424683 -0.633568286895752 0.5493425130844116
-0.37604832649230957 0.8186985850334167 0.3711891770362854
-0.6202035546302795 -0.5744102001190186 0.15223835408687592
0.7922508120536804 -0.06645502150058746 0.3157043755054474
2.1594479084014893 0.26026833057403564 -0.1887388974428177
1.9837777614593506 -0.10011573135852814 -0.42537057399749756
-0.9330782890319824 -0.6862778663635254 -1.2299379110336304
-0.9679133892059326 -0.2922033965587616 -1.2803343534469604
-2.2950732707977295 -0.23755648732185364 -1.6281073093414307
1.1600998640060425 0.12597322463989258 1.0906683206558228
1.8190364837646484 -0.5927001237869263 -0.3066435754299164
1.4537774324417114 0.40200498700141907 0.9897233247756958
-1.5520187616348267 -0.2171076387166977 -0.16725851595401764
-0.7182551622390747 -0.4970446825027466 1.4797159433364868
2.100261688232422 -0.622093915939331 -0.7680230140686035
-1.1905646324157715 -0.5671439170837402 1.4523805379867554
0.4858616590499878 -0.5987676978111267 0.2173081338405609
-1.1637909412384033 0.8554750680923462 0.17087134718894958
0.4363991618156433 -0.5926836729049683 0.9485108852386475
-1.0847336053848267 0.7855517268180847 0.34556376934051514
0.8086919188499451 0.1980728954076767 0.16875530779361725
-0.2279946655035019 0.7074073553085327 -0.31900307536125183
-0.150239497423172 -0.6359643936157227 -1.3729572296142578
-0.7852524518966675 0.44083935022354126 1.1998103857040405
3.095188617706299 -0.3599618971347809 -0.14585043489933014
-1.8285722732543945 -0.37747156620025635 -0.6244926452636719
2.112443447113037 0.4653600752353668 -0.5141861438751221
-2.128145694732666 -0.5085844993591309 -0.16296324133872986
-0.9936727285385132 1.0138835906982422 -0.4123188853263855
0.135554701089859 0.870274543762207 0.20737828314304352
1.5586782693862915 0.25739291310310364 0.2650340497493744
-0.3553813397884369 0.1826999932527542 1.1457732915878296
-0.750257670879364 0.10722391307353973 -1.238986849784851
1.7908027172088623 0.30955207347869873 0.1448768973350525
0.6171546578407288 0.17381861805915833 1.0188119411468506
-2.4825472831726074 0.571205735206604 0.4124176800251007
0.38688573241233826 -0.5890069007873535 -0.9913610219955444
1.4588128328323364 -0.6482668519020081 1.1145210266113281
0.7292893528938293 0.09971065819263458 -1.3980258703231812
0.07452191412448883 -0.1412472277879715 -0.804307758808136
-2.029660940170288 -0.4456736445426941 0.350888192653656
-1.77914559841156 -0.5793342590332031 -0.008646275848150253
-1.4542924165725708 0.5568921566009521 0.06054326146841049
0.8745655417442322 0.15390978753566742 -0.2180912047624588
1.6009762287139893 0.2796937823295593 1.440505862236023
0.5881686210632324 0.2447090744972229 -0.03259282931685448
-1.3790806531906128 -0.18311643600463867 1.179664969444275
1.838115930557251 -0.4486672878265381 0.6669929623603821
-0.294827401638031 1.0883769989013672 -0.4773939549922943
-0.6721221208572388 0.6271189451217651 0.71297287940979
-0.6156785488128662 -0.4640687108039856 -0.5974411964416504
-0.5209318995475769 0.6737664937973022 1.2922251224517822
1.4709277153015137 -0.3795669972896576 0.4829140305519104
-2.5711748600006104 -0.3656114935874939 -0.7231901288032532
-1.6671751737594604 0.791732907295227 0.5270208120346069
-1.0194215774536133 -0.08068126440048218 -0.859745979309082
1.6892402172088623 0.6595330834388733 0.3691340684890747
-1.6367698907852173 -0.33631545305252075 -0.4390815198421478
1.222352385520935 -0.5879978537559509 -0.13311146199703217
0.01573028787970543 0.042757898569107056 -1.5049699544906616
0.22912967205047607 -0.6149189472198486 0.2101583629846573
0.16129359602928162 -0.2244878113269806 0.651055634021759
-2.308279514312744 0.5381509065628052 0.3714934289455414
0.3774234652519226 0.13720661401748657 0.272028386592865
-1.429304599761963 0.14477160573005676 0.6089654564857483
0.38638919591903687 -0.2843129634857178 0.17716950178146362
-2.7155463695526123 -0.13544952869415283 0.5907884836196899
-2.1985068321228027 -0.2127881795167923 -0.24552983045578003
1.0437008142471313 0.3276785612106323 -0.8564600944519043
-1.6684032678604126 -0.355463445186615 -0.054797351360321045
-1.5639411211013794 0.28531479835510254 -1.1518815755844116
-0.2543197274208069 -0.16693466901779175 1.5120123624801636
-0.8128883838653564 -0.3453262448310852 -0.848649263381958
-0.2638283967971802 -0.4422832727432251 0.6061854362487793
-1.3398765325546265 -0.28130799531936646 -0.38610705733299255
-1.8701159954071045 -0.025744304060935974 -0.5145635008811951
-0.4033154249191284 -0.2334703952074051 0.7264076471328735
0.27410945296287537 -0.5910735726356506 -1.294713020324707
-1.1243597269058228 -0.2939150333404541 -0.08075578510761261
2.292956829071045 -0.08261355757713318 -0.15336358547210693
-2.2077949047088623 -0.03912690281867981 -0.3557833433151245
2.281994581222534 -0.4364696145057678 0.12539221346378326
-0.921091616153717 0.37262746691703796 -0.6496845483779907
0.050085145980119705 0.42459145188331604 -0.7349995374679565
1.7587178945541382 -0.5676417946815491 -1.2319884300231934
-0.6473928093910217 -0.6196539998054504 1.1439979076385498
0.7742850184440613 -0.5969725847244263 0.491399347782135
0.9362313747406006 -0.40916556119918823 0.8976209163665771
0.4272387623786926 1.0276334285736084 0.7729237079620361
2.1575000286102295 -0.21743035316467285 -0.16895867884159088
1.0341160297393799 0.21219219267368317 -0.16183573007583618
-0.93552565574646 0.5656358003616333 0.4253024458885193
-0.4544309675693512 0.09567925333976746 -0.5136100649833679
-0.6754792332649231 -0.17190177738666534 -0.056166525930166245
-0.0895145907998085 0.9062082171440125 0.08317834883928299
1.4432837963104248 0.48188167810440063 -0.7485151290893555
1.6683640480041504 -0.5363021492958069 -0.944118082523346
-1.6834622621536255 0.894242525100708 -0.08079897612333298
1.2146025896072388 -0.22484689950942993 1.736820936203003
1.2545239925384521 -0.04107837378978729 1.562847375869751
0.3102092742919922 0.4466787874698639 -0.8075318336486816
1.9959747791290283 -0.6080646514892578 -0.9212655425071716
1.0569312572479248 0.5377521514892578 0.06303247064352036
-0.07577909529209137 0.18445050716400146 -1.0157575607299805
1.0389795303344727 0.3877713084220886 0.3848280906677246
-1.7672338485717773 0.7607077360153198 -0.7698462605476379
-0.908534586429596 0.4351268410682678 -0.06546833366155624
-1.6789342164993286 -0.3185707926750183 0.4795399308204651
-0.42178627848625183 -0.10923923552036285 0.3353118300437927
1.5382330417633057 0.6715787649154663 -0.08274497091770172
-1.6261399984359741 0.1075267493724823 0.2979434132575989
1.6947954893112183 0.653922975063324 0.21734412014484406
1.4743459224700928 0.00018902122974395752 -0.3157869875431061
2.927752733230591 -0.03998419642448425 0.31151700019836426
-0.412605345249176 0.9005938172340393 -0.9142548441886902
-0.694025456905365 -0.34129396080970764 -0.5414570569992065
0.04778137803077698 1.0111621618270874 -0.17037872970104218
-0.752673864364624 0.15175257623195648 0.41556045413017273
-0.7309100031852722 0.3355714678764343 -1.0797492265701294
-1.1543498039245605 0.4284209907054901 -0.055265262722969055
0.27450257539749146 -0.5988101959228516 0.2985341548919678
-0.8139614462852478 0.2818787097930908 1.280319333076477
0.7027842998504639 0.6141436100006104 0.4513354003429413
0.9748634696006775 0.7440292835235596 -1.2240780591964722
-1.5788038969039917 0.9240705966949463 -0.21994034945964813
-0.6898467540740967 -0.07615870237350464 -0.2285313606262207
0.7381672263145447 -0.2815443277359009 0.7026634812355042
-0.03669263422489166 -0.18082569539546967 0.44084757566452026
1.059144139289856 -0.6311479210853577 -0.95238196849823
-0.02507311850786209 0.12462632358074188 -1.0858784914016724
-1.243257761001587 0.31616342067718506 -0.5095748901367188
-0.49940386414527893 0.5368862748146057 0.4911413788795471
3.0097875595092773 0.3490552306175232 0.22772693634033203
1.9915035963058472 0.03718732297420502 -0.34924134612083435
-0.7311691045761108 0.08361724019050598 0.5266512632369995
-0.6208618879318237 -0.47014105319976807 -0.789136528968811
2.184781551361084 0.415022611618042 -0.5004295110702515
2.8193228244781494 -0.6238397359848022 -1.4066792726516724
-0.1541726440191269 0.576558530330658 -0.5310854911804199
1.9873337745666504 -0.6158482432365417 0.15804116427898407
0.13389769196510315 -0.6253119707107544 -0.9049292802810669
-0.05891554802656174 0.9281647205352783 -0.20871101319789886
-1.5300970077514648 0.05584022402763367 -0.6231944561004639
0.8949004411697388 0.004983752965927124 0.4983113706111908
0.41665908694267273 0.1760786473751068 -0.9250069260597229
-1.761823296546936 0.6340848803520203 0.0759698897600174
0.5961156487464905 -0.2548571228981018 -0.22557231783866882
2.3380091190338135 -0.27597397565841675 -0.19016261398792267
-1.8602886199951172 -0.1015072911977768 0.3422051966190338
2.3258211612701416 0.41346263885498047 -0.5427117347717285
1.0293469429016113 -0.1310647577047348 -0.690776526927948
1.953812599182129 0.1296992301940918 0.297658234834671
0.021168336272239685 1.1874269247055054 0.12084445357322693
2.1077585220336914 0.560408353805542 -0.2622353732585907
-1.6660631895065308 -0.016965001821517944 -0.7191962003707886
2.1648917198181152 0.32580894231796265 -1.1050639152526855
2.9393491744995117 0.24520540237426758 -0.5526507496833801
-1.5981571674346924 0.7690758109092712 -0.9623866081237793
-0.5791226625442505 -0.39723312854766846 0.48420193791389465
-1.012728214263916 0.6092970967292786 0.7236316204071045
1.959762692451477 0.31739652156829834 0.4391882121562958
1.9907997846603394 -0.3800010085105896 -1.3339817523956299
0.516596794128418 0.4840497374534607 -0.9069194197654724
1.975061058998108 0.48551687598228455 1.1196703910827637
-1.9175161123275757 0.9193045496940613 -0.18082815408706665
-0.8189039826393127 0.3521130681037903 1.0488942861557007
2.6091701984405518 -0.20912380516529083 -1.4185571670532227
-0.7878428101539612 0.804587185382843 1.0701982975006104
0.01983347162604332 -0.29012876749038696 -1.5128352642059326
-2.0801169872283936 -0.24695704877376556 -0.1437358409166336
0.01953502744436264 -0.07505641877651215 0.9914432168006897
0.5402503609657288 -0.03425721824169159 0.06994915753602982
1.795710563659668 -0.44562819600105286 0.01040673442184925
0.6334696412086487 -0.4535580277442932 1.425748586654663
-2.1402194499969482 -0.4302222728729248 0.3717152178287506
0.07552449405193329 -0.5892550349235535 -0.10197587311267853
-0.008758928626775742 0.6720046401023865 -0.8906322121620178
0.3319523334503174 1.0545921325683594 -0.2588065266609192
-0.6093176603317261 1.060470700263977 -0.6419141888618469
0.621105968952179 -0.6076934933662415 -0.0499969981610775
2.89703369140625 0.3914951980113983 -0.2900730073451996
2.640653371810913 -0.028754234313964844 -0.4929909110069275
2.3571431636810303 0.01792071759700775 -0.9191298484802246
1.7668167352676392 0.6054128408432007 -0.08384514600038528
0.9902040958404541 0.21058768033981323 0.030815228819847107
-0.9609507918357849 0.47852465510368347 -1.7053265571594238
0.7545936107635498 0.31140583753585815 -0.9567610621452332
-0.0694589763879776 0.0903317779302597 1.4538730382919312
-1.9291787147521973 0.5763862729072571 0.15062351524829865
0.3149210512638092 1.0870335102081299 0.5684095025062561
-1.271203637123108 -0.6116050481796265 -0.7100298404693604
1.151084303855896 0.8225598931312561 0.8594332337379456
0.2600556015968323 -0.05255362391471863 -1.2169564962387085
-1.7623875141143799 0.17382168769836426 0.6885320544242859
0.10053064674139023 -0.5739929676055908 0.7309197783470154
2.176708698272705 -0.5444209575653076 -1.0286670923233032
0.2559649646282196 -0.09840016067028046 0.487018346786499
1.9913548231124878 0.15937887132167816 1.4173494577407837
1.9451886415481567 0.5873274207115173 0.05587465316057205
1.9152263402938843 0.08092302083969116 -0.059470284730196
1.5021212100982666 -0.6085674166679382 0.39177942276000977
-0.7551587224006653 -0.2940495014190674 -1.054945707321167
-1.5605556964874268 -0.5557425618171692 0.8673715591430664
-1.9558080434799194 -0.5193054676055908 -0.2109108418226242
0.9126776456832886 0.6060149669647217 -0.25738781690597534
-0.1937306970357895 0.9670999050140381 0.1248306930065155
0.3190930187702179 -0.04291403293609619 0.1583581417798996
-1.1535643339157104 -0.6306450366973877 0.4283570945262909
1.348030924797058 -0.1238766461610794 1.0981287956237793
1.5704199075698853 0.1735335886478424 0.2846282124519348
-0.26133960485458374 0.9181698560714722 1.028839349746704
-1.750325083732605 -0.5550346374511719 0.2397146224975586
-0.2393498718738556 -0.6266161203384399 0.2962934672832489
-0.7774818539619446 1.0110256671905518 -0.4726800322532654
-1.5050756931304932 0.31401410698890686 0.6803267598152161
0.5344864130020142 -0.07863850891590118 -1.0006847381591797
-2.1506104469299316 0.4206116199493408 0.5900605320930481
-0.776368260383606 -0.1498045027256012 -1.1963224411010742
-0.23828375339508057 -0.5855702757835388 -1.3187865018844604
1.5246779918670654 0.08302269876003265 -0.30455830693244934
-0.32153886556625366 -0.13797330856323242 0.8259057402610779
1.7180081605911255 -0.13201449811458588 0.4780031740665436
0.8599328398704529 -0.5944120287895203 0.061360664665699005
-1.2228858470916748 0.047135621309280396 0.22752153873443604
1.2327066659927368 -0.3947657346725464 -0.06202318146824837
1.9136930704116821 0.21117424964904785 -0.4026049077510834
0.43557456135749817 1.1021935939788818 -0.3195073902606964
2.5652971267700195 0.03895522654056549 1.2914108037948608
0.3209499716758728 -0.5806072950363159 -1.451587438583374
-1.268004298210144 0.030207276344299316 1.710606575012207
0.27710965275764465 -0.2017662078142166 0.17907758057117462
3.465402364730835 -0.4229581356048584 -0.6138712763786316
2.607915163040161 0.44700899720191956 0.042163699865341187
-1.7515827417373657 -0.23409146070480347 -0.4890294671058655
-2.1928281784057617 -0.47428014874458313 -1.0566275119781494
-1.6938185691833496 -0.5054748058319092 -1.2477866411209106
-2.621307134628296 -0.061539992690086365 -0.5678353905677795
2.204319715499878 -0.2648676037788391 -0.06463467329740524
-0.6245766878128052 -0.05387656390666962 0.4850636422634125
1.3280619382858276 0.3473873734474182 1.089509129524231
0.5171340703964233 0.5596482753753662 0.5820150375366211
0.5010815262794495 -0.18492963910102844 -0.9995858073234558
-1.6540758609771729 -0.4251992404460907 0.8520522713661194
-2.3804709911346436 0.7973731160163879 -0.10793386399745941
-1.3095322847366333 -0.3856298327445984 -0.12790264189243317
0.3441752791404724 1.018488883972168 -0.7008927464485168
0.051209643483161926 0.7476451396942139 1.3012897968292236
1.780004858970642 -0.6272717714309692 -0.7206546664237976
0.6435286998748779 0.1265431046485901 0.8031075596809387
-0.46724021434783936 0.9287194013595581 0.34877094626426697
2.1975016593933105 -0.12751330435276031 1.427404761314392
-1.4142085313796997 0.5624268054962158 0.9670529961585999
1.5284370183944702 -0.41614386439323425 -0.5508768558502197
2.4356272220611572 -0.27169907093048096 0.19587759673595428
-0.25073549151420593 -0.6276896595954895 1.3486478328704834
-0.9311127066612244 0.5183327198028564 0.8671779632568359
1.2701047658920288 0.22767160832881927 -0.9500387907028198
-1.2049897909164429 0.3424968719482422 -0.794091522693634
-1.7167826890945435 0.5938572883605957 -1.1814486980438232
-0.9600312113761902 -0.4626568555831909 0.9464355707168579
1.313384771347046 0.2183234542608261 -0.02105085738003254
-0.6593227386474609 -0.44632554054260254 -0.8870266079902649
0.06953128427267075 1.003509283065796 -1.3193076848983765
-0.308388352394104 -0.5816735029220581 0.12815459072589874
-0.13751322031021118 -0.1402048021554947 0.14540229737758636
-1.36106276512146 0.7814575433731079 0.7232864499092102
-1.3117603063583374 -0.5674077868461609 1.1316866874694824
2.160672187805176 0.13376274704933167 -1.0433918237686157
3.2723677158355713 -0.09300781786441803 -0.1220298707485199
1.2917357683181763 -0.643544614315033 0.6971863508224487
0.4794098138809204 -0.582444429397583 0.3064447343349457
-0.08731281012296677 -0.16567714512348175 -0.08794359862804413
-1.115289330482483 -0.38802242279052734 -0.4824235141277313
-1.9124201536178589 -0.5482969284057617 0.9725961685180664
0.4377591609954834 0.4504024386405945 -1.5466164350509644
1.9173139333724976 -0.31907927989959717 -0.05065641179680824
0.5536655783653259 0.5023208856582642 -0.6266307830810547
-0.14298081398010254 0.501997709274292 0.2013106346130371
-0.8799471855163574 0.8497949838638306 0.550932765007019
-0.5390642285346985 0.45391976833343506 0.14544762670993805
0.9949470162391663 -0.13173916935920715 -1.2414692640304565
-1.7838650941848755 0.2954023480415344 0.33996474742889404
1.3984870910644531 0.8011059165000916 0.47753891348838806
0.07272668182849884 -0.30740517377853394 0.42071056365966797
0.894736111164093 0.5995783805847168 0.2118304818868637
-1.2967172861099243 -0.29498887062072754 1.0152755975723267
-0.9320900440216064 0.18016166985034943 0.171803817152977
-0.9990902543067932 0.31984278559684753 1.5990337133407593
1.2224936485290527 0.22712348401546478 -0.34982529282569885
0.45161759853363037 -0.5686371922492981 -0.23835645616054535
-0.7118692398071289 0.02413789927959442 -0.817039966583252
0.8247894048690796 0.9422104358673096 0.0510505847632885
-0.2689681053161621 -0.5996747016906738 0.34812039136886597
0.7113180756568909 -0.5858749747276306 -1.3432738780975342
0.8727015852928162 -0.03849627077579498 -0.7783578038215637
1.2104886770248413 -0.4464394748210907 1.699221134185791
1.9242615699768066 -0.5977698564529419 -0.5421584248542786
0.5194035172462463 0.5362499952316284 -0.9952669143676758
0.23934054374694824 0.6780874729156494 1.2576730251312256
-1.863768219947815 -0.15969324111938477 -0.09641469269990921
1.0777451992034912 0.1760677993297577 0.8914600014686584
-2.6355671882629395 0.28328073024749756 0.21917374432086945
0.6690458059310913 0.40993019938468933 -1.010933756828308
-2.3432796001434326 -0.5418301820755005 0.6070544123649597
0.184469535946846 -0.474037766456604 -1.1280465126037598
-2.141124963760376 0.21484240889549255 -0.12922874093055725
-1.0352023839950562 0.5848302841186523 -0.8376504778862
0.10221079736948013 0.4296916127204895 0.7497875690460205
-1.7825878858566284 0.5367615818977356 0.41025158762931824
-0.6444175243377686 0.4165043234825134 -1.1296186447143555
2.382377862930298 0.0032415688037872314 0.6034898161888123
0.3536609411239624 -0.6293811202049255 0.6655786633491516
-2.600107192993164 0.435705304145813 0.5909397602081299
-0.6279953718185425 -0.5118066072463989 -1.2777169942855835
0.8862005472183228 -0.5924487113952637 -0.013212189078330994
2.9517579078674316 0.2567380368709564 -0.565589189529419
-0.7543830275535583 0.2241879105567932 -0.40816599130630493
-0.44636696577072144 0.4899967312812805 -0.5307953357696533
1.3638478517532349 -0.643946647644043 -0.13645941019058228
-0.6818957924842834 -0.6161134839057922 0.5313034057617188
1.9978023767471313 -0.15997786819934845 1.605217456817627
-0.516845703125 0.00032833218574523926 0.9632481932640076
-0.48147886991500854 -0.0799274742603302 -1.5877602100372314
-0.8899409770965576 0.11591362953186035 0.06998199969530106
2.076056480407715 0.0382746160030365 -0.11818966269493103
0.22391124069690704 0.8708370923995972 -1.064110279083252
3.2308685779571533 -0.2932673394680023 -1.2090237140655518
2.8197834491729736 0.4309024512767792 -0.10001339018344879
2.0896801948547363 -0.5577883720397949 0.9456971287727356
-0.3791276812553406 0.3659725785255432 -0.7175766825675964
-0.3525959253311157 -0.17187188565731049 -0.14844782650470734
-0.3857842981815338 1.0575759410858154 -0.14858096837997437
0.18173956871032715 -0.5818355083465576 -0.7358728647232056
0.552821159362793 -0.10917359590530396 -0.9186696410179138
0.5160464644432068 0.9153848886489868 0.502518892288208
0.08433559536933899 0.012639656662940979 0.05556175112724304
0.7605666518211365 -0.11099794507026672 0.8501759171485901
0.03170609474182129 -0.33399152755737305 -1.0698493719100952
2.603541851043701 -0.5938896536827087 -0.5493325591087341
0.3145301640033722 -0.6130729913711548 0.296824187040329
0.27304938435554504 0.43516579270362854 0.07256973534822464
0.11857922375202179 -0.3680381178855896 0.15196771919727325
-0.6120714545249939 -0.6163533329963684 0.6224983334541321
1.1392700672149658 -0.23805861175060272 -0.05147532373666763
1.7830250263214111 0.002399072051048279 0.9536314010620117
1.5590934753417969 -0.6164780259132385 -0.7813794612884521
2.5514206886291504 0.34569886326789856 0.08933339267969131
-1.7337496280670166 -0.1571996510028839 0.38385164737701416
-2.8170695304870605 -0.4272511601448059 0.07788529247045517
-1.415169358253479 -0.524623692035675 -0.6338850855827332
-0.5887917280197144 0.7005828619003296 -0.21209900081157684
0.008223611861467361 -0.11260883510112762 -0.46860209107398987
0.7114297747612 0.7711955308914185 -0.21153388917446136
-1.3159505128860474 -0.5822299718856812 0.578323245048523
-1.4733208417892456 0.4137169420719147 1.266103744506836
2.109877109527588 -0.011864379048347473 -0.2666551470756531
2.031541347503662 -0.31691282987594604 -0.17650334537029266
2.5410706996917725 -0.6398347616195679 1.0261001586914062
1.84866201877594 0.05967891216278076 0.19329330325126648
-0.41357749700546265 0.8679955005645752 0.0282844677567482
1.7241235971450806 0.6038488745689392 0.611953854560852
-2.1446611881256104 -0.068025141954422 0.4732489287853241
0.6613365411758423 0.6090861558914185 -1.03779137134552
2.434121608734131 -0.5347980260848999 -1.202960729598999
2.743532657623291 0.4169718623161316 -0.9000663161277771
-2.0706801414489746 -0.061684414744377136 1.1936253309249878
0.875145435333252 0.4579230546951294 0.8997650146484375
1.949867606163025 -0.6407920122146606 -0.7772120833396912
-1.6954877376556396 -0.5877828001976013 0.6701603531837463
-0.5297912955284119 0.9533525705337524 0.3472401201725006
1.8171521425247192 0.3428090810775757 -0.00669440533965826
-1.6413257122039795 -0.5655373334884644 -1.1401877403259277
-1.2307097911834717 -0.23724563419818878 1.7254462242126465
-2.6074750423431396 0.10221801698207855 -0.2921241521835327
1.2202104330062866 1.008520245552063 0.4397498369216919
-1.885990023612976 0.05384106934070587 -0.37566250562667847
1.6884793043136597 -0.11166803538799286 0.5505916476249695
2.4744625091552734 0.11867865920066833 -0.8800307512283325
2.0648293495178223 -0.5818819403648376 0.8321061134338379
-0.8310868740081787 -0.6025725603103638 -0.32766395807266235
-0.1925964653491974 -0.5961129665374756 0.7456570863723755
-0.35715293884277344 1.128075122833252 0.8954411149024963
-1.9309499263763428 -0.5273224115371704 0.7186878323554993
1.2270821332931519 -0.579382061958313 0.023786388337612152
-0.4159422516822815 -0.6016736626625061 -1.3036139011383057
1.2804747819900513 0.44147539138793945 0.536857008934021
-2.022059202194214 0.8247904777526855 0.4426300823688507
-1.8547120094299316 0.1434360146522522 -0.6557292342185974
1.8523448705673218 -0.5786738395690918 -1.3497660160064697
-1.4125224351882935 0.060276418924331665 1.3168325424194336
2.2430739402770996 -0.58607417345047 1.3671233654022217
-2.0398545265197754 0.16609564423561096 -1.1398941278457642
1.5887951850891113 -0.6265685558319092 1.1670674085617065
-0.8623791933059692 -0.5830225348472595 -0.48007121682167053
1.0651497840881348 -0.15287990868091583 -0.3316137492656708
-1.49321448802948 -0.0003830641508102417 0.09802743792533875
-2.408979654312134 -0.11863547563552856 -0.705078661441803
-0.05986660346388817 -0.3155474364757538 -1.2598836421966553
0.10508891940116882 1.0172579288482666 0.179422065615654
-0.07284234464168549 -0.6487973928451538 -0.02838340774178505
0.051164425909519196 0.5548245906829834 -0.09505053609609604
-1.1462578773498535 -0.5730390548706055 0.8898406624794006
-0.13850808143615723 1.0428510904312134 0.15306830406188965
2.173534393310547 -0.5759260058403015 1.1244925260543823
2.332487106323242 0.49011048674583435 0.19147531688213348
1.1905988454818726 0.6643781065940857 -0.49759984016418457
1.4805046319961548 -0.5898963212966919 -0.9306061863899231
0.7881442308425903 0.14855140447616577 -1.6553064584732056
-1.4232592582702637 0.88825523853302 -0.14898563921451569
2.0783166885375977 -0.24996577203273773 -0.31780916452407837
0.5647335052490234 -0.3110235631465912 0.6794769763946533
0.8676595687866211 -0.6176500916481018 0.9811707735061646
0.3901938498020172 0.4452017545700073 0.9678072929382324
0.7901470065116882 0.34116286039352417 0.3508346974849701
-1.2550021409988403 0.2644684314727783 -0.5487657189369202
0.4976861774921417 -0.09582483768463135 -0.7296345829963684
2.3309478759765625 0.46561235189437866 -0.9444345235824585
0.2270994484424591 0.1385027915239334 -0.7851947546005249
-0.4717685282230377 0.6441023945808411 -0.3267475664615631
2.0099127292633057 -0.57069331407547 0.6890444755554199
-1.017033576965332 -0.5907574892044067 0.26511040329933167
1.8383331298828125 -0.3223961889743805 -1.2988377809524536
0.3363453149795532 -0.2633236050605774 -0.1558736115694046
-0.9928876161575317 1.0112923383712769 -0.05682547762989998
2.9651570320129395 -0.2636648714542389 0.32286423444747925
1.0754475593566895 0.6312354207038879 0.3711395561695099
1.6488052606582642 -0.38221219182014465 -0.5969409942626953
-1.6430612802505493 0.783583402633667 1.3482296466827393
2.361015796661377 -0.14461569488048553 -1.3997108936309814
-1.8902056217193604 -0.2400553822517395 0.4331139326095581
-1.8790231943130493 0.19873912632465363 -0.6753439903259277
-1.595804214477539 -0.00902266800403595 -0.6789590716362
2.0213639736175537 -0.5564050078392029 0.32064956426620483
-0.8406614065170288 0.6195544004440308 -0.40474748611450195
1.6331621408462524 -0.30273038148880005 0.012380741536617279
0.6065689921379089 0.3418148159980774 0.566370964050293
0.5987082123756409 -0.44947153329849243 1.2808696031570435
-1.969592809677124 -0.5325976610183716 -0.3738954961299896
1.954215168952942 0.1833651214838028 0.7941177487373352
0.005049463361501694 -0.24367302656173706 -0.7188939452171326
-0.025721505284309387 0.5172276496887207 0.2319268435239792
1.5080370903015137 -0.46957969665527344 1.615506649017334
-2.205456256866455 -0.0007669329643249512 -0.2099650353193283
-1.9630204439163208 0.13017043471336365 -0.8546140193939209
-1.5040515661239624 -0.1023961752653122 -0.25419139862060547
-2.5132811069488525 0.23104609549045563 0.6934177875518799
1.464495062828064 -0.592084527015686 -0.14852647483348846
-1.5080757141113281 0.8696348667144775 -0.5097249746322632
-1.9527456760406494 0.010177284479141235 1.4777414798736572
-0.9716291427612305 0.864753246307373 -0.9677562117576599
1.5182886123657227 0.6754894852638245 -0.15051063895225525
-1.1111435890197754 -0.07079361379146576 -1.8205935955047607
-1.1190507411956787 0.2715092897415161 -0.09015496075153351
-0.28550204634666443 -0.5850130915641785 0.893433690071106
-3.4991543292999268 0.5139328241348267 -1.0039938688278198
-0.7068349123001099 -0.5814228057861328 0.7323822975158691
-1.9555482864379883 0.47489452362060547 0.17722146213054657
1.5010842084884644 -0.28672003746032715 -0.5682324171066284
1.6368681192398071 0.47059741616249084 0.8664789795875549
-2.065305709838867 -0.12476614117622375 0.043126605451107025
-0.8500458002090454 -0.009627386927604675 -0.4623930752277374
-1.6964597702026367 0.7485212683677673 -0.7225185036659241
-1.1073368787765503 -0.2749764323234558 0.42965611815452576
2.303744077682495 0.09003989398479462 0.8649725317955017
-0.7578916549682617 0.8982040882110596 -1.1384984254837036
-1.893286108970642 0.20224173367023468 0.9452553391456604
-0.7718815207481384 0.9309026598930359 -0.9221087694168091
0.859562337398529 -0.23951739072799683 -0.9956198334693909
-0.41929739713668823 0.3634820580482483 -1.4376907348632812
1.5569881200790405 -0.08755730092525482 0.633830189704895
-0.8621273040771484 -0.5993036031723022 0.5800492763519287
-0.6192619204521179 -0.018826737999916077 1.028908133506775
1.515672206878662 0.427303284406662 0.4976525604724884
-0.8157917261123657 -0.5367627739906311 -1.152321457862854
-2.440199375152588 0.09428203105926514 -0.9688003063201904
0.2839130163192749 0.9471685886383057 0.46571776270866394
-2.645146608352661 0.022222816944122314 0.6073201298713684
-2.122293472290039 0.1734413206577301 -0.24828894436359406
-1.8517415523529053 0.7996088862419128 -0.9789037704467773
-1.5202813148498535 -0.3019852042198181 -0.23456840217113495
-0.5372398495674133 0.10976772010326385 -0.9507958292961121
2.184201955795288 0.2441892772912979 0.8485707640647888
-0.6115449070930481 -0.1542809009552002 -0.392577201128006
0.6267693042755127 -0.12054520845413208 0.00427120691165328
-1.8894320726394653 -0.5008510947227478 0.9235436320304871
0.7419050931930542 -0.610000491142273 0.8506840467453003
2.366039991378784 -0.4783335328102112 0.49512141942977905
-2.1836397647857666 0.24199990928173065 1.1671664714813232
1.5956107378005981 0.03731679916381836 0.29396772384643555
-0.5966562032699585 0.9913974404335022 0.6017299890518188
0.6462977528572083 0.840333104133606 -0.6193694472312927
-0.02189573645591736 -0.5928996205329895 1.0552446842193604
-0.7784578800201416 0.8056811094284058 1.1682287454605103
-1.6134885549545288 -0.1111021488904953 -1.3625785112380981
-1.504015326499939 -0.3765407204627991 -0.8357717990875244
-1.6552726030349731 -0.38738664984703064 -0.968673050403595
-1.3840570449829102 0.868685245513916 -0.349648654460907
3.257037878036499 -0.010928258299827576 0.2487807273864746
0.6131191253662109 -0.3495877981185913 1.2456023693084717
-2.1420140266418457 -0.022830337285995483 0.5296885371208191
0.7718877792358398 0.6799473166465759 0.4747339189052582
-0.10638970136642456 0.32295018434524536 -0.8133077025413513
1.1225415468215942 1.0220634937286377 0.3944450318813324
2.077500343322754 -0.4593854546546936 -0.774630069732666
-0.24207793176174164 0.5390914082527161 0.5999888181686401
1.193286657333374 -0.35452771186828613 -0.14490865170955658
2.3743669986724854 -0.6208808422088623 -0.30793797969818115
1.3747649192810059 0.07420194149017334 -0.3141050636768341
-0.34435126185417175 0.9985291957855225 -0.7150974273681641
0.7986344695091248 0.724877119064331 0.562137246131897
1.9625263214111328 0.10331414639949799 -0.9411599636077881
0.7877184748649597 -0.28746435046195984 -0.7139154672622681
1.1793698072433472 0.15996606647968292 -1.16958749294281
-1.5959776639938354 -0.2157631665468216 0.025581855326890945
0.1875782608985901 1.0402199029922485 -0.2623851001262665
-2.555056571960449 -0.4923277199268341 0.10078005492687225
-1.2494293451309204 0.2136811465024948 -0.2330661565065384
2.4400956630706787 -0.20616988837718964 1.4740372896194458
0.14349354803562164 -0.24305623769760132 -0.9709017276763916
1.4870738983154297 0.5440391898155212 -0.22592498362064362
1.1689949035644531 0.5680716037750244 1.2320902347564697
0.42706918716430664 0.8749017119407654 -0.9784585237503052
-0.4569334387779236 -0.5645367503166199 -1.505571722984314
1.1310844421386719 -0.6093928813934326 -0.1307617723941803
-0.9610502123832703 0.9891042709350586 -0.25722983479499817
-0.2751634418964386 0.9296746253967285 -0.10865882784128189
0.6379815340042114 0.4651302099227905 -1.575975775718689
0.646716296672821 0.3991754651069641 1.2400600910186768
0.09899674355983734 -0.6267226934432983 0.8041706681251526
-1.0970001220703125 -0.5799453854560852 -0.47409331798553467
-2.426504373550415 0.28352421522140503 -0.6143327951431274
-1.0116809606552124 0.5322268605232239 1.1048328876495361
-2.2916836738586426 0.4393154978752136 1.211116075515747
1.0928889513015747 0.008640244603157043 0.8280067443847656
0.16895268857479095 0.67531418800354 -0.6961396336555481
0.5478987693786621 0.39160847663879395 -1.104744791984558
2.3480560779571533 0.20484644174575806 0.6928083300590515
-0.8729735612869263 1.0411111116409302 -0.7829826474189758
1.8804315328598022 -0.42858946323394775 -0.38013824820518494
-0.14004471898078918 0.9853633046150208 0.24917066097259521
0.2928956151008606 -0.6124849319458008 0.686360239982605
-1.9728924036026 0.2141164243221283 0.9503222703933716
-0.1551099568605423 0.3446172773838043 0.5675527453422546
-0.8797914981842041 -0.28996512293815613 -0.1668107509613037
0.3880031704902649 -0.37907737493515015 -0.19692282378673553
-0.13234268128871918 -0.4217361807823181 -1.1621463298797607
-1.6406152248382568 0.029164060950279236 -1.4546971321105957
0.6161679625511169 0.8365752696990967 -1.176810383796692
-1.323696494102478 1.1543042659759521 -0.20180487632751465
0.3213497996330261 0.8269302845001221 -0.938866376876831
-1.016200065612793 0.4842642545700073 0.6162934303283691
-1.4405100345611572 0.12542811036109924 -0.8618682622909546
-0.552440345287323 0.076832115650177 -1.7590820789337158
-1.7535243034362793 -0.6072458028793335 -0.493173748254776
0.7797085046768188 -0.5934945344924927 -0.5846536755561829
2.3590352535247803 0.19917121529579163 0.8282710313796997
1.0708239078521729 -0.027463659644126892 -0.4327380359172821
1.8005855083465576 -0.15037402510643005 -0.28341740369796753
-0.8985068798065186 -0.5948904752731323 0.14357121288776398
-0.7731297612190247 0.25904518365859985 1.9367929697036743
0.9634675979614258 -0.13953956961631775 -0.4678562879562378
1.879636526107788 0.4001159965991974 0.07580006122589111
-0.5167893767356873 -0.6273238658905029 -0.8910995721817017
1.6534762382507324 0.5941631197929382 0.7505510449409485
1.1482616662979126 -0.524970531463623 -1.5596678256988525
0.9136592149734497 -0.596366286277771 0.70555180311203
0.3032320737838745 -0.08303457498550415 -0.17811734974384308
1.8389110565185547 -0.028645381331443787 -0.1357273906469345
-1.3648879528045654 -0.4410354197025299 -1.8035808801651
0.7242929339408875 0.3091599941253662 0.6192881464958191
-0.30676645040512085 0.32003235816955566 -0.9088916778564453
-1.841411828994751 0.3571656346321106 -1.3971823453903198
0.6198729276657104 -0.5871509313583374 0.8149934411048889
2.548879623413086 -0.5883877277374268 -0.8659318685531616
0.8450049161911011 -0.618238627910614 -0.9339326024055481
1.9939281940460205 0.5735388994216919 -0.9317516088485718
0.23327362537384033 0.189189150929451 -0.3034536838531494
0.37061068415641785 -0.5835790634155273 -0.19525982439517975
-2.2421791553497314 0.200448140501976 1.076114296913147
-1.095381736755371 0.5168471932411194 0.29044851660728455
0.42384073138237 -0.3492967486381531 -0.7850301265716553
-0.5028884410858154 -0.5964258313179016 -0.1432259976863861
1.4486287832260132 0.19496718049049377 0.8157044053077698
-0.8193601965904236 0.2616320252418518 -0.7843224406242371
-0.9459698796272278 0.2627353072166443 -0.8626800179481506
1.2249959707260132 -0.3928654193878174 0.5731399059295654
1.0149743556976318 -0.3304522931575775 0.6107452511787415
-2.462777614593506 -0.40997952222824097 -0.3070479929447174
2.6822402477264404 -0.32723528146743774 -0.4434424936771393
-2.0884313583374023 0.6006641387939453 -0.7592108845710754
0.4602738916873932 -0.137990802526474 0.045126933604478836
-1.764817714691162 0.3908179700374603 0.8372628092765808
1.2947555780410767 -0.5926376581192017 0.7439562678337097
2.8011386394500732 -0.29374322295188904 0.348111093044281
1.65813410282135 -0.5541238784790039 0.6290318965911865
0.07879184931516647 -0.6263754963874817 -0.2279518097639084
-0.308598130941391 1.0860693454742432 -0.19465039670467377
1.3966057300567627 -0.2414986938238144 -0.006848946213722229
0.2778066098690033 0.32357046008110046 0.8784362077713013
1.4613044261932373 0.7128087282180786 0.632767379283905
-1.2724732160568237 0.8884553909301758 -0.7174670100212097
2.539123058319092 -0.6033015251159668 0.9110480546951294
1.3887739181518555 -0.2890874147415161 0.11953537911176682
2.030306816101074 0.3489553928375244 0.10398176312446594
-1.8015022277832031 0.31383582949638367 -0.704284131526947
1.3721485137939453 -0.41001471877098083 -1.1666747331619263
-1.1267222166061401 0.0930292010307312 -1.6892011165618896
1.730734944343567 -0.5997369289398193 -1.2829996347427368
0.6375208497047424 0.08912841975688934 -0.7906497120857239
-1.240037441253662 0.06855534017086029 0.9053976535797119
1.7482234239578247 0.4791509807109833 1.0263057947158813
2.1736462116241455 -0.32621926069259644 -1.3893911838531494
-1.0304179191589355 0.8093224763870239 -1.0070046186447144
-1.3504120111465454 -0.43991586565971375 1.0401450395584106
-0.980678379535675 -0.5414107441902161 -1.496717095375061
0.6616073846817017 -0.6156999468803406 -0.7052506804466248
0.6168417930603027 -0.6091729998588562 -0.954319953918457
1.6943426132202148 -0.11390426754951477 -0.518085777759552
0.5793892741203308 -0.3370082676410675 0.5674939751625061
0.7912312150001526 -0.5827292203903198 1.35036301612854
1.9732749462127686 -0.48938751220703125 1.3701517581939697
-1.019788146018982 1.015994906425476 0.008593309670686722
1.7991492748260498 0.1060953140258789 0.8832495808601379
-0.781589686870575 0.3287869095802307 0.8140267133712769
2.0370843410491943 0.506123423576355 -1.519043207168579
-0.9817911386489868 -0.5072822570800781 1.0143240690231323
-1.9867604970932007 -0.4141136705875397 0.2513805627822876
0.26497936248779297 -0.4666517972946167 -1.3954102993011475
-1.030380129814148 0.5101316571235657 -0.7162110209465027
0.7641072273254395 0.5721010565757751 -1.2410392761230469
-0.5750905871391296 0.2711155414581299 0.23863773047924042
0.48794299364089966 0.05664411187171936 1.1173161268234253
-0.34188318252563477 0.25403377413749695 -1.420350432395935
-1.2648957967758179 0.31888818740844727 1.0419354438781738
1.288129210472107 -0.6768001317977905 -0.5478321313858032
1.623359203338623 -0.35300880670547485 -0.7117224335670471
-2.517213821411133 0.24810637533664703 -0.29729583859443665
-0.16720736026763916 0.9395505785942078 0.34365949034690857
2.708782196044922 -0.3842101991176605 0.019696014001965523
0.2951717972755432 -0.05691169202327728 0.07419368624687195
-0.3612879812717438 0.2074756771326065 -0.9268594980239868
0.5729389190673828 -0.593526303768158 0.45536723732948303
-0.14274665713310242 0.8556033372879028 -1.141806960105896
-0.6200297474861145 -0.5735946297645569 1.5755285024642944
-1.0820642709732056 -0.36720478534698486 -0.7783448100090027
-1.366702914237976 -0.3068586587905884 0.19071605801582336
0.09235997498035431 0.9191087484359741 -0.5702373385429382
1.0063554048538208 0.026104211807250977 0.18995115160942078
-0.3184417188167572 -0.6364302039146423 -1.0340040922164917
-0.1490825116634369 0.5940442681312561 -0.026556607335805893
-1.3347162008285522 0.075095534324646 1.460972547531128
-0.7935750484466553 -0.6200516819953918 -0.19902941584587097
2.4067916870117188 0.04943855106830597 0.8506985306739807
-0.11650214344263077 -0.2818618416786194 -1.0797860622406006
1.6036837100982666 -0.5099800229072571 1.2492092847824097
-1.733465313911438 0.21069273352622986 0.8864973187446594
2.8138949871063232 -0.3785780072212219 -0.912169337272644
-1.531508445739746 0.8317117691040039 0.9415306448936462
-1.7440606355667114 0.28194254636764526 -0.5115041136741638
-1.671605110168457 0.26467961072921753 -0.7362291216850281
-1.21956205368042 0.14540986716747284 1.1314995288848877
-0.13800272345542908 -0.14895525574684143 -1.045378565788269
1.537287950515747 -0.190912127494812 0.29535889625549316
-1.560538649559021 -0.5773240327835083 1.19036066532135
0.11087514460086823 -0.5973866581916809 0.1831699013710022
-1.2923794984817505 0.4945610463619232 -0.7052222490310669
-2.5866811275482178 0.3692365288734436 0.1393849104642868
0.25207871198654175 0.8268700838088989 0.08489736169576645
-1.4367371797561646 0.10036514699459076 0.6626018285751343
-0.13794079422950745 0.5525504946708679 0.9860154986381531
1.021877408027649 0.33565759658813477 0.5872147083282471
-1.3305602073669434 -0.3861405551433563 -0.4769980311393738
1.1747313737869263 0.4178023934364319 -0.07112865895032883
2.807058572769165 -0.6273154616355896 0.23242107033729553
1.293971061706543 -0.07097575068473816 -0.8913058042526245
-0.19752132892608643 -0.33590567111968994 0.16275730729103088
1.662157416343689 -0.1849268525838852 -0.5491495728492737
0.8452280163764954 0.27950960397720337 0.7111184597015381
-1.8028392791748047 0.45676714181900024 1.5329879522323608
0.35937532782554626 0.011859104037284851 0.7141440510749817
2.6138839721679688 0.030269339680671692 0.18492116034030914
-0.9833831191062927 0.17111808061599731 -1.545210361480713
-0.16793593764305115 1.0234507322311401 -0.7019565105438232
0.07599867880344391 -0.5797594785690308 -1.0609428882598877
-1.2759536504745483 0.8955686092376709 0.6621066927909851
-1.6298664808273315 0.8927344083786011 -0.803934633731842
2.2708892822265625 0.0722024142742157 0.34552350640296936
0.8724724054336548 -0.2617919445037842 -1.611914873123169
0.9129369258880615 0.2272702157497406 -0.027334420010447502
0.44854098558425903 -0.6305302381515503 0.40197229385375977
2.158395290374756 0.16521090269088745 0.8674270510673523
1.8674116134643555 0.5952664613723755 0.3952467441558838
2.094087839126587 0.12373100221157074 0.7014617919921875
0.2148945927619934 0.6730524301528931 -1.2645161151885986
1.556002140045166 -0.2893235683441162 -0.5132653117179871
-0.2227570116519928 -0.31361275911331177 -0.44070160388946533
-0.2575051188468933 -0.596223771572113 -1.329571008682251
-0.13221345841884613 -0.5795694589614868 -0.8331703543663025
2.36181378364563 -0.15888507664203644 1.3807883262634277
0.304007887840271 -0.6185058951377869 0.8740113377571106
-1.3089592456817627 -0.268995463848114 0.3471911549568176
2.3450379371643066 -0.4297884702682495 -0.6848228573799133
1.2071689367294312 -0.02141621708869934 -0.20648479461669922
2.297657012939453 -0.5913692712783813 -0.16719211637973785
-1.3913793563842773 -0.34299153089523315 -0.43711477518081665
1.0905390977859497 0.1986297070980072 -1.1510781049728394
2.41969895362854 -0.16607360541820526 0.5694827437400818
0.26691317558288574 -0.5945391058921814 0.2464335560798645
1.8287185430526733 0.47165200114250183 -1.5240893363952637
-0.30142942070961 -0.06362023949623108 -0.29313862323760986
0.042944394052028656 0.15022099018096924 0.368898868560791
-0.28693145513534546 -0.6335856914520264 -1.2639193534851074
1.899019479751587 0.48383811116218567 0.6153020262718201
-2.9425008296966553 -0.2722685635089874 -0.2654513120651245
-2.088386297225952 0.0001958906650543213 1.4879144430160522
-1.1993436813354492 -0.04637886583805084 -1.151618242263794
3.0342891216278076 0.36849164962768555 0.37276917695999146
-1.9542495012283325 0.9816523194313049 -0.17723868787288666
-1.5932517051696777 -0.1735534816980362 -0.046025440096855164
-0.2850203514099121 -0.4922839403152466 1.0574554204940796
-1.6400575637817383 0.34495267271995544 0.44136905670166016
0.5142661333084106 -0.6724840998649597 0.20941579341888428
-0.7240297794342041 0.37552571296691895 -1.049561858177185
-0.07027452439069748 -0.5949466228485107 0.8893356323242188
-0.24887841939926147 1.015210747718811 0.6495586037635803
0.5234081149101257 0.5745540857315063 -0.28417155146598816
1.210072636604309 0.6073198914527893 -0.2954789400100708
-1.7936145067214966 -0.34908390045166016 -0.9750338792800903
2.742321014404297 0.352579265832901 -1.0865318775177002
-0.2827146649360657 0.4128323793411255 -0.48765966296195984
-1.9878989458084106 0.8051121234893799 1.1499595642089844
2.638801336288452 0.46557849645614624 0.2375127524137497
0.534846842288971 0.6748175024986267 -0.16613028943538666
2.3954708576202393 -0.570761501789093 -0.7421133518218994
-1.35292649269104 0.2771992087364197 -0.9370832443237305
1.2923438549041748 -0.056060731410980225 0.27577832341194153
2.516010284423828 0.3576114773750305 -0.5028537511825562
