ply
format ascii 1.0
element vertex 810
property float x
property float y
property float z
end_header
1.8932640552520752 0.35901013016700745 0.5309133529663086
2.211848735809326 0.4068753719329834 0.4177995026111603
0.56191486120224 0.38389772176742554 0.5598777532577515
1.4866130352020264 -0.054247647523880005 -0.5572803616523743
-1.4723738431930542 0.11501477658748627 0.6726706027984619
0.9711899757385254 -0.24615246057510376 -0.2278272807598114
0.46990853548049927 0.3830695152282715 0.2574065029621124
-0.8529615998268127 -0.07183060050010681 -0.6716862916946411
-0.7228960990905762 0.37376442551612854 0.09628257155418396
1.7950782775878906 0.3857060968875885 -0.5101627707481384
0.08992214500904083 -0.2954344153404236 0.4739663004875183
-1.4564847946166992 0.3753076195716858 0.2010836899280548
0.20742329955101013 -0.10734632611274719 -0.6580135822296143
-2.0977516174316406 -0.23215585947036743 -0.43342462182044983
-2.5629940032958984 0.3216060400009155 0.042064305394887924
-2.272085189819336 0.7526916861534119 0.5526185035705566
-1.0803241729736328 -0.25431859493255615 -0.3208473026752472
-2.0471208095550537 0.7357966899871826 0.5751753449440002
1.828831434249878 0.02990981936454773 -0.4841650724411011
2.0320537090301514 -0.20100915431976318 -0.22746530175209045
2.2958953380584717 0.39208564162254333 0.44368016719818115
-0.7011130452156067 0.36232852935791016 0.7486457824707031
1.8995569944381714 -0.219709575176239 0.23438329994678497
-0.4332059919834137 -0.06377342343330383 0.6463474631309509
-2.1720731258392334 0.6964206099510193 0.6643326878547668
1.9768805503845215 0.0008250027894973755 0.4077134430408478
-1.3575888872146606 0.3241231441497803 0.6863157153129578
-1.727501630783081 0.39130187034606934 -0.6692927479743958
-1.7520285844802856 0.7049709558486938 -0.660316526889801
-1.532968282699585 -0.2401084303855896 0.403138667345047
0.38807979226112366 0.14476138353347778 0.707392692565918
2.881549596786499 0.184538796544075 0.1578843593597412
1.8556742668151855 0.14979666471481323 0.5060580968856812
-1.2361743450164795 0.3929681181907654 -0.16892878711223602
-0.5866695642471313 -0.25578033924102783 0.33210721611976624
1.0661014318466187 0.16166572272777557 0.6587659120559692
-1.566679835319519 0.3792059123516083 0.36086899042129517
-0.8278484344482422 -0.2484898865222931 0.24494501948356628
2.686192274093628 0.021812662482261658 0.07269154489040375
-0.7609891891479492 0.4192447066307068 0.5422672629356384
2.3730649948120117 0.3708644509315491 -0.13390788435935974
-2.5159571170806885 0.11884377896785736 0.19294779002666473
-0.14106562733650208 0.13628359138965607 -0.7459990382194519
1.6357452869415283 -0.16351573169231415 0.40907934308052063
-1.9132921695709229 -0.25806838274002075 -0.2080117017030716
1.6747883558273315 -0.22398854792118073 0.2793811857700348
-2.419499635696411 -0.1990000307559967 0.12436382472515106
0.37022697925567627 0.38496339321136475 -0.2783932685852051
-2.5637121200561523 0.367245078086853 -0.25669029355049133
2.0721163749694824 0.3494570255279541 0.5009216070175171
-0.7600603699684143 0.32211512327194214 0.7304203510284424
0.3172522783279419 0.08203890174627304 0.697435200214386
2.795227289199829 0.241434246301651 0.22258496284484863
2.8877580165863037 0.08911198377609253 0.02256685122847557
-1.5413565635681152 0.4139249324798584 -0.3654438555240631
2.6188762187957764 0.37728947401046753 -0.04138161242008209
-0.638315737247467 0.43141597509384155 0.6881013512611389
0.4817529022693634 0.02178993821144104 -0.707707941532135
-1.1992213726043701 0.3753582835197449 0.707622230052948
-2.5484485626220703 0.3638613224029541 -0.3331958055496216
1.4525527954101562 0.053575217723846436 -0.5920459032058716
-1.7720298767089844 -0.22591322660446167 -0.4476187527179718
-0.292692631483078 0.10705801844596863 -0.7335100173950195
-0.3660057783126831 0.385573148727417 -0.11428731679916382
-2.5501747131347656 0.24929362535476685 -0.1566765010356903
-0.9738693833351135 0.5022608041763306 -0.6007261872291565
1.8008091449737549 0.3171568810939789 -0.5896098017692566
2.5680108070373535 0.28759562969207764 0.31439408659935
-1.9349390268325806 0.14729581773281097 0.6596634387969971
-1.8191261291503906 0.7485238909721375 0.2133830338716507
-2.576413154602051 0.6342105269432068 -0.31805703043937683
-2.411149024963379 -0.2201193869113922 -0.013357988558709621
2.3962316513061523 0.39557039737701416 -0.02188008837401867
2.3045547008514404 -0.053700417280197144 -0.26101237535476685
-0.4792601466178894 0.37906572222709656 0.47246870398521423
-0.7260484099388123 0.019503995776176453 0.6782469153404236
0.9387038946151733 0.3829023540019989 0.6970964670181274
-2.4040563106536865 0.10310733318328857 -0.5560972094535828
-0.3116345703601837 0.1907639503479004 0.7134467363357544
1.4787511825561523 0.3909907341003418 0.2371152639389038
1.7931511402130127 0.10403339564800262 -0.5214883089065552
-0.4638177156448364 0.3903462588787079 -0.18095515668392181
0.5700750946998596 -0.08465278148651123 0.6308164000511169
-2.080018997192383 0.007128328084945679 0.5649150013923645
-0.47449830174446106 0.38767632842063904 0.130126953125
0.681454598903656 0.002312406897544861 0.6451253294944763
0.6551703214645386 -0.22672507166862488 -0.5531290173530579
-0.008566733449697495 0.165603369474411 -0.7516343593597412
0.9430019855499268 -0.3061865568161011 0.3592047095298767
-0.40440791845321655 0.06854648888111115 0.6906396150588989
-0.3605238199234009 0.3315799832344055 0.7561184167861938
-2.427155017852783 -0.002792447805404663 -0.5148102045059204
0.22923922538757324 0.22447443008422852 -0.7711547017097473
-0.9035080671310425 0.009911298751831055 -0.702831506729126
2.5960936546325684 0.4238542914390564 0.2797534167766571
-1.0342110395431519 -0.2534319758415222 -0.3552763760089874
-2.091155767440796 0.7659901976585388 0.08545303344726562
2.404053211212158 0.42149093747138977 0.37747886776924133
-1.716025471687317 0.37883609533309937 -0.11706718057394028
1.1710152626037598 0.37615644931793213 -0.3250834345817566
-2.2264835834503174 0.29614952206611633 0.6590613126754761
1.3288416862487793 -0.23838132619857788 -0.31378012895584106
0.8510235548019409 0.13669496774673462 -0.7015370726585388
-0.27275925874710083 -0.25538116693496704 -0.5249404907226562
2.070094108581543 0.4133128821849823 0.3869995176792145
-2.5561819076538086 0.755378007888794 0.03250926733016968
0.17989861965179443 -0.20944416522979736 -0.5874632000923157
-0.31174784898757935 -0.23751479387283325 0.34977859258651733
0.6768810749053955 -0.2163180112838745 -0.5514594912528992
1.4034631252288818 -0.2761046290397644 -0.318472683429718
1.118870496749878 0.3927871584892273 -0.13957804441452026
-2.369823455810547 0.17565740644931793 0.6387866139411926
-0.7908058762550354 0.3736312985420227 -0.0025786831974983215
-1.7455940246582031 0.36536678671836853 -0.6746768355369568
-0.9311753511428833 0.1343863159418106 -0.7314333915710449
1.8657972812652588 0.2701892554759979 0.546766459941864
0.26606348156929016 0.11600720137357712 0.7048465013504028
1.3288072347640991 0.20676034688949585 0.6373547315597534
-1.9400125741958618 -0.20675861835479736 -0.48150497674942017
-1.2742645740509033 -0.1853403002023697 -0.5548762679100037
0.7972387075424194 -0.09347395598888397 0.5942476391792297
-1.850400447845459 -0.2671874761581421 -0.0045914617367088795
-1.033930778503418 -0.252229779958725 -0.3047839403152466
-0.6481386423110962 0.39474278688430786 -0.38761746883392334
1.444425344467163 0.3911636173725128 0.2006828635931015
-0.8756044507026672 -0.2447819709777832 -0.268252968788147
-1.8167773485183716 0.4485476613044739 0.34697049856185913
-0.12048515677452087 0.33574074506759644 -0.7749173641204834
-0.9584870338439941 -0.026376858353614807 0.6473891139030457
1.6523023843765259 0.3799668252468109 -0.074528768658638
-2.3937265872955322 0.7106736302375793 -0.6182182431221008
2.151811361312866 -0.017510071396827698 0.3258953392505646
-1.250057578086853 -0.25726261734962463 0.05860842391848564
1.1006430387496948 0.386849582195282 0.3869885206222534
0.2178415209054947 0.4027184844017029 0.7225104570388794
1.1698907613754272 -0.09566418826580048 -0.5935575366020203
0.6870037913322449 -0.05263543128967285 -0.6576859354972839
2.1806087493896484 -0.20366734266281128 0.17259491980075836
-0.5397055745124817 0.46785813570022583 -0.7008008360862732
1.3748220205307007 -0.2550584077835083 -0.1490582823753357
-2.2496211528778076 -0.24236062169075012 0.20936650037765503
-1.9120177030563354 0.17794586718082428 0.6770535707473755
-2.4459054470062256 0.741395890712738 0.6347994804382324
-1.29073166847229 -0.21493303775787354 0.5140275359153748
-2.3875718116760254 0.7847728133201599 -0.15964734554290771
1.0747026205062866 0.39057207107543945 -0.22377106547355652
0.02285940945148468 0.381281316280365 -0.003081353846937418
-2.3794727325439453 0.34980309009552 0.661486804485321
-1.1381402015686035 -0.25866639614105225 -0.06804652512073517
0.6129973530769348 0.3779858350753784 -0.4021386206150055
-1.810407280921936 -0.25953394174575806 -0.13963231444358826
2.890578269958496 0.4081801772117615 0.015545451082289219
-1.783596396446228 -0.12829257547855377 0.5129418969154358
-2.5309665203094482 0.10481496900320053 -0.034469593316316605
-1.0016552209854126 -0.031535401940345764 -0.6776599884033203
-0.612424373626709 0.3895452618598938 0.3210754692554474
-1.1985342502593994 0.4981950521469116 0.6447868347167969
-0.5350601673126221 0.3824475407600403 -0.3869113624095917
-0.08364324271678925 0.37860000133514404 0.24751465022563934
-1.1632299423217773 0.3718950152397156 -0.22382067143917084
1.4579668045043945 0.1282442808151245 0.6009879112243652
-2.5619139671325684 0.5217849016189575 -0.15218894183635712
2.4063448905944824 0.3787147104740143 -0.24431684613227844
-1.4125874042510986 -0.2577340006828308 -0.348300963640213
-2.5494048595428467 0.2726716995239258 -0.056182313710451126
-1.8549774885177612 0.3851597309112549 -0.6546999216079712
-2.500765085220337 0.5965368747711182 -0.569007396697998
0.763847291469574 0.4627663791179657 -0.5208858847618103
1.5108038187026978 0.3862849771976471 0.016402069479227066
-1.2017961740493774 -0.24277085065841675 -0.5314661860466003
1.2546203136444092 0.3994847536087036 -0.5931912064552307
-1.7935867309570312 -0.23970645666122437 0.07997606694698334
-1.5191632509231567 0.3844861388206482 0.3709183633327484
-1.90434992313385 0.4725583791732788 0.658369243144989
-1.66646146774292 0.45849186182022095 -0.42705973982810974
1.7418441772460938 0.1371537446975708 -0.5506622791290283
0.8298465013504028 0.37027865648269653 0.3259933888912201
0.8421819806098938 -0.25302499532699585 0.01584962196648121
1.218096375465393 0.3948138952255249 -0.03148326277732849
2.0401270389556885 -0.23379111289978027 0.13027353584766388
-1.7153698205947876 0.7166854739189148 0.19138874113559723
-0.40095824003219604 0.15706123411655426 0.7123435139656067
-2.5283660888671875 0.06776057183742523 -0.1878141164779663
-2.2519681453704834 -0.24453815817832947 0.03828946501016617
-0.9013466238975525 -0.003044411540031433 -0.7071582078933716
-2.502782106399536 0.03402876853942871 -0.1385679990053177
0.905647337436676 0.3906869888305664 0.09594548493623734
1.1904290914535522 0.3888486921787262 0.19656401872634888
-1.909537672996521 0.7636071443557739 -0.5871174335479736
0.9413471817970276 0.3860926628112793 0.18500231206417084
-1.4137331247329712 0.4042925238609314 0.42868632078170776
-1.8977442979812622 0.25435563921928406 0.6994706392288208
0.2930578589439392 -0.25898969173431396 -0.1634838730096817
-0.06919637322425842 0.3374687433242798 -0.7700371742248535
-0.9459897875785828 -0.2555733919143677 0.06071612611413002
1.8263651132583618 -0.2247093915939331 0.28062334656715393
2.0876593589782715 0.38293278217315674 0.11482768505811691
0.2833935022354126 -0.2574692368507385 0.4260145127773285
0.39107316732406616 0.3826221525669098 -0.31912776827812195
1.0091646909713745 -0.25568240880966187 -0.36121466755867004
1.3460346460342407 0.41695690155029297 0.3338033854961395
-2.5833351612091064 0.6396223306655884 0.359155535697937
2.1976144313812256 -0.2443973422050476 0.13852302730083466
-1.6528931856155396 -0.07896433770656586 0.5647141933441162
-2.524989128112793 0.11810174584388733 0.07332699000835419
-2.316707134246826 -0.23257571458816528 -0.3488272428512573
-1.997873067855835 0.7611862421035767 -0.5028016567230225
1.8200172185897827 0.3779889941215515 0.5368813276290894
0.5284689664840698 0.26563841104507446 -0.7556301355361938
-1.6727887392044067 0.5357031226158142 0.6515060067176819
2.8814127445220947 0.04459331929683685 0.00098709505982697
2.466053009033203 0.11077813804149628 -0.32123562693595886
-2.2690021991729736 0.7782777547836304 -0.20394636690616608
0.21161657571792603 0.376282274723053 -0.06750116497278214
-1.534253478050232 -0.2664884924888611 -0.00226329336874187
2.0217411518096924 0.0920693650841713 -0.44781064987182617
-1.213494062423706 -0.2609526515007019 0.11008873581886292
1.2664743661880493 -0.2102387249469757 -0.5181203484535217
-0.949478030204773 0.3906719982624054 -0.23563210666179657
1.3367633819580078 -0.2705386281013489 -0.42249158024787903
0.437766432762146 -0.25028613209724426 -0.5061660408973694
-0.36956509947776794 -0.22598963975906372 -0.2733445167541504
1.4652245044708252 0.40565741062164307 0.36040428280830383
-0.15227070450782776 0.37728288769721985 0.20898261666297913
2.450270891189575 -0.07113716006278992 -0.17714020609855652
-0.9242317080497742 0.4158596694469452 -0.4645257592201233
2.2082905769348145 0.3117496371269226 0.45817774534225464
1.2721056938171387 -0.24560394883155823 -0.26656869053840637
2.2844367027282715 0.3749241828918457 -0.18701595067977905
1.3014224767684937 0.08881288021802902 -0.6328767538070679
0.7848703861236572 -0.23672562837600708 -0.48432764410972595
1.3620758056640625 0.38948965072631836 0.5222910046577454
-1.9082740545272827 0.7479210495948792 0.0464889332652092
-1.6105506420135498 0.40326830744743347 -0.3964002728462219
0.5716475248336792 0.25609326362609863 0.71947181224823
1.5984528064727783 0.38890716433525085 0.05010603368282318
-2.3216712474823 0.34313449263572693 -0.5966198444366455
0.6601954698562622 0.38435691595077515 0.33795198798179626
1.5287226438522339 0.3588714897632599 -0.6571608185768127
-0.7534804940223694 0.39065927267074585 -0.16720160841941833
-1.472407579421997 -0.14690515398979187 0.5557335615158081
-2.492323875427246 0.762150764465332 0.06522073596715927
0.790027916431427 0.3822725713253021 -0.11846142262220383
-1.536041498184204 0.09621694684028625 -0.6427087187767029
0.059030648320913315 0.3855705261230469 0.2082860767841339
1.9520368576049805 0.40762585401535034 -0.1619858741760254
1.3851523399353027 -0.24706411361694336 0.30080074071884155
-0.535750687122345 0.0034911632537841797 0.6684649586677551
-2.5522074699401855 0.7193750739097595 0.56900954246521
0.9387438893318176 0.40082940459251404 -0.6050014495849609
-2.5474390983581543 0.3071973919868469 0.31879687309265137
-1.821913719177246 0.7508921027183533 -0.04148432984948158
-1.917991042137146 0.7440348863601685 0.20944556593894958
1.2847384214401245 -0.23843243718147278 -0.08894066512584686
-2.4851901531219482 0.581940233707428 -0.5703860521316528
1.7500498294830322 0.3876439929008484 -0.3162977397441864
-2.436992883682251 -0.1658366620540619 -0.4364377558231354
-1.3465580940246582 -0.2591994106769562 -0.1673913598060608
2.0551364421844482 -0.1301245391368866 0.28699278831481934
0.4541606605052948 -0.23605656623840332 0.10057885944843292
-1.6911650896072388 0.39952802658081055 -0.18128535151481628
-1.8600292205810547 0.2892097532749176 0.7453314661979675
1.8846780061721802 -0.2225833237171173 -0.3210031986236572
0.6025814414024353 -0.3060559034347534 0.14823170006275177
1.1014695167541504 -0.25576913356781006 -0.009227782487869263
-0.6637914180755615 0.44562163949012756 -0.4949720799922943
0.5103009343147278 -0.23591011762619019 0.3586246967315674
0.17744889855384827 -0.25695037841796875 0.010578449815511703
-0.40623122453689575 -0.2554510533809662 0.09469868987798691
-1.0319215059280396 -0.25472643971443176 0.24462296068668365
0.5198636651039124 -0.22560924291610718 -0.41491836309432983
-2.1978015899658203 -0.178318589925766 -0.49113547801971436
1.785020112991333 0.3873327076435089 0.3125576972961426
0.7010884284973145 -0.052290186285972595 -0.6625012755393982
2.39957332611084 -0.0649409145116806 0.17379730939865112
-1.3672500848770142 0.157712921500206 0.6818033456802368
0.5622552037239075 -0.14872705936431885 0.5820713639259338
0.003535151481628418 0.04826119542121887 -0.7377580404281616
-2.5368242263793945 0.12996602058410645 -0.3745017945766449
0.38878992199897766 0.38691842555999756 0.4273805320262909
-2.543020009994507 0.3101230561733246 0.407376766204834
-2.5020716190338135 0.6169937252998352 -0.5672003626823425
-0.004466928541660309 -0.25887590646743774 -0.06613124161958694
0.1504785716533661 0.3798235058784485 0.032403748482465744
0.9693869352340698 0.38657906651496887 0.39315465092658997
1.0464056730270386 0.09957022219896317 0.644153892993927
-0.594779908657074 -0.25120097398757935 0.3355085849761963
2.104437828063965 -0.244773268699646 0.09304975718259811
-1.9619306325912476 -0.10773102939128876 0.49565377831459045
0.661283552646637 0.23751065135002136 0.7046942114830017
-0.3413075804710388 0.4328225553035736 -0.47407880425453186
1.4841762781143188 -0.2473815381526947 0.007830934599041939
2.044606924057007 -0.17887625098228455 0.25184985995292664
-0.7977300882339478 -0.1417684704065323 -0.6162412166595459
-0.282130628824234 0.37928473949432373 -0.2578278183937073
1.119057297706604 -0.26186254620552063 -0.2551451027393341
-0.6110560894012451 0.41622811555862427 -0.761040449142456
-0.6841731071472168 -0.24590054154396057 0.5122568011283875
-2.4294991493225098 0.73652184009552 0.590467631816864
1.1988999843597412 -0.2416945993900299 0.2668376863002777
-2.3306615352630615 -0.20874342322349548 -0.4245997667312622
2.5913949012756348 0.16051176190376282 -0.28906750679016113
-2.298818826675415 0.40715861320495605 0.6659659743309021
-1.6624003648757935 -0.1815580129623413 -0.5073873996734619
0.6750823259353638 0.4305490255355835 0.598559558391571
-0.05834345892071724 0.3900763988494873 0.6916097402572632
-0.4259083569049835 0.3782014548778534 -0.03411642462015152
2.7184460163116455 0.045161306858062744 0.04517155885696411
0.3236134648323059 0.38299471139907837 -0.2328479140996933
2.227323293685913 0.37991029024124146 -0.09168259054422379
1.7115623950958252 -0.24540211260318756 0.1611158847808838
-1.0206912755966187 -0.12378929555416107 -0.6408570408821106
-1.365836501121521 0.3754621148109436 -0.17784613370895386
1.9230082035064697 0.39634817838668823 -0.3645523190498352
1.9550144672393799 0.02169698476791382 -0.4427248537540436
-1.1575721502304077 0.44876715540885925 -0.7436113357543945
-1.4448586702346802 0.6412639021873474 -0.6411362290382385
-0.04873540252447128 -0.24876925349235535 0.430468887090683
-2.481739044189453 0.008295923471450806 0.3472568690776825
-2.2172086238861084 0.693497359752655 0.6553804278373718
0.06907189637422562 0.3909875154495239 0.6362253427505493
-1.389521837234497 -0.2588803768157959 -0.21257755160331726
-2.259549140930176 0.012982994318008423 0.5653608441352844
0.6185042262077332 -0.21061837673187256 -0.5709680318832397
1.3906737565994263 -0.2490566372871399 0.04117133468389511
-2.5450055599212646 0.2374982237815857 0.4940260648727417
2.049643039703369 -0.04123438894748688 0.34458187222480774
1.9745972156524658 0.3932376503944397 -0.5025549530982971
2.2573626041412354 -0.22007441520690918 0.06603869050741196
1.8050645589828491 0.38776078820228577 -0.4048946499824524
2.2954390048980713 0.4241810739040375 0.2972995936870575
0.1228325217962265 -0.2558753192424774 0.08814611285924911
-2.0303046703338623 -0.14688050746917725 0.46297553181648254
-2.3065414428710938 0.013365894556045532 0.5560137629508972
-2.364471197128296 0.7807151675224304 0.1948864907026291
2.366048812866211 -0.1466771960258484 -0.17527660727500916
2.186664342880249 0.37728437781333923 0.4775383174419403
-2.104093074798584 0.7647348642349243 0.6176475882530212
0.02843599021434784 0.380179762840271 0.1883224993944168
2.176835298538208 0.39168262481689453 -0.41212475299835205
1.4231626987457275 -0.14896917343139648 0.4757412374019623
1.440683126449585 0.413352370262146 0.32814615964889526
-0.9779359698295593 -0.15917982161045074 -0.5742186903953552
1.2810864448547363 0.36781880259513855 0.6098305583000183
-2.2781293392181396 0.7356435656547546 -0.5984593033790588
0.23672963678836823 -0.20968309044837952 0.5530354976654053
-2.051889657974243 -0.15093249082565308 -0.4831841289997101
0.2789446711540222 -0.005186259746551514 0.6730635166168213
1.1809301376342773 0.39919909834861755 -0.5178824663162231
-1.0634291172027588 0.1838531792163849 -0.765693187713623
-1.9047949314117432 0.6906876564025879 -0.6529241800308228
3.135718822479248 0.24529816210269928 -0.03630091995000839
-0.2575216293334961 0.37706151604652405 0.21308253705501556
-2.252284288406372 0.7334699630737305 -0.6176286935806274
1.634727120399475 -0.17373938858509064 0.38330772519111633
-1.0222316980361938 0.6116273403167725 -0.6186124682426453
1.5023092031478882 0.3835020065307617 -0.014063001610338688
1.016029715538025 -0.2501208484172821 0.3473781645298004
-1.6276490688323975 -0.26445120573043823 -0.16449838876724243
-2.542653799057007 0.1701798439025879 -0.1283522993326187
-2.170985698699951 0.29161331057548523 -0.6173321008682251
0.9846271872520447 0.3822079300880432 0.3275100290775299
-1.3358311653137207 0.3788301944732666 -0.10645577311515808
-2.15228533744812 -0.2585904598236084 0.35697081685066223
-1.5289076566696167 0.37833917140960693 0.10812866687774658
1.1039462089538574 -0.258330374956131 -0.05525573715567589
2.8216371536254883 0.11470220983028412 0.12174531817436218
1.5281537771224976 0.12044911086559296 0.5849015116691589
-1.316625952720642 0.5798010230064392 -0.5780170559883118
1.902589201927185 0.385066956281662 -0.10805480182170868
0.2459309697151184 -0.2543618679046631 0.43718385696411133
-1.9434881210327148 0.7478071451187134 -0.37166786193847656
0.29120078682899475 -0.11020858585834503 -0.6637902855873108
0.677316427230835 0.17287345230579376 0.6944725513458252
-0.7662309408187866 0.3979538679122925 -0.10418758541345596
-0.012756489217281342 0.08178792148828506 -0.7547099590301514
2.5109212398529053 0.4026249647140503 0.3398042619228363
-1.4685853719711304 0.5087547302246094 -0.5063351988792419
0.5122963786125183 -0.2607871890068054 -0.2268182933330536
0.17913055419921875 0.0038238316774368286 -0.7137239575386047
0.13782227039337158 -0.1780577152967453 -0.6389458179473877
0.3492680490016937 -0.09447160363197327 -0.6672266721725464
2.305448293685913 -0.13002261519432068 0.18215826153755188
0.9564234614372253 -0.026697784662246704 0.6002545952796936
-0.0012725181877613068 -0.26409968733787537 -0.05702318996191025
1.5204459428787231 0.3881630003452301 -0.407399445772171
-2.5581412315368652 0.2675916254520416 -0.2236219346523285
0.24666190147399902 0.3310544490814209 0.7487436532974243
0.2479146420955658 -0.22122544050216675 0.5520704984664917
0.34608787298202515 0.38764655590057373 -0.4953058362007141
-1.2872241735458374 0.5670637488365173 -0.5844184160232544
3.066375970840454 0.2836381196975708 -0.09255895018577576
-1.681854009628296 0.4083625078201294 -0.28048044443130493
-1.7062972784042358 0.7116755843162537 0.05874667689204216
2.5370755195617676 0.13298767805099487 0.2627096176147461
2.5411264896392822 -0.008976399898529053 -0.21143841743469238
-2.2381019592285156 0.6041014194488525 0.6631021499633789
2.9345510005950928 0.11466442793607712 -0.05946821719408035
-2.1554055213928223 -0.24566474556922913 0.13704970479011536
0.8227102756500244 0.38573214411735535 0.12531878054141998
-1.9437147378921509 0.6934003233909607 -0.6277580261230469
-2.0917093753814697 0.4388993978500366 0.676565945148468
-1.475148320198059 0.43347084522247314 0.7200766205787659
-1.2123748064041138 0.39452552795410156 0.1855776309967041
1.8346737623214722 0.19169853627681732 0.5257412791252136
-1.3457491397857666 0.10171153396368027 -0.6803877949714661
-0.2218940258026123 0.3805428445339203 0.15030355751514435
2.1740753650665283 -0.24115696549415588 -0.04599698260426521
-1.9204609394073486 0.14266575872898102 -0.6568692922592163
0.46032625436782837 0.38425275683403015 0.2934539020061493
1.0633394718170166 0.3876704275608063 0.07270269095897675
1.7866873741149902 0.3586273789405823 0.5808738470077515
-0.1000642254948616 0.3865676820278168 -0.7644435167312622
0.3125731348991394 -0.23326519131660461 -0.49318596720695496
1.8428337574005127 0.39885133504867554 0.5259727239608765
-0.6002718210220337 -0.23717159032821655 -0.007828566245734692
-0.18604707717895508 0.39926135540008545 -0.004570472054183483
1.405287504196167 0.39193442463874817 0.2341182380914688
1.2056899070739746 0.13625717163085938 -0.6657556295394897
-0.3065531849861145 0.328628271818161 0.7339183688163757
-1.1491267681121826 -0.007463172078132629 0.646078884601593
-0.21019737422466278 -0.24091044068336487 -0.5648326873779297
-0.5313053727149963 0.06034928560256958 -0.7302491068840027
-1.3717195987701416 -0.27302974462509155 -0.31777223944664
-2.5691184997558594 0.5967293381690979 0.03545226901769638
0.1697658896446228 0.374227911233902 -0.22774890065193176
0.8267987966537476 0.24822619557380676 0.6957886219024658
0.0496479794383049 0.23578807711601257 -0.7650386095046997
0.36478811502456665 0.3862009644508362 0.06316039711236954
-2.4927964210510254 -0.18480530381202698 -0.3318065106868744
1.2208001613616943 -0.039368435740470886 -0.614477813243866
-0.09515851736068726 0.33445411920547485 0.7406792044639587
-0.7834020853042603 0.13952010869979858 -0.7439834475517273
-0.14925482869148254 0.21330174803733826 0.7182016968727112
1.1575266122817993 0.3756450116634369 -0.018455006182193756
-1.344335675239563 0.39789390563964844 -0.4449632465839386
-0.29284316301345825 0.3713599145412445 -0.325690895318985
-0.8038202524185181 0.45216798782348633 0.6975440979003906
1.1155166625976562 0.3138177990913391 0.6727578043937683
-0.53305584192276 0.3856758177280426 0.44865310192108154
-0.30935826897621155 -0.2890382409095764 -0.43213334679603577
1.1885197162628174 -0.14909325540065765 0.5136646628379822
-0.7271826863288879 -0.2327670454978943 0.5335238575935364
-0.5480802655220032 0.1583782285451889 -0.7377272844314575
-0.22605809569358826 -0.2612171471118927 0.3514764606952667
1.4515362977981567 0.3949669301509857 -0.5744308829307556
-2.2768616676330566 0.7761845588684082 -0.09691841900348663
0.4696178734302521 -0.252333402633667 -0.4206578731536865
-1.4742530584335327 0.4117642641067505 0.19995050132274628
-0.5021337866783142 0.3831603527069092 0.4061495065689087
-0.901628315448761 -0.2639619708061218 -0.19013553857803345
-2.14022159576416 -0.24631857872009277 -0.14054034650325775
2.4721195697784424 -0.13749226927757263 0.09394440054893494
-2.3930675983428955 0.5824864506721497 -0.5879785418510437
-0.1141168475151062 -0.2588243782520294 -0.1674131453037262
-1.1724063158035278 0.005036398768424988 -0.6742947697639465
-1.6874040365219116 0.5954899787902832 0.5982599258422852
0.259218692779541 0.3939153850078583 -0.13758432865142822
-0.22521072626113892 0.45872342586517334 -0.5770812034606934
1.071528673171997 -0.26177072525024414 0.31755632162094116
-0.449224054813385 0.07506781816482544 0.6916312575340271
-0.5610937476158142 0.23963171243667603 -0.7431972026824951
1.9041393995285034 0.03807435929775238 0.4432409405708313
-2.5781779289245605 0.7328629493713379 -0.07849597185850143
-0.8054965138435364 0.16382449865341187 -0.7310587763786316
-1.2804157733917236 -0.24568280577659607 -0.03852758929133415
-0.9523594975471497 -0.24413660168647766 0.49013710021972656
-0.6357957720756531 0.46999475359916687 -0.6066870093345642
0.5517537593841553 -0.2689806818962097 -0.29191744327545166
1.148277759552002 0.21417075395584106 -0.6938868761062622
2.516702890396118 0.01657964289188385 -0.23006373643875122
-2.3819639682769775 0.34642207622528076 0.6570960283279419
-2.2201285362243652 0.5938021540641785 -0.6098259687423706
1.2061713933944702 -0.2480340600013733 0.20627020299434662
-0.9201228618621826 0.4341556131839752 -0.5047081112861633
0.3488212525844574 0.3893566131591797 -0.44809505343437195
-2.269386053085327 -0.2522609829902649 -0.2409111112356186
1.2935220003128052 -0.24528206884860992 0.10159164667129517
0.13913781940937042 0.4249204993247986 0.6182431578636169
0.755492091178894 0.38839012384414673 -0.07231210917234421
0.5454401969909668 0.4276667535305023 -0.7158423662185669
-0.48432010412216187 0.3796134293079376 0.30220353603363037
-0.2448350489139557 0.3126389682292938 0.7498036623001099
-2.2991373538970947 0.778609037399292 -0.2888403832912445
-2.512744665145874 0.34494924545288086 -0.5650497674942017
-2.5102832317352295 0.4890827238559723 0.5577142834663391
0.30393004417419434 0.38532590866088867 0.0990200862288475
-1.1666852235794067 -0.19727995991706848 0.5351407527923584
0.6520818471908569 0.40879765152931213 0.6442965865135193
-2.14168119430542 -0.10527391731739044 -0.5142262578010559
0.9841757416725159 0.38963258266448975 -0.1524229794740677
0.9975679516792297 0.38491886854171753 0.43804842233657837
1.6262086629867554 -0.07413791120052338 -0.5083921551704407
0.3423732817173004 0.3934357762336731 -0.5165361166000366
2.4139773845672607 0.039373576641082764 0.23526839911937714
-0.44839009642601013 0.3862248361110687 -0.3524678647518158
-2.5568439960479736 0.7579992413520813 0.046440254896879196
-0.35585886240005493 0.36158812046051025 -0.18260011076927185
-0.3214082717895508 -0.2592962682247162 0.18796974420547485
-0.7839384078979492 -0.2630922198295593 -0.40728211402893066
2.3129734992980957 0.006931483745574951 0.2713584005832672
0.7481517791748047 -0.2501855492591858 0.10807330161333084
-0.690007746219635 0.2372521162033081 0.7189609408378601
-0.1425934135913849 0.38512444496154785 0.2182784080505371
1.5356043577194214 0.39100027084350586 0.2950824499130249
-0.27841103076934814 0.24278998374938965 0.7327898144721985
-2.0010392665863037 0.0823960155248642 -0.5969462990760803
-1.0694363117218018 -0.24028727412223816 -0.4839373528957367
-1.7445799112319946 0.4423791170120239 0.6026806831359863
2.6805455684661865 0.23757371306419373 -0.2774532437324524
-2.543003797531128 0.46371492743492126 0.43562987446784973
2.615861415863037 0.08240057528018951 0.19029965996742249
-1.3528815507888794 0.41476690769195557 0.3029589354991913
-2.4453272819519043 -0.2258175015449524 -0.21033316850662231
-2.5172297954559326 0.19546662271022797 0.5538040995597839
0.3398466110229492 0.1579817235469818 -0.7548320889472961
0.6994094848632812 -0.2672073245048523 0.046296555548906326
2.457122325897217 0.3888362944126129 -0.4047536253929138
2.982815742492676 0.2161756157875061 -0.16294154524803162
-1.3166804313659668 0.5995258092880249 -0.5910207629203796
-0.8119844198226929 0.43051981925964355 0.5779445171356201
-2.535151481628418 0.37697944045066833 -0.5195153951644897
2.1390695571899414 0.42264899611473083 0.3948725461959839
2.004512071609497 0.30160921812057495 0.5276398658752441
0.5306061506271362 -0.24840569496154785 0.21222732961177826
-1.7135398387908936 0.19570258259773254 -0.6759064197540283
1.1252553462982178 -0.25608813762664795 -0.00022446527145802975
-2.1775248050689697 0.7795971632003784 -0.5672799348831177
2.8109054565429688 0.4175899624824524 0.1214546486735344
2.554002046585083 0.35141006112098694 -0.15768615901470184
-0.820643424987793 -0.2155773639678955 0.5387074947357178
-0.7157557010650635 -0.2760002017021179 -0.5157148838043213
1.5145620107650757 -0.23290103673934937 -0.06647155433893204
1.579521656036377 0.3882077932357788 -0.18408986926078796
1.0852935314178467 -0.25454846024513245 -0.15864278376102448
-0.42846232652664185 0.392413854598999 0.2927420735359192
-1.1478525400161743 0.3937271535396576 0.02201702818274498
-1.6776596307754517 0.5716896057128906 0.5048090815544128
-1.4361592531204224 -0.2644663155078888 -0.26145970821380615
-2.5697686672210693 0.47455263137817383 -0.2919304370880127
1.2802863121032715 0.2884712219238281 -0.6885132789611816
0.5931848287582397 0.32594260573387146 0.7326163649559021
2.4211621284484863 0.2793910503387451 -0.3936590850353241
-2.5172476768493652 0.2745543420314789 0.47771644592285156
1.694016456604004 0.32582399249076843 -0.6302513480186462
-1.5748735666275024 0.3859665095806122 0.0033635273575782776
-2.492556571960449 0.7664881944656372 0.4767036437988281
-2.2705771923065186 0.7240966558456421 -0.6025345325469971
-0.7129184007644653 0.4318062961101532 0.6436867117881775
-1.4955058097839355 -0.2588358521461487 -0.07272757589817047
1.647961139678955 0.3880555331707001 0.45083677768707275
2.0665283203125 0.28292715549468994 -0.503122866153717
-0.14972780644893646 0.37610912322998047 -0.07133455574512482
0.8294265866279602 0.18991515040397644 -0.7156833410263062
-0.6451482176780701 0.4415294826030731 -0.5373314619064331
1.8157150745391846 0.10924836248159409 0.5031615495681763
-0.25480782985687256 -0.01148243248462677 0.6722238063812256
0.26802828907966614 0.08482103049755096 -0.7391228079795837
2.5991814136505127 0.131040558218956 -0.2725047171115875
1.0835973024368286 0.4047064483165741 -0.4073864817619324
-2.2700812816619873 -0.2334204912185669 0.1995321363210678
-1.1871272325515747 0.5810954570770264 -0.7108790278434753
-2.4364025592803955 -0.2520168423652649 -0.2876671552658081
0.5387752056121826 0.31263238191604614 0.7316126823425293
-1.369384765625 0.15850423276424408 -0.7091859579086304
0.5955123901367188 0.3784300684928894 0.1785978078842163
-1.0414689779281616 -0.2320813536643982 0.4602855443954468
-0.03582628443837166 -0.1983075588941574 -0.6161091923713684
2.0247857570648193 0.24797874689102173 -0.5013684034347534
-1.8167129755020142 0.7162100076675415 -0.35949644446372986
2.133958339691162 0.007324397563934326 -0.36973312497138977
2.529918909072876 0.17948347330093384 -0.3266793489456177
0.5571143627166748 -0.1796465516090393 0.5450714826583862
-0.6099764704704285 -0.2503740191459656 0.2901824414730072
0.2380211055278778 0.35210609436035156 -0.1535070389509201
0.18238197267055511 -0.05711956322193146 -0.6930943727493286
-0.347471684217453 0.3849772810935974 -0.2806750535964966
0.2189876288175583 0.37039610743522644 -0.06665035337209702
-1.6631289720535278 0.6086697578430176 0.4197886884212494
-0.5142301917076111 0.333240270614624 0.7550663948059082
-1.726556658744812 0.5054408311843872 -0.25547507405281067
1.7401784658432007 -0.12730631232261658 0.379960834980011
-0.16105817258358002 0.45339110493659973 -0.6487131118774414
1.9400256872177124 -0.205470472574234 -0.28992921113967896
-1.0912001132965088 0.05388540029525757 -0.7024179697036743
1.8766015768051147 0.3030385971069336 -0.5561097264289856
2.4924721717834473 0.06217889487743378 0.22194190323352814
1.4974852800369263 -0.0334116667509079 0.5333128571510315
-2.273139715194702 -0.22447142004966736 0.22134871780872345
-1.6526768207550049 0.47078830003738403 -0.2358008325099945
1.6633961200714111 0.39098167419433594 -0.13847742974758148
1.618341326713562 0.07241979241371155 0.5361154079437256
-2.2081010341644287 0.7779979109764099 -0.31886768341064453
-1.2636189460754395 0.38085681200027466 -0.7302186489105225
-2.16422176361084 -0.22567206621170044 -0.39737963676452637
-2.5468053817749023 0.4971280097961426 0.4465283751487732
-2.2808361053466797 0.05300542712211609 0.5916562080383301
-1.615444302558899 0.577568769454956 -0.5805632472038269
-0.0019201487302780151 -0.20707951486110687 0.5514279007911682
-2.5749709606170654 0.6142672300338745 -0.4579381048679352
-0.015786144882440567 0.43891027569770813 -0.6623836755752563
0.3563341498374939 0.3862456977367401 -0.20879606902599335
-0.05074981600046158 0.38447606563568115 -0.2060701847076416
-2.549379825592041 0.27275270223617554 0.17424219846725464
-0.2753431797027588 0.21492305397987366 0.72747403383255
1.383252739906311 -0.25645190477371216 -0.4263037145137787
1.0481688976287842 0.38802021741867065 -0.05767801031470299
1.9937810897827148 0.3911236822605133 0.0146240945905447
-1.5153495073318481 0.07728616893291473 -0.6511683464050293
1.1160595417022705 -0.2551133930683136 0.20604409277439117
-1.8350539207458496 0.44544053077697754 -0.6612751483917236
-0.6451364755630493 -0.2809144854545593 0.39626550674438477
0.6311908960342407 -0.24441179633140564 0.03417252376675606
0.1476987898349762 0.46234992146492004 0.6559924483299255
-1.6877092123031616 0.3324141502380371 0.7161514163017273
-1.0712225437164307 0.38853156566619873 -0.35476154088974
-1.9758380651474 0.776981770992279 0.3927870988845825
-0.2311200350522995 -0.25888606905937195 -0.11888282746076584
1.8658790588378906 -0.1934947967529297 0.286415159702301
-0.6306018829345703 0.019207417964935303 0.6690325736999512
-0.5516493320465088 -0.2713474631309509 0.36104801297187805
2.290785312652588 0.38511401414871216 0.04471345245838165
1.5169203281402588 0.40365564823150635 0.3137463927268982
2.6606857776641846 -0.11337661743164062 -0.016795333474874496
-2.425168752670288 0.7130359411239624 0.6605198383331299
1.2242809534072876 -0.2569440007209778 -0.04476991668343544
1.1770620346069336 0.3924158811569214 -0.5943481922149658
-1.7588365077972412 0.09040900319814682 -0.6168314218521118
-2.078988552093506 0.7724319100379944 0.4557717442512512
-0.6272415518760681 0.26793399453163147 0.7281761765480042
-0.4727727174758911 0.027295634150505066 -0.7239803075790405
0.6255595684051514 0.3829951882362366 -0.30072927474975586
2.612636089324951 0.09198401123285294 -0.24138182401657104
1.6933125257492065 -0.17507681250572205 -0.4073362946510315
0.09053675830364227 -0.2526497542858124 0.030616695061326027
-0.4558753967285156 -0.2685995399951935 -0.14425547420978546
-1.429086446762085 0.38469263911247253 -0.218666210770607
-0.8065832257270813 0.3621014654636383 0.21510566771030426
0.30620718002319336 0.4059082567691803 -0.19334453344345093
0.6986598372459412 0.3885972797870636 -0.365287721157074
-1.9354634284973145 0.7473754286766052 -0.012751569040119648
0.6369118690490723 -0.25098976492881775 0.1790858507156372
-1.2084765434265137 0.47816428542137146 0.6073570251464844
-2.195038318634033 0.37085068225860596 0.6804362535476685
-1.4129130840301514 -0.09987568855285645 -0.5921090841293335
1.9603825807571411 -0.0669034868478775 0.374786913394928
-0.6584391593933105 0.4234243631362915 0.6261824369430542
0.7870572805404663 -0.14695188403129578 -0.5990917086601257
1.2170194387435913 0.12186577916145325 -0.6588015556335449
0.041073329746723175 0.13767890632152557 0.7123309969902039
1.6318025588989258 0.22061458230018616 -0.6179406046867371
-1.0296831130981445 0.5474172234535217 -0.6258830428123474
-1.5677776336669922 0.40743488073349 0.5468357801437378
1.3734620809555054 0.39138656854629517 -0.37374934554100037
-0.9622222185134888 0.22500671446323395 0.713089108467102
1.4157167673110962 -0.11503623425960541 -0.5472280979156494
-0.9614620208740234 -0.21102505922317505 0.5290567278862
-2.5657811164855957 0.6910184621810913 0.03934997320175171
1.3906325101852417 0.38724055886268616 -0.3639446496963501
1.9037940502166748 0.20946387946605682 -0.5215383172035217
-1.6086233854293823 0.38954266905784607 -0.2878379821777344
-2.547799825668335 0.21189925074577332 0.4524080157279968
0.24232561886310577 0.24341249465942383 0.73542320728302
-1.7177915573120117 0.7167935371398926 -0.15260155498981476
0.7128136157989502 -0.24989569187164307 -0.31517675518989563
-1.6598948240280151 0.6838013529777527 0.46134626865386963
-1.7699891328811646 0.7598059177398682 -0.5555340051651001
-1.9067573547363281 -0.21540889143943787 -0.45685821771621704
-1.853553295135498 0.017002910375595093 -0.5867342948913574
-2.2491471767425537 -0.21913549304008484 0.3399077355861664
1.084171175956726 -0.057803407311439514 -0.6227080821990967
-1.6458157300949097 0.3848414421081543 -0.475768119096756
-1.1419062614440918 0.3879808485507965 0.09094767272472382
-2.4161128997802734 0.2096342295408249 -0.5908219814300537
1.1621181964874268 -0.05706435441970825 -0.6068388223648071
-1.0133907794952393 0.13544808328151703 -0.721903920173645
-1.304336667060852 0.392799437046051 0.1835753172636032
2.923370361328125 0.1538764089345932 0.13355131447315216
-1.6337157487869263 -0.1744847297668457 -0.5033025741577148
0.7171013355255127 -0.24684607982635498 -0.36455419659614563
1.2484530210494995 0.3131539821624756 -0.6907707452774048
-1.7077521085739136 0.5003137588500977 0.5429205894470215
-0.7474012970924377 0.14975540339946747 -0.7276903986930847
0.3621777594089508 0.3804258704185486 0.6840843558311462
-2.0510013103485107 -0.2205660343170166 0.3044717013835907
1.6686097383499146 0.3809295892715454 0.5004982948303223
0.08927688002586365 -0.22532683610916138 0.4320533871650696
-0.6224120855331421 0.39083173871040344 0.4253409206867218
2.3309688568115234 -0.04828549921512604 -0.2675034999847412
1.3482834100723267 0.3792441189289093 -0.35194525122642517
-0.38544750213623047 0.42587804794311523 0.7020168900489807
0.9109393954277039 -0.25517749786376953 -0.22926774621009827
-2.4790101051330566 0.13369382917881012 0.5068939924240112
2.1062121391296387 -0.20350167155265808 -0.23160448670387268
-0.2843610346317291 0.3830621838569641 -0.17397460341453552
0.2731977105140686 0.42271316051483154 -0.5966822504997253
-1.7373409271240234 0.4884796738624573 -0.669823169708252
0.2496137171983719 -0.22775495052337646 0.5233249068260193
-2.556633234024048 0.3842546343803406 0.04014361649751663
0.7107279300689697 0.4272492825984955 -0.6141101121902466
1.4391663074493408 0.3862915635108948 -0.477958083152771
-0.7294965386390686 -0.2369404137134552 -0.536552369594574
0.6750811338424683 -0.23476892709732056 0.38812902569770813
0.1896710842847824 0.2695644199848175 0.7353368401527405
1.6834516525268555 0.3937471807003021 0.1411055475473404
1.6645437479019165 -0.03443951904773712 0.4801071882247925
1.3538572788238525 0.39293211698532104 -0.5690135955810547
-2.3245460987091064 0.7765089273452759 -0.32068461179733276
1.9010331630706787 -0.2312103807926178 -0.12819914519786835
-0.07148242741823196 0.3815643787384033 0.21540407836437225
-2.5828967094421387 0.6946250796318054 -0.4627684950828552
-2.572200298309326 0.30326175689697266 0.4081519544124603
-2.514141798019409 -0.12718258798122406 -0.11062490195035934
-2.3795740604400635 -0.06366515159606934 0.48242396116256714
-2.352248191833496 -0.22548732161521912 0.18360763788223267
-1.5184080600738525 -0.16173866391181946 0.5390375852584839
-2.5300180912017822 0.6115121841430664 0.6004692912101746
-0.6533566117286682 -0.2589498460292816 0.24131208658218384
1.7572071552276611 0.20189262926578522 -0.564409613609314
-1.7706912755966187 -0.26279547810554504 -0.004402675665915012
-1.6094186305999756 0.6534472107887268 -0.2326337695121765
-0.4842770993709564 0.3054487705230713 0.7390644550323486
-2.557528018951416 0.383333683013916 -0.12148625403642654
0.41772592067718506 0.38032862544059753 0.34122782945632935
-0.9838814735412598 0.06977873295545578 -0.7193462252616882
-1.1120656728744507 -0.12327711284160614 0.5841125845909119
2.3739378452301025 0.17431020736694336 0.35307809710502625
-0.7022383213043213 0.29383623600006104 0.7430346012115479
1.6861451864242554 0.11046377569437027 -0.56105637550354
2.031237840652466 0.3919900059700012 -0.3068458139896393
1.0389517545700073 0.38978445529937744 -0.2016739398241043
2.8743131160736084 0.03771345317363739 -0.02010592259466648
0.9144741892814636 0.4104364216327667 -0.7065197229385376
-1.4886491298675537 0.42262548208236694 0.6541576981544495
-2.5275397300720215 0.37430551648139954 -0.5430802702903748
-2.254216432571411 0.5009713172912598 -0.6155022382736206
0.7404201030731201 0.35849809646606445 0.7022705078125
-1.6575956344604492 0.6092711091041565 -0.3608952760696411
-0.043983448296785355 0.388744056224823 0.009306598454713821
0.2026817500591278 -0.2539472281932831 -0.13955596089363098
-1.4739245176315308 0.385204017162323 0.413271963596344
-1.1473519802093506 0.43876832723617554 0.4085084795951843
-1.1956905126571655 0.17392267286777496 0.7005531787872314
2.84077787399292 0.18926359713077545 0.16619521379470825
0.08365178108215332 0.1960134208202362 0.7252597808837891
-1.2260817289352417 -0.22231009602546692 -0.5384860038757324
0.10667473077774048 0.3821367621421814 -0.1834734082221985
-1.6410456895828247 0.6540355086326599 -0.09330575168132782
-2.43800687789917 0.15776941180229187 0.5930745601654053
0.5724263191223145 0.4060884118080139 0.6526758074760437
-0.160701185464859 0.04628051072359085 -0.7330340147018433
-2.1025795936584473 -0.21175616979599 -0.45742714405059814
1.4592561721801758 -0.19157691299915314 -0.49906057119369507
3.1198906898498535 0.28001055121421814 0.08402456343173981
0.2963974177837372 -0.24965521693229675 -0.3326072096824646
-0.6125065684318542 -0.03979732096195221 -0.6884298920631409
-0.4574359655380249 -0.25586602091789246 -0.09686701744794846
1.1144720315933228 0.30990317463874817 -0.7124152779579163
2.113020896911621 -0.033886611461639404 0.32950249314308167
1.1418404579162598 -0.1906043142080307 -0.5318648815155029
-2.0351598262786865 0.750064492225647 0.4842030704021454
-1.715087890625 0.35953864455223083 0.4599219858646393
0.9688422083854675 0.0591488778591156 0.6298735737800598
0.3365956246852875 -0.2804386019706726 -0.4425097405910492
2.1956520080566406 -0.03900519013404846 -0.32914015650749207
-0.23198580741882324 0.40390485525131226 -0.4815966784954071
1.4570307731628418 0.3922927975654602 0.12095165997743607
-1.3828682899475098 -0.2253769338130951 -0.502573549747467
-0.5972286462783813 -0.23704147338867188 -0.19335155189037323
-0.4519074857234955 0.44358786940574646 -0.7616791725158691
0.4239237308502197 0.12910401821136475 -0.7427822351455688
2.495021104812622 0.41555243730545044 0.15356263518333435
1.9893198013305664 0.38851505517959595 -0.176005557179451
2.87735915184021 0.0926617980003357 -0.11377736926078796
0.006794612854719162 0.38235974311828613 0.3620224893093109
-1.2550127506256104 0.4634433090686798 0.7097544074058533
1.812901496887207 -0.2397749125957489 -0.08148832619190216
1.909254789352417 0.3763267397880554 -0.3904868960380554
0.3040941059589386 -0.026947811245918274 -0.707517683506012
0.13291199505329132 -0.16431745886802673 -0.6337819695472717
2.1824724674224854 0.391254723072052 0.13897976279258728
-1.8883867263793945 -0.2560884952545166 -0.08312488347291946
-0.47488048672676086 0.37608247995376587 0.006335509940981865
-1.0135064125061035 -0.24163609743118286 -0.39337560534477234
0.06345932185649872 0.34428852796554565 0.7404338121414185
1.2336909770965576 -0.24735373258590698 -0.01756034605205059
-0.9356389045715332 0.4423832595348358 0.6608559489250183
-0.9410589933395386 -0.2489117532968521 -0.3571728765964508
0.21210239827632904 0.39235299825668335 0.44053664803504944
0.10065002739429474 0.3919254243373871 0.4798070192337036
-0.8650538325309753 -0.22074520587921143 0.09918373078107834
2.1731107234954834 0.3720381557941437 -0.08789505064487457
-1.4253188371658325 0.3833679258823395 -0.040058787912130356
-1.089193344116211 -0.2158997654914856 0.43072229623794556
-1.2744510173797607 -0.2482190728187561 0.22660058736801147
2.6490538120269775 -0.04394501447677612 -0.11459315568208694
-0.6990424990653992 -0.16594183444976807 -0.6207051277160645
-0.03579239919781685 0.16226287186145782 0.72225421667099
-1.1192408800125122 -0.18799281120300293 -0.5913687944412231
-1.357798457145691 -0.21631154417991638 0.5101858973503113
-0.3320941925048828 -0.08760564029216766 0.6319187879562378
2.329005718231201 -0.10709042847156525 0.17921976745128632
1.7085033655166626 0.10476961731910706 -0.5494793057441711
-1.3101153373718262 0.4111451506614685 0.49801453948020935
1.1065704822540283 0.386290967464447 0.5447632074356079
2.3626577854156494 -0.22171449661254883 -0.03219246864318848
-0.12493620067834854 0.3658275902271271 0.3954392075538635
0.23245875537395477 0.3850513696670532 0.5089985728263855
-0.7858139276504517 -0.2521202564239502 -0.10596778243780136
1.1991478204727173 0.39654791355133057 0.029175657778978348
