ply
format ascii 1.0
element vertex 806
property float x
property float y
property float z
end_header
1.2619649171829224 0.10598215460777283 0.19096949696540833
1.1367685794830322 -0.3352767825126648 0.19996005296707153
0.16761966049671173 0.03350679576396942 0.7590153217315674
0.9651550650596619 0.5808048844337463 0.541590690612793
0.9843305945396423 -0.29178276658058167 -0.11756166070699692
0.09316468983888626 0.10093511641025543 0.9373992681503296
-1.1333961486816406 0.669929563999176 -0.5877977609634399
-2.033132553100586 -0.25008639693260193 -0.3496241569519043
0.7131246328353882 0.04197897017002106 0.5827029347419739
-1.2660188674926758 0.7144020795822144 0.17091189324855804
0.25604796409606934 -0.2900335192680359 0.5485008358955383
-0.6480435729026794 0.46155846118927 0.9847081303596497
1.3998444080352783 0.43168947100639343 -0.6391797065734863
-0.3393738567829132 0.5372430682182312 0.6669619083404541
0.6616204380989075 0.44629406929016113 -0.08697379380464554
-0.5781616568565369 -0.3156231641769409 -0.3414686322212219
-0.3594149947166443 -0.0982678234577179 0.8546861410140991
-1.1272586584091187 0.2031356394290924 -0.23985961079597473
-2.0881288051605225 0.0410512238740921 -0.1541750133037567
1.906105399131775 0.20512863993644714 0.4323703646659851
-0.5489716529846191 -0.1758204996585846 -0.31282418966293335
0.3285442292690277 0.7072951197624207 -0.37727078795433044
0.9305709600448608 0.3258134722709656 0.06303811818361282
0.10264219343662262 0.38637784123420715 -0.3173206150531769
0.661135196685791 0.7168689966201782 -0.15023371577262878
-2.695491313934326 -0.22734493017196655 -0.40482187271118164
-0.5482612252235413 -0.06504149734973907 0.07822310924530029
-0.3439560532569885 0.21585924923419952 0.9234994649887085
-2.309657573699951 -0.23866841197013855 0.570328950881958
1.779435396194458 -0.30291107296943665 0.5226665735244751
0.12053464353084564 0.06946796178817749 0.4210135042667389
1.226815104484558 -0.2701866924762726 -0.4024823009967804
-0.32364875078201294 0.5667406916618347 0.7747443318367004
0.7383286952972412 0.5907078385353088 -0.7141144275665283
-1.1815767288208008 0.10719728469848633 -0.7763118147850037
-2.102041006088257 0.17095975577831268 0.29374006390571594
-0.020817726850509644 0.3069325089454651 -0.906215488910675
-0.7501367330551147 0.020805343985557556 -0.05690966919064522
0.9154922366142273 -0.21034178137779236 -0.2819772958755493
-0.816193163394928 -0.08188442885875702 -0.9434220790863037
1.7571520805358887 -0.3140025734901428 -0.23512233793735504
-0.7401412725448608 -0.03094688057899475 0.22866976261138916
-0.23421141505241394 0.6652278900146484 0.39659276604652405
-1.1779495477676392 -0.09679591655731201 0.9580248594284058
0.9196939468383789 0.26460617780685425 -0.5690930485725403
0.6793574690818787 -0.31359171867370605 -0.03779983893036842
-0.145953968167305 -0.3393017053604126 -0.504479169845581
0.8413020372390747 -0.2813858389854431 -0.7889443039894104
-0.2880319356918335 0.6558858752250671 0.2452453374862671
1.032102346420288 -0.09199313819408417 -0.15379895269870758
-1.5385676622390747 -0.10478292405605316 0.022871382534503937
0.8718208074569702 -0.008648991584777832 -0.502962052822113
-0.8729658126831055 -0.12180908024311066 -0.4002661108970642
1.7228326797485352 -0.05074547231197357 -0.030912971124053
0.3094823360443115 0.6953908205032349 0.7535474300384521
-0.8031408786773682 -0.14375266432762146 0.44153159856796265
-1.5434831380844116 0.04419684410095215 -0.4942256510257721
-0.6480534672737122 0.6209622621536255 0.7193543910980225
0.34049075841903687 0.7107806205749512 0.286683589220047
-0.8072825074195862 0.6558995246887207 0.5881546139717102
-0.7170249819755554 0.5316330194473267 -0.3713719844818115
1.185831904411316 0.024431034922599792 -0.012977534905076027
-2.5713346004486084 0.2935696244239807 0.3439613878726959
0.7933000922203064 0.5682868957519531 0.273232638835907
-0.05907047167420387 0.3284747004508972 -0.5454347133636475
0.821797788143158 -0.07563476264476776 0.8836047649383545
2.263180732727051 0.26452332735061646 -0.5357186794281006
-1.9210213422775269 -0.27364248037338257 -0.4360008239746094
-0.6981282234191895 0.2875204086303711 0.8419090509414673
0.9316298365592957 0.25665438175201416 -0.5438642501831055
0.316756010055542 0.12270638346672058 0.845839262008667
0.12098927050828934 0.4232177436351776 0.8722428679466248
1.630670189857483 -0.16912801563739777 0.6454094648361206
0.37624815106391907 -0.2202061265707016 -0.40308496356010437
1.120176076889038 0.3724249005317688 0.3088937997817993
1.2665822505950928 0.1344580501317978 -0.22893275320529938
1.333151936531067 -0.29716479778289795 -0.671972930431366
1.2917827367782593 0.5727249383926392 -0.1853886991739273
-0.45555609464645386 0.6819864511489868 0.2289089411497116
-1.8278464078903198 0.07744069397449493 -0.10173318535089493
1.9742326736450195 0.09468838572502136 0.5038254261016846
1.1912665367126465 0.12596294283866882 -0.2834208309650421
0.6140895485877991 -0.07459506392478943 0.124453604221344
0.36868423223495483 0.6356866955757141 -0.6955395340919495
-0.20923039317131042 0.710525393486023 -0.7017068862915039
-2.498056650161743 -0.18372687697410583 -0.045595940202474594
-1.1214418411254883 0.45477133989334106 0.44171127676963806
-0.8895070552825928 0.499449759721756 0.0048578763380646706
-0.8073983192443848 0.01271793246269226 -0.11328203976154327
0.018099837005138397 -0.3756179213523865 0.33118388056755066
0.7120389938354492 -0.32583993673324585 0.06248253583908081
-1.112438678741455 0.0869646817445755 -0.16045880317687988
-0.7362099289894104 0.5139124393463135 -0.7611963152885437
-1.2304154634475708 0.038334786891937256 0.26204681396484375
-0.2927582859992981 0.7803523540496826 -0.03692972660064697
-0.7261444330215454 0.24079877138137817 -0.4135306179523468
0.5956524610519409 -0.02509419620037079 0.7610678672790527
0.3724853992462158 0.1395006626844406 -0.10680317133665085
-0.4847986698150635 -0.003547295928001404 0.1843864470720291
-0.03631443530321121 -0.3046855628490448 0.5714303255081177
1.8401559591293335 0.23985978960990906 0.02922075428068638
1.456140160560608 -0.24899837374687195 0.07938595116138458
-0.35869553685188293 -0.0909232646226883 -0.1508277952671051
-1.826865315437317 0.012357622385025024 0.1910005658864975
-0.8449767231941223 -0.22869256138801575 -0.800249457359314
1.121099829673767 0.4130943715572357 0.10424873977899551
-0.44544219970703125 -0.01880890130996704 -0.19816219806671143
1.3911060094833374 -0.08155481517314911 0.013398474082350731
-1.4782785177230835 0.4080841541290283 0.2989615201950073
-0.261479914188385 0.38789480924606323 0.7051066160202026
-0.1280442476272583 0.10484951734542847 0.2149319052696228
1.882429838180542 0.21160274744033813 -0.25724756717681885
1.2142384052276611 0.3832220435142517 -0.44216054677963257
1.0150476694107056 0.07718972861766815 0.8112837672233582
-1.2435426712036133 -0.2602716088294983 1.15294349193573
0.8321528434753418 0.08380067348480225 0.9109013676643372
1.1571686267852783 0.020495370030403137 -0.021441252902150154
1.3087362051010132 0.05142810940742493 0.8222930431365967
-1.1493476629257202 0.5164269208908081 -0.03878927230834961
2.380980968475342 0.27037596702575684 -0.24810218811035156
0.9257079362869263 0.2894119620323181 -0.18596136569976807
-3.0385751724243164 0.21842798590660095 -0.3063317835330963
0.5013479590415955 0.30225715041160583 -0.11930421739816666
1.2226746082305908 0.19459590315818787 0.5407275557518005
-0.7082579731941223 0.05726245045661926 -0.013005893677473068
1.7224231958389282 -0.20637327432632446 0.7866885662078857
1.5434108972549438 0.5327051877975464 -0.11657170951366425
-1.3932592868804932 0.16800031065940857 0.11000373214483261
-1.4591342210769653 0.2165507823228836 -0.7396649122238159
-0.10243646800518036 0.2606959342956543 -0.03922649472951889
0.8839855194091797 0.26018983125686646 -0.5629302263259888
1.4678984880447388 -0.26080259680747986 -0.1698528528213501
0.3913498818874359 0.031961336731910706 -0.125655397772789
-0.9891537427902222 -0.09932306408882141 0.15563777089118958
0.8542248606681824 -0.007336288690567017 0.20958217978477478
0.6063845157623291 0.015337750315666199 -0.31739604473114014
-1.0058491230010986 -0.1462915688753128 -0.2324264943599701
0.058067623525857925 0.12045499682426453 -0.2595064342021942
0.27858346700668335 0.34627991914749146 0.07214261591434479
0.12735936045646667 -0.3024585247039795 0.37321534752845764
-1.3632725477218628 -0.010958507657051086 0.12070838361978531
1.4159767627716064 -0.11052708327770233 0.14277607202529907
0.9801591038703918 0.39832305908203125 -0.6940644383430481
0.42241066694259644 0.5556904077529907 -0.39759451150894165
0.5430783033370972 0.5298341512680054 -0.9353322982788086
1.5828361511230469 -0.059619367122650146 0.8746671676635742
-0.032342683523893356 -0.272446870803833 -0.10076351463794708
-0.9940300583839417 -0.23365336656570435 -0.6134442687034607
0.776444673538208 0.38462984561920166 -0.3057841360569
-2.241243600845337 0.25968557596206665 -0.6405143737792969
1.2930516004562378 0.4779679477214813 -0.7934460043907166
2.4393715858459473 -0.24228841066360474 0.8269261121749878
1.240484356880188 -0.12668189406394958 -0.16292718052864075
-0.20615944266319275 -0.2847385108470917 0.4239446818828583
-1.6926512718200684 -0.00027760863304138184 -0.717568039894104
-0.6404300332069397 0.21651166677474976 -0.7992048263549805
-0.4867396652698517 -0.39989030361175537 0.6802989840507507
0.07670958340167999 0.09126676619052887 0.2992311716079712
0.4658668637275696 -0.03782404959201813 -0.24612723290920258
-1.145174264907837 0.2839662432670593 0.21387358009815216
-1.654300332069397 -0.24295490980148315 0.1767839640378952
-0.4535238742828369 -0.26219844818115234 -0.2185266613960266
0.0462515689432621 0.019955679774284363 -0.9033600091934204
-1.290926218032837 0.08155223727226257 0.42618680000305176
0.23543187975883484 -0.014339983463287354 -0.31854477524757385
0.06693267822265625 0.5129740238189697 -0.1322283148765564
-1.2796611785888672 0.011933758854866028 -0.7695729732513428
1.3892968893051147 -0.3424193859100342 0.5485771894454956
-0.9036621451377869 0.5454506874084473 0.8769069910049438
-1.178875207901001 -0.024122580885887146 0.1713935136795044
1.8008577823638916 -0.10086062550544739 0.15725906193256378
0.040386300534009933 0.42569488286972046 -0.46703436970710754
-0.969986081123352 -0.24591563642024994 0.29600217938423157
1.5792690515518188 0.13950374722480774 -0.2538914084434509
0.10979428887367249 -0.2575908303260803 0.7761269211769104
-0.8320278525352478 0.12835200130939484 -0.4399951696395874
1.074153184890747 0.3373792767524719 -0.7251606583595276
-0.740260124206543 -0.10317577421665192 0.5503958463668823
1.5148260593414307 0.10926006734371185 0.28889918327331543
1.351881980895996 0.44925257563591003 0.4389280676841736
1.1170822381973267 -0.3169572353363037 -0.12083347141742706
2.3290815353393555 -0.1730397641658783 -0.25808054208755493
-0.48812681436538696 0.5564752817153931 -0.8856074810028076
-0.8447191119194031 0.23165924847126007 -0.1198740303516388
-1.855240821838379 -0.13648000359535217 -0.6846000552177429
-0.7908121347427368 -0.22674362361431122 -0.2042311131954193
-1.1258100271224976 0.36112961173057556 0.20966477692127228
1.025442123413086 0.35710638761520386 -0.10265287756919861
-0.7168135643005371 0.13483624160289764 0.20123323798179626
-0.6993086934089661 0.7256588935852051 0.5298177003860474
1.3485904932022095 0.3301185369491577 0.397477924823761
0.48293155431747437 0.6275051832199097 -0.3460359275341034
-0.6636396646499634 0.059747740626335144 -0.9120205044746399
-0.8785321712493896 0.46497642993927 -0.3053044378757477
0.37494781613349915 0.4340950846672058 -0.9018915891647339
-0.6564253568649292 -0.0755864679813385 -0.7084496021270752
1.3071306943893433 0.1873985379934311 0.32071489095687866
-0.25008219480514526 0.3206442892551422 0.5010061860084534
1.062131643295288 -0.11098375916481018 0.0267231035977602
-0.6132124066352844 -0.05469714105129242 1.0842597484588623
1.6640946865081787 -0.21222050487995148 0.611851155757904
1.4308066368103027 -0.33895576000213623 0.5709830522537231
0.0353260338306427 0.7327218055725098 0.5504965782165527
1.5366668701171875 -0.3033147156238556 -0.43751099705696106
1.1612169742584229 -0.14529897272586823 0.6665679216384888
0.7187349200248718 0.17304809391498566 0.03799997270107269
0.9264653921127319 0.6141172051429749 -0.12035825848579407
-0.24474899470806122 0.3117305040359497 0.5730175375938416
-0.2894977629184723 0.6954976320266724 0.24693052470684052
0.028836868703365326 0.579578697681427 0.5221078395843506
-0.6284746527671814 0.21367798745632172 -0.24637852609157562
0.9012223482131958 0.7257066369056702 -0.19843651354312897
1.42713463306427 -0.050564736127853394 0.026509346440434456
-0.5600674748420715 -0.11335675418376923 0.3327762484550476
-1.291382074356079 0.41876763105392456 -0.6698627471923828
-0.6577185392379761 0.05559207499027252 0.5923078656196594
-2.4516446590423584 -0.06363026797771454 0.23617073893547058
-1.2205142974853516 -0.019954189658164978 0.1085110530257225
-1.8003307580947876 0.29663437604904175 -0.6233916282653809
1.0863949060440063 0.29139894247055054 0.052097782492637634
-1.020017147064209 0.6286652088165283 -0.14441373944282532
1.1536897420883179 0.26486122608184814 0.27347761392593384
1.6901553869247437 0.14261595904827118 -0.7205790877342224
-0.9510114789009094 0.2466464787721634 -0.004109518136829138
0.4439646601676941 0.17428509891033173 -0.9124242067337036
-1.0027199983596802 0.2962911128997803 -0.22096863389015198
1.851282000541687 -0.29959651827812195 -0.37014099955558777
1.1235970258712769 -0.2128056287765503 0.21120838820934296
-0.2399396300315857 0.2153424769639969 -0.31909826397895813
-0.10459201037883759 0.19022849202156067 0.4072224497795105
-1.648361325263977 -0.1134713888168335 0.4485793709754944
-1.1593708992004395 0.4708416163921356 0.13490861654281616
-1.7492276430130005 -0.3816160559654236 0.19266480207443237
0.26077592372894287 0.5512996912002563 -0.21624474227428436
2.086542844772339 0.31714367866516113 0.4069831669330597
0.6476145386695862 -0.2891341745853424 -0.35169321298599243
0.5384545922279358 -0.14720936119556427 -0.2220173329114914
0.5095025300979614 -0.06506024301052094 -0.11828861385583878
1.3887327909469604 0.17924444377422333 -0.78904128074646
-1.5414921045303345 0.13084957003593445 0.058621298521757126
-0.8254854679107666 -0.18694448471069336 -0.5990911722183228
-0.6735635995864868 -0.3056691288948059 0.15818065404891968
-1.1293801069259644 0.040343835949897766 0.49552735686302185
-0.06964336335659027 0.5865907669067383 -0.09595346450805664
-0.47283563017845154 0.026647672057151794 -0.8957380056381226
-1.6947448253631592 -0.0007263869047164917 0.896760106086731
2.393260955810547 0.2022719383239746 -0.35528016090393066
-0.9444347023963928 0.46596843004226685 0.2741576135158539
-1.0842612981796265 -0.1269555687904358 -0.5152303576469421
-1.4530194997787476 0.2130099982023239 0.06890375912189484
1.1228163242340088 0.7420288920402527 0.024803943932056427
1.7065818309783936 0.48190632462501526 -0.12635156512260437
0.555189847946167 -0.10458298027515411 -0.1317867934703827
-0.6609894633293152 0.12639780342578888 0.0629291832447052
0.5788503885269165 0.022468343377113342 -0.7576797604560852
0.031187212094664574 0.30312246084213257 0.04994336515665054
1.673522710800171 -0.2592170238494873 -0.07597479969263077
0.40562260150909424 0.7302412390708923 -0.007764427922666073
1.7069575786590576 0.311573326587677 -0.21308980882167816
1.545141339302063 0.5715345144271851 0.5484963059425354
0.4656565487384796 0.5867782235145569 -1.1309102773666382
1.4166361093521118 -0.1253608763217926 -0.28145450353622437
0.447775661945343 -0.18979215621948242 -0.579305112361908
-2.21818470954895 -0.3620404601097107 -0.4435606896877289
0.5562183856964111 0.12186495959758759 -0.670482873916626
0.32660171389579773 0.2842632532119751 -0.9429055452346802
0.4386752247810364 0.10564379394054413 0.26271435618400574
1.1466821432113647 0.10067662596702576 0.1666380614042282
0.3162500858306885 0.5302706956863403 -0.21985222399234772
-1.1943029165267944 0.4461503028869629 -0.023832933977246284
-0.5446884632110596 -0.2590312957763672 0.6681962609291077
-0.31027671694755554 -0.34791725873947144 -0.5738297700881958
1.8610080480575562 0.06503146886825562 -0.4635939598083496
0.9996750354766846 0.09160429239273071 0.15616996586322784
-1.6243476867675781 -0.4081064462661743 0.2834184765815735
0.7481491565704346 0.3672146797180176 0.13860823214054108
-0.2841750383377075 0.15261659026145935 0.8737903237342834
0.00011499598622322083 0.41518014669418335 -0.060959890484809875
-0.9796379208564758 -0.20789915323257446 0.9743319749832153
0.2844327986240387 0.009492918848991394 0.3003692924976349
-1.8985517024993896 -0.1144009679555893 -0.044607244431972504
1.1903802156448364 0.6501678228378296 0.03680989518761635
1.4104593992233276 -0.2793732285499573 0.03318940848112106
-1.551693081855774 0.4460829794406891 -0.26564738154411316
-0.7886471152305603 -0.25401562452316284 0.45868247747421265
2.42557692527771 -0.09167340397834778 -0.11161667108535767
2.412114381790161 0.25699955224990845 -0.4870731234550476
1.2416179180145264 0.3580281436443329 -0.06476904451847076
-0.6980772614479065 0.39952969551086426 0.9297586679458618
-1.494723916053772 -0.3073655664920807 0.38966771960258484
2.0585875511169434 0.25010836124420166 0.08070473372936249
1.0810048580169678 -0.16488024592399597 0.55507892370224
2.1760075092315674 -0.31613123416900635 0.1544673889875412
-2.0081396102905273 0.31738293170928955 -0.6160391569137573
0.12705665826797485 0.09842287003993988 0.7614942789077759
1.198742389678955 -0.17305101454257965 0.4053034782409668
1.4615553617477417 0.23241353034973145 0.082044817507267
-0.16471098363399506 -0.1484593003988266 0.8501832485198975
-1.0196961164474487 -0.05281679332256317 -0.011132342740893364
0.11572802066802979 0.0036455392837524414 -0.26517337560653687
-1.8029640913009644 0.26294058561325073 0.608973503112793
1.5679693222045898 0.2049071490764618 -0.3306272327899933
1.4093388319015503 0.6146724820137024 -0.30525392293930054
0.33122196793556213 0.7752134799957275 0.19691875576972961
0.315626323223114 -0.35345447063446045 0.05791226029396057
-1.5357072353363037 -0.06463825702667236 -0.4396870732307434
0.7312445640563965 0.5162892937660217 0.908323347568512
-0.5853282809257507 0.051685184240341187 0.7409679293632507
1.5399173498153687 0.5793070793151855 -0.7758720517158508
-1.1330921649932861 0.06253774464130402 -0.34641334414482117
0.45400944352149963 -0.2067030668258667 0.03424995765089989
-0.14681658148765564 -0.13074955344200134 -0.6390674710273743
0.3295205235481262 -0.12491965293884277 0.44784411787986755
1.5633080005645752 0.21657614409923553 -0.6911023855209351
0.7319420576095581 -0.23607602715492249 0.1212473213672638
-2.326042652130127 -0.08989773690700531 0.5292549133300781
-1.1917201280593872 -0.3496761918067932 -0.1255718320608139
1.1590237617492676 -0.13636738061904907 0.1290164291858673
-1.4927455186843872 -0.03927047550678253 -0.46441683173179626
-0.6173399090766907 -0.2393202930688858 -0.6510323286056519
1.1715081930160522 -0.10012906789779663 -0.21292267739772797
0.383183091878891 0.5439844727516174 -0.009058862924575806
-0.008305307477712631 0.6628907322883606 0.7239940762519836
0.6235670447349548 0.33976781368255615 -0.31975340843200684
-1.2282664775848389 -0.13126374781131744 -0.1898016780614853
0.10139966011047363 0.21885713934898376 0.29392632842063904
0.15011444687843323 0.230907142162323 -0.822209358215332
-0.8728370666503906 -0.25434547662734985 0.26742225885391235
-1.7952232360839844 0.27073338627815247 0.8912584781646729
1.1483463048934937 0.469442754983902 0.699211835861206
1.569231629371643 0.4849167466163635 0.5803942084312439
-0.5157943964004517 0.3616074323654175 0.5267257690429688
-0.2860889434814453 0.0654328465461731 -0.6701200604438782
0.36541491746902466 0.05061802268028259 -0.25172874331474304
1.9196662902832031 -0.011582762002944946 -0.23461583256721497
1.9750152826309204 -0.07205890119075775 0.17218467593193054
-0.22474828362464905 0.2418733537197113 -0.1823107749223709
0.42424333095550537 0.5532021522521973 0.13742417097091675
-1.4933347702026367 0.00806492567062378 -0.13435965776443481
-2.704953193664551 -0.1009628176689148 -0.43942660093307495
0.9005223512649536 -0.3065412938594818 0.3130612373352051
-1.0803309679031372 0.6834675073623657 0.15613020956516266
1.4938429594039917 0.568972110748291 -0.41858866810798645
-1.7545623779296875 -0.11549188196659088 -0.04555761441588402
0.050948839634656906 0.4016253650188446 -0.1569034606218338
0.10707066208124161 -0.3357051908969879 -0.5192430019378662
0.5386503338813782 0.5510072708129883 0.5745174884796143
2.6306300163269043 0.059929296374320984 0.21848644316196442
0.21831470727920532 -0.26662999391555786 -0.37456032633781433
1.4858334064483643 -0.2536202073097229 -0.2283254712820053
-1.6206055879592896 0.033636316657066345 0.11554887890815735
-0.007853146642446518 0.4108327329158783 0.7532539963722229
1.749487042427063 0.17225484549999237 -0.6957200169563293
0.6695082187652588 0.27322134375572205 0.9309254884719849
0.9051151275634766 -0.21485547721385956 0.13846974074840546
-0.4111064076423645 0.0905439555644989 0.3230712413787842
0.8530517220497131 0.6450927257537842 0.08594326674938202
-2.315471887588501 0.3514876663684845 -0.2451552450656891
2.0075864791870117 0.0641033798456192 -0.0231484267860651
1.7676749229431152 0.3837801218032837 0.6428965926170349
-1.1624804735183716 0.577785313129425 0.012604315765202045
-1.391306757926941 -0.07900293171405792 -0.36842066049575806
-0.8515323400497437 0.7246430516242981 -0.4012325704097748
-0.8049217462539673 0.14554248750209808 0.97603440284729
0.32192209362983704 -0.315915584564209 -0.2569904327392578
1.904821515083313 0.016406401991844177 0.16154098510742188
-1.935664176940918 -0.1295567750930786 -0.1701182723045349
-0.620180070400238 0.5652863383293152 0.3252444863319397
-1.0960400104522705 0.12448443472385406 0.8409265875816345
-1.2574105262756348 -0.32008716464042664 0.31837818026542664
1.834447979927063 0.4449661374092102 0.713816225528717
0.9829584956169128 0.3515129089355469 0.05753306299448013
-0.48166027665138245 0.2990744411945343 0.029140489175915718
0.7375490665435791 0.41237714886665344 -0.49435779452323914
0.2034626454114914 0.2866533398628235 -0.7860480546951294
-1.3601140975952148 0.4731633961200714 -0.554957389831543
-2.0036003589630127 0.3896212577819824 0.34746378660202026
0.5719962120056152 0.6765108108520508 0.04198791831731796
-0.7002189755439758 0.15990211069583893 -0.06751804798841476
0.2480309158563614 0.2593068778514862 -0.915077805519104
-0.728279709815979 0.02395191788673401 -0.5976439118385315
-0.44105517864227295 0.153072789311409 -0.08640975505113602
-1.6693094968795776 -0.009990125894546509 0.20575684309005737
0.37327632308006287 0.2947116196155548 0.4216562509536743
-0.9120507836341858 -0.34305599331855774 -0.08750130981206894
-0.05790060758590698 0.7043625116348267 -0.7058950662612915
-1.2642649412155151 0.3012026250362396 -0.43564632534980774
1.291691780090332 0.3240226209163666 0.33067741990089417
0.3492787182331085 0.23536095023155212 0.9228847026824951
-0.5141245722770691 0.07954512536525726 -0.3568049371242523
1.7012498378753662 -0.2552054226398468 0.22125457227230072
0.7749993205070496 0.15798956155776978 -0.903369665145874
-1.4301518201828003 -0.21684953570365906 -0.7580142021179199
1.769668698310852 0.1554563343524933 -1.0160191059112549
-0.750370979309082 0.601614236831665 0.6676854491233826
1.2449617385864258 0.3734433650970459 0.8406975269317627
1.0387159585952759 0.1224588006734848 0.11030479520559311
-0.2878628671169281 0.24328599870204926 0.13452088832855225
-2.0176546573638916 0.4862094819545746 0.2472337931394577
-0.5146355628967285 0.27589213848114014 0.14223352074623108
-0.07436948269605637 0.29451698064804077 -0.3149089515209198
-0.36514195799827576 0.08790691196918488 0.3056845963001251
-0.4282282590866089 0.19195543229579926 0.9720757007598877
1.049710750579834 0.38414067029953003 -0.0020420383661985397
1.6003310680389404 -0.1629219949245453 -0.4354582726955414
-0.5123451352119446 -0.21407467126846313 -0.5266962051391602
-0.2988419830799103 0.34726566076278687 -0.24865774810314178
2.31837797164917 -0.003711998462677002 0.9682879447937012
-2.2011284828186035 0.4146788716316223 -0.2926356792449951
3.0533947944641113 -0.09048625826835632 0.20676398277282715
1.1379857063293457 0.24236664175987244 -0.20749728381633759
-0.9268330335617065 0.3778165876865387 -0.726473331451416
-0.9244151711463928 0.6740127205848694 -0.5458742380142212
-0.6057074069976807 -0.09371291100978851 0.21899694204330444
0.7647873163223267 0.7435121536254883 -0.3492095470428467
1.7633758783340454 0.3783153295516968 -0.36359187960624695
-1.4115996360778809 -0.12883248925209045 -0.7751051783561707
-0.8639485836029053 -0.09951342642307281 0.5668848156929016
0.36807212233543396 0.5298803448677063 0.6080374121665955
-0.5956674814224243 0.13626810908317566 0.08467593789100647
-0.395671010017395 -0.0953855812549591 -0.931808352470398
-2.272987127304077 -0.07177677750587463 -0.27259746193885803
-2.128103256225586 -0.2670920491218567 -0.37325209379196167
1.694260835647583 0.2570963203907013 -0.3278746008872986
-0.8930565118789673 -0.33765357732772827 0.09208761155605316
1.9599214792251587 -0.20525199174880981 0.6604859828948975
-0.2938825190067291 0.07992327213287354 -0.03754357621073723
-1.6932913064956665 0.4736621677875519 0.21699316799640656
-0.1907002031803131 -0.22811740636825562 -0.5766403675079346
-2.286592960357666 -0.10254305601119995 0.2966737151145935
2.102585554122925 -0.11244216561317444 -0.2386140525341034
0.9808722138404846 -0.09333668649196625 0.4351271390914917
-0.5351027846336365 0.12850616872310638 0.07601828873157501
1.6332061290740967 -0.0181073397397995 -0.047415878623723984
2.389662504196167 -0.2555292248725891 0.3927677273750305
0.5500562787055969 0.20935551822185516 0.3976413905620575
0.2150701880455017 0.34455692768096924 -0.5869462490081787
1.9041911363601685 0.42594945430755615 0.5094001889228821
1.1476389169692993 0.32141411304473877 0.14397473633289337
-1.4800405502319336 -0.28532204031944275 -0.5222954154014587
0.6952493190765381 0.03650273382663727 0.43187597393989563
-0.1819942444562912 0.009869277477264404 0.20365899801254272
-1.7048306465148926 0.11090905964374542 0.07679443806409836
1.8018168210983276 0.11550748348236084 -0.44088828563690186
1.362721562385559 0.3092585504055023 -0.012849656865000725
0.6125772595405579 0.5341295003890991 -0.6657954454421997
-0.5319913029670715 0.3412611484527588 0.3467322289943695
-2.0385634899139404 0.4102539122104645 -0.07990635186433792
-0.4198700487613678 -0.1513923853635788 -0.6001317501068115
-0.6291166543960571 0.2193083018064499 -0.18613067269325256
-1.9303443431854248 0.3113707900047302 0.21767811477184296
-2.3088951110839844 0.3596717119216919 0.332439661026001
-0.8630470037460327 -0.24696944653987885 -0.2989005148410797
0.33274585008621216 0.5994893908500671 0.8448659181594849
0.36432188749313354 0.10259760916233063 -0.5418016314506531
0.9501996636390686 0.11211192607879639 -0.21247048676013947
1.51471745967865 0.5979121923446655 0.2748546600341797
-0.019717060029506683 0.2332519292831421 0.5672503709793091
-1.3524506092071533 -0.32573655247688293 -0.3434610068798065
-1.253129482269287 0.23478443920612335 -0.07638565450906754
0.6636292338371277 -0.34267348051071167 -0.2950325012207031
-1.0953301191329956 -0.0007246136665344238 0.6308611035346985
-0.897910475730896 -0.25767120718955994 -0.7888206243515015
1.660809874534607 -0.10104994475841522 0.30672016739845276
0.9801381230354309 0.14048001170158386 -0.5886722207069397
0.7487330436706543 -0.31360846757888794 -0.770038902759552
-0.8258704543113708 0.6582260727882385 0.44181904196739197
1.3096052408218384 0.20598213374614716 -0.4235372543334961
-0.3316652476787567 -0.12257586419582367 0.5557885766029358
2.1488096714019775 -0.36993926763534546 -0.19376514852046967
1.7814924716949463 0.12365084886550903 1.0584765672683716
1.0313371419906616 -0.3366485834121704 -0.07608266919851303
0.6172134280204773 -0.28748050332069397 0.0449385866522789
1.1370621919631958 -0.3525516390800476 -0.11471468210220337
0.8023203015327454 0.7174250483512878 -0.18048188090324402
1.371050477027893 -0.17162089049816132 0.20756863057613373
-0.823669970035553 -0.033241793513298035 -0.5714130401611328
1.1725261211395264 0.04617035388946533 0.4515901803970337
-1.3616853952407837 0.11766169220209122 1.1385711431503296
0.6002402305603027 -0.30415982007980347 -0.053879037499427795
0.33163729310035706 -0.2132742553949356 -0.37385255098342896
0.9177083373069763 0.21378149092197418 0.7662652730941772
-2.494777202606201 -0.31576240062713623 -0.49035534262657166
-0.12510749697685242 -0.05527278780937195 0.9282488226890564
2.1547391414642334 -0.11348484456539154 0.6717424392700195
0.9305057525634766 -0.137203186750412 0.6513330936431885
-1.3332502841949463 0.039845556020736694 0.11095133423805237
-0.9150208830833435 0.08771845698356628 0.7551393508911133
1.294590711593628 -0.11597554385662079 0.3641204833984375
-1.2244117259979248 0.3626610338687897 -0.014401768334209919
0.5609899163246155 0.5399022102355957 -0.2513750493526459
1.251494288444519 -0.20093964040279388 -0.7667455077171326
-1.1865816116333008 -0.04868224263191223 0.9121136665344238
-1.6536142826080322 -0.3724340796470642 0.6585618853569031
0.1476438045501709 -0.27538979053497314 0.5371214151382446
0.5827735066413879 -0.3001650869846344 -0.09375832974910736
0.6037595868110657 -0.10031086206436157 -0.0077621652744710445
-0.5762788653373718 0.6221501231193542 0.5140084624290466
-1.8686095476150513 -0.2890685200691223 -0.25013306736946106
1.3880442380905151 -0.19464920461177826 0.5280247330665588
-1.822687029838562 0.42293447256088257 -0.8398730158805847
-0.2650502920150757 0.29287898540496826 -0.5240837931632996
-1.2663695812225342 -0.0706406682729721 0.7701781392097473
0.0380234569311142 0.7238178253173828 -0.46951889991760254
1.3107115030288696 -0.2828648090362549 -0.1050075814127922
-1.515612006187439 0.1815389096736908 -0.07195264101028442
1.2770169973373413 0.39166945219039917 0.25883620977401733
-0.2640262842178345 0.05467534065246582 -0.6181522011756897
2.308562994003296 0.059052541851997375 0.3237032890319824
-1.1792789697647095 -0.2895148992538452 -0.07727821916341782
0.550716757774353 -0.11845043301582336 0.7040277719497681
1.694462776184082 0.40812021493911743 0.26249754428863525
0.44865524768829346 0.047753170132637024 -0.2976108491420746
0.7374428510665894 0.27543801069259644 -0.5682464838027954
0.32729917764663696 -0.3128304183483124 0.38229143619537354
0.3713829815387726 -0.04085277020931244 -0.9032135009765625
0.6658339500427246 0.09429842233657837 0.28948158025741577
0.40615642070770264 0.1909622699022293 -0.4901615381240845
-1.6091700792312622 0.10456731915473938 0.32555365562438965
0.9880645275115967 -0.03555014729499817 0.7868703603744507
-0.25974583625793457 0.1326705664396286 0.45476233959198
-1.616129755973816 -0.2641463279724121 -0.6775289177894592
0.06225302442908287 -0.3453911542892456 0.31671324372291565
1.9536387920379639 0.4862685203552246 -0.4249974191188812
2.0731992721557617 -0.0047241151332855225 0.5801935195922852
-0.5948513746261597 -0.25910571217536926 -0.08829586952924728
-0.569280207157135 0.30461573600769043 0.3465117812156677
0.17028892040252686 0.030681192874908447 -0.056576211005449295
-0.5177904963493347 0.09327176213264465 -0.20974375307559967
-1.8028578758239746 -0.12352918088436127 0.17841288447380066
0.07157006859779358 0.5303247570991516 0.5353001356124878
1.7752327919006348 0.1957467943429947 0.837058424949646
0.8732414841651917 0.29946333169937134 -0.06451865285634995
-0.5879697799682617 -0.22695407271385193 -0.10850843787193298
-0.8576661348342896 0.12116961181163788 -0.6490185856819153
-0.9880785346031189 0.033743128180503845 0.38991886377334595
-1.354009747505188 0.4420936107635498 -0.004060341510921717
-1.5250489711761475 0.04808993637561798 0.08796899020671844
-0.7721921801567078 -0.09087343513965607 0.007314025424420834
-2.683117389678955 0.17641273140907288 -0.33653542399406433
0.3837326765060425 0.7229328155517578 -0.47003310918807983
1.6714041233062744 0.0619502067565918 0.05798028036952019
-1.4697433710098267 -0.18645697832107544 0.3895355761051178
0.18156182765960693 0.7006442546844482 0.39660418033599854
-1.6493579149246216 -0.07813090085983276 -0.3634246289730072
-1.810370922088623 0.3083592653274536 -0.7614398002624512
2.6566848754882812 -0.03298114240169525 0.4068046808242798
1.718467116355896 -0.2480384111404419 -0.5972975492477417
1.0114760398864746 -0.20867639780044556 -0.5917069911956787
0.21436402201652527 -0.26173412799835205 0.4041791260242462
0.37308356165885925 -0.330206036567688 -0.08041007816791534
0.6529121994972229 0.298098623752594 -0.4780519902706146
-0.2897721529006958 0.4995728135108948 -0.19704996049404144
1.2915303707122803 0.5356307029724121 0.4209114909172058
-0.7682884335517883 -0.210419163107872 0.2252427488565445
-0.41551560163497925 -0.30171042680740356 0.7278442978858948
-0.2995455861091614 0.035221636295318604 -0.41872474551200867
-0.015395738184452057 -0.21603302657604218 -0.47528621554374695
-0.12575677037239075 0.3675811290740967 -0.3493729829788208
-1.2234711647033691 -0.15124371647834778 -0.6194896697998047
-1.1575188636779785 0.24697944521903992 -0.3640924096107483
0.39966490864753723 0.7658094167709351 -0.12892669439315796
-0.46904563903808594 -0.20990028977394104 -0.8977792859077454
-0.23249439895153046 -0.2682049572467804 0.06928398460149765
2.394166946411133 -0.07525059580802917 0.3828778862953186
-0.33421769738197327 0.7518285512924194 -0.2047819346189499
0.9754732251167297 0.2495076060295105 -0.020289462059736252
1.5934120416641235 -0.048708975315093994 0.9202190041542053
0.48878228664398193 0.09753771126270294 0.3192521631717682
-0.6258320212364197 0.1252252608537674 -0.4232355058193207
-1.132538080215454 0.14227549731731415 0.14922653138637543
0.8306626677513123 0.4507763683795929 -0.5144580602645874
-0.251401424407959 -0.043382346630096436 -0.058179061859846115
0.013961903750896454 0.31941714882850647 -0.3009737432003021
0.15816789865493774 -0.19353602826595306 0.867393970489502
-0.7980597615242004 0.32434916496276855 -0.44686588644981384
-1.5026931762695312 -0.006148889660835266 0.5813816785812378
-0.30009493231773376 0.13821426033973694 -0.19147206842899323
0.6064529418945312 0.27438533306121826 0.5498813390731812
0.22167456150054932 0.48427000641822815 0.3949650526046753
-1.4765172004699707 0.19115574657917023 0.20358867943286896
1.820979356765747 0.4522444009780884 -0.3224826157093048
0.3818780481815338 0.38747477531433105 0.05237079784274101
1.84488844871521 0.2753681242465973 -0.09649249166250229
-0.992720365524292 0.13305994868278503 -0.9026633501052856
1.2681390047073364 0.38242581486701965 -0.2001454383134842
-0.6747670769691467 0.27628523111343384 0.15294410288333893
0.005602691322565079 -0.3020707070827484 0.2617691159248352
1.161441445350647 0.24934104084968567 0.09096430242061615
1.6349477767944336 0.21365977823734283 0.022053483873605728
0.43417277932167053 0.2664598524570465 -0.007153605110943317
-0.6120619177818298 -0.19286131858825684 -0.8598867058753967
-0.6024390459060669 0.10237060487270355 0.8610540628433228
-1.7055869102478027 -0.2634916305541992 -0.42788103222846985
-1.1178542375564575 -0.28084444999694824 0.07946798950433731
0.888435959815979 0.3784119784832001 -0.3447394371032715
1.7726622819900513 0.3390773832798004 -0.7560996413230896
-0.8868204355239868 0.5912299156188965 -0.025254514068365097
1.3158539533615112 -0.2624235451221466 0.840308666229248
1.9269740581512451 -0.004261285066604614 -0.708928108215332
0.5195161700248718 0.08585120737552643 -0.17289122939109802
0.33943408727645874 0.3038201332092285 -0.5750163793563843
2.2387607097625732 0.04906530678272247 0.4203832745552063
-1.9127367734909058 0.19208495318889618 0.9971901178359985
-0.09311489015817642 0.26992738246917725 0.4478829801082611
1.88637375831604 0.14197325706481934 0.7731828093528748
-0.012542575597763062 0.058041736483573914 0.06735755503177643
-2.147085428237915 -0.19376032054424286 -0.5949981808662415
0.8472363352775574 0.10017962753772736 -0.3303011953830719
0.8265844583511353 0.4345780909061432 0.9029564261436462
-0.709044337272644 0.28783708810806274 0.5518397092819214
0.19358575344085693 0.7664657831192017 0.4915253520011902
0.7964996695518494 0.36054617166519165 -0.4247705638408661
0.07465681433677673 0.7540117502212524 -0.05320846661925316
0.8516026735305786 0.038977980613708496 0.5319180488586426
1.563507080078125 -0.24748066067695618 0.15566816926002502
-0.7776271104812622 -0.23912526667118073 -0.6114397048950195
-0.49054133892059326 0.7071676254272461 0.016422931104898453
0.9436501264572144 -0.08265362679958344 0.08147779852151871
1.1380025148391724 0.46945929527282715 0.35147976875305176
0.39763081073760986 0.6734669208526611 -0.5715369582176208
1.310867190361023 0.06069439649581909 -0.2420986294746399
-1.348271131515503 0.30866706371307373 -0.19419047236442566
-0.7400700449943542 0.18886283040046692 0.21268236637115479
0.7080419659614563 0.5647352933883667 -0.7489365935325623
0.5940794348716736 -0.06116710603237152 0.8954545855522156
0.75632643699646 0.48839154839515686 -0.5198289155960083
-1.7817134857177734 0.1586993783712387 0.011718125082552433
0.43666985630989075 -0.30611932277679443 0.7842731475830078
-0.4595835208892822 -0.03801955282688141 0.13951003551483154
1.8302336931228638 0.13246579468250275 -0.33410879969596863
0.8336900472640991 0.5612601041793823 0.6539356112480164
0.008503928780555725 -0.06549139320850372 0.09200703352689743
-0.011138282716274261 0.08447062969207764 -0.4979395270347595
-0.7358911633491516 0.7218789458274841 -0.003980777692049742
-2.283379077911377 0.03098398447036743 -0.6650891304016113
1.2536112070083618 -0.02023187279701233 0.5157689452171326
-1.303067684173584 0.2791286110877991 -0.267622709274292
-0.09575095772743225 0.7341897487640381 0.038201019167900085
-0.6910282969474792 0.3710392713546753 0.17618362605571747
-0.8197829723358154 -0.17038318514823914 0.9632207155227661
0.6236552000045776 0.27746284008026123 0.269092321395874
0.15147003531455994 -0.3106188178062439 0.10083772987127304
1.6895209550857544 -0.1661977767944336 0.475452721118927
0.9401028156280518 0.24624784290790558 0.0875050500035286
-2.649310827255249 0.29750651121139526 0.8484256267547607
-1.9728429317474365 -0.24873429536819458 0.08282753825187683
-0.2513693571090698 -0.1813269555568695 -0.571526825428009
-1.8074907064437866 0.3732590675354004 0.31846800446510315
0.9489444494247437 0.5313786864280701 -0.05641491711139679
0.6414215564727783 -0.30130311846733093 0.07133293151855469
-1.1034533977508545 0.2189498394727707 -0.5512121319770813
0.30151405930519104 0.6979590654373169 0.2313096970319748
2.2911224365234375 -0.25929003953933716 -0.42088186740875244
0.5954952836036682 0.07137690484523773 0.7825770378112793
0.6991035342216492 0.3423577547073364 -0.35814985632896423
-1.907907247543335 0.4275525212287903 -0.1175786703824997
3.0042505264282227 0.003607317805290222 -0.49314358830451965
2.4792771339416504 0.04987435042858124 -0.3889419734477997
0.220048189163208 0.15578703582286835 0.91433185338974
-0.5284026861190796 0.11069799959659576 -0.1561676412820816
-1.6624308824539185 0.3561530113220215 0.613060474395752
0.34391137957572937 0.5018550157546997 -0.3602900207042694
-1.4946762323379517 -0.008385539054870605 -0.439866840839386
0.7808623909950256 0.6326372027397156 0.438484787940979
-0.8756626844406128 0.1792730987071991 -0.16627435386180878
0.4800615906715393 0.07571861147880554 -0.05609850212931633
0.6229786276817322 0.7297866344451904 0.3049784004688263
-0.3589591383934021 0.2882091999053955 -0.7084761261940002
0.6402138471603394 0.6997491121292114 -0.47186675667762756
-1.1248507499694824 0.3678092956542969 -0.05204472318291664
2.057586193084717 0.3993718922138214 -0.514462947845459
2.2750723361968994 -0.25952136516571045 0.5633773803710938
-0.5814076662063599 -0.215605691075325 0.5317503809928894
-2.050400733947754 -0.2538459599018097 -0.3809589147567749
0.7182261943817139 0.17312009632587433 0.38342610001564026
2.0103487968444824 -0.08169300854206085 -0.005581967532634735
-0.6388452649116516 -0.1670573204755783 0.4950789213180542
0.1515839695930481 -0.17010945081710815 -0.9770982265472412
1.0245263576507568 0.43314608931541443 -0.05657241865992546
-1.8028136491775513 -0.29823803901672363 -0.3365466892719269
1.1300374269485474 0.004360496997833252 -0.3364316523075104
0.16539490222930908 -0.23479963839054108 0.11131101101636887
-0.41871482133865356 -0.2656524181365967 0.33260777592658997
-0.8058486580848694 0.2558503746986389 -0.43520990014076233
-1.7037545442581177 0.6425530910491943 0.4534294307231903
-1.7653403282165527 0.29976707696914673 0.13819245994091034
0.692897379398346 0.5921791195869446 0.5489319562911987
-1.3007173538208008 0.03070889413356781 -0.08455218374729156
0.0031901970505714417 0.49589574337005615 0.012110700830817223
-1.4676599502563477 0.08280621469020844 0.27190732955932617
1.7965205907821655 0.08939032256603241 0.42775893211364746
1.887037754058838 0.31205302476882935 0.7676616311073303
-0.8213582634925842 0.6673948764801025 -0.09396365284919739
0.38449424505233765 0.5715368390083313 -0.40226462483406067
-0.06160321459174156 -0.06796075403690338 -0.9693922400474548
-1.528713583946228 -0.22836486995220184 0.41054680943489075
2.7357289791107178 0.055420488119125366 -0.42967379093170166
0.42054545879364014 -0.31626856327056885 -0.4571802616119385
0.12241581082344055 -0.08669963479042053 -0.26219090819358826
0.4123423397541046 0.22507929801940918 -0.24995560944080353
-0.47058752179145813 -0.32540634274482727 0.08106328547000885
0.6189537048339844 -0.3293185830116272 -0.19835634529590607
2.176804542541504 -0.1607510894536972 0.6245267391204834
-1.6933423280715942 -0.1408054232597351 0.8141508102416992
-1.772911548614502 -0.2801012098789215 -0.39602968096733093
-2.055150270462036 0.33797118067741394 0.5413132905960083
-1.9399572610855103 -0.08739818632602692 -0.08693522959947586
-0.8832346200942993 -0.3036437928676605 -0.11802780628204346
0.957050085067749 0.5852150321006775 -0.36449143290519714
-1.5066642761230469 0.5639652013778687 -0.6017112135887146
0.18257059156894684 0.4024728834629059 0.5943565964698792
0.6571112871170044 -0.06666478514671326 0.01987946778535843
-1.707480788230896 0.5244520902633667 -0.7469901442527771
-0.3197169899940491 0.2163679301738739 -0.1131175309419632
0.6740925908088684 0.26072245836257935 -0.15282611548900604
0.055844709277153015 0.6957849264144897 -1.1010369062423706
-0.6572455167770386 0.10906997323036194 -0.1474236696958542
-0.015125010162591934 0.10838080942630768 -0.03808123618364334
-1.4436856508255005 0.10315315425395966 0.3147355914115906
-0.48592087626457214 -0.28939270973205566 -0.713630735874176
-0.2463640421628952 0.0810474306344986 0.291293203830719
1.2771210670471191 -0.24932152032852173 0.729301929473877
-0.416652113199234 0.6589078903198242 0.5441802144050598
-1.3919936418533325 -0.07570841908454895 0.35107824206352234
0.7199296951293945 -0.2051490992307663 -0.21256080269813538
-0.6981797814369202 0.011612862348556519 -0.04201429709792137
2.0937840938568115 0.02271045744419098 -0.4030984342098236
-0.46150311827659607 0.5682462453842163 0.15779322385787964
-1.0078506469726562 0.11584238708019257 -0.5270847082138062
2.433156967163086 -0.23691055178642273 -0.35082000494003296
1.8091950416564941 -0.12408700585365295 0.255447119474411
2.9640822410583496 -0.06866857409477234 0.2834456264972687
0.24260208010673523 0.6979818344116211 0.6482173800468445
0.3303975760936737 0.08381353318691254 -0.16691304743289948
-1.3639322519302368 -0.282517671585083 -0.34686118364334106
0.9314362406730652 0.5753563046455383 -0.2602294981479645
-0.49470585584640503 -0.043324753642082214 0.7269834280014038
0.7868599891662598 0.12041984498500824 -0.5124552845954895
-2.8813889026641846 0.04792003333568573 -0.44144871830940247
0.3815429210662842 -0.2944766581058502 -0.23107270896434784
1.0504482984542847 0.22707782685756683 0.045158881694078445
0.6176162958145142 -0.28325989842414856 0.2020847350358963
-2.117516279220581 0.5155520439147949 0.11845802515745163
0.4680769145488739 -0.008088171482086182 0.7596340775489807
-0.926285982131958 0.15387128293514252 0.14835362136363983
1.8779921531677246 -0.09659725427627563 0.19550254940986633
-0.7914963364601135 -0.3246040344238281 -0.3117312490940094
0.16968926787376404 0.7063789963722229 0.5519501566886902
-0.9855307340621948 0.12328775227069855 -0.44857680797576904
0.026714030653238297 -0.291742742061615 0.037504978477954865
0.4670563340187073 0.4270961284637451 0.9139445424079895
0.3672056794166565 0.2739729881286621 -0.7171593308448792
1.7209006547927856 0.03176023066043854 -0.2722274661064148
-1.4783010482788086 -0.12250739336013794 -0.3907107412815094
2.0410523414611816 0.43614786863327026 -0.13159869611263275
0.24771206080913544 0.45182934403419495 -0.6381199359893799
1.7034357786178589 0.29001402854919434 1.0633289813995361
-2.110715627670288 -0.15093760192394257 -0.17346343398094177
1.3046034574508667 0.4198722243309021 0.17626723647117615
-0.5840961337089539 0.7722220420837402 -0.6764956712722778
-1.1223639249801636 0.5373054146766663 -0.7254899740219116
1.439747929573059 0.5834567546844482 -0.441608726978302
-0.3497520089149475 0.10635606944561005 0.28658533096313477
1.9863345623016357 -0.2927572429180145 -1.2270468473434448
-1.2655152082443237 0.39319825172424316 -0.49793440103530884
0.26171818375587463 0.04826629161834717 0.18796652555465698
-0.4751843512058258 -0.13811556994915009 -0.9229614734649658
-1.3699625730514526 0.5653144717216492 -0.5437051653862
1.2945926189422607 0.48413681983947754 -0.03239373862743378
-1.9138559103012085 0.23502196371555328 -0.6554965376853943
0.5647931098937988 0.6865003108978271 -0.8149024248123169
-0.6576509475708008 -0.24596983194351196 -0.3582566976547241
1.0644638538360596 0.06475058197975159 -0.34082433581352234
-1.6451139450073242 0.12502825260162354 0.2605448365211487
-0.11388947814702988 -0.3156745433807373 -0.5550731420516968
-1.9193669557571411 -0.14854004979133606 0.5405523180961609
-1.455216646194458 -0.07955990731716156 -0.7888669371604919
0.9081780314445496 0.5045005083084106 -0.16285519301891327
0.1382591426372528 -0.21108406782150269 -0.5347627997398376
0.4747214615345001 -0.3329949975013733 0.06061100214719772
-0.9881541728973389 -0.2089242935180664 -0.4995906949043274
1.967376708984375 0.13225214183330536 0.562309980392456
1.4715979099273682 -0.28355616331100464 0.01768054999411106
0.3933866322040558 -0.365026593208313 -0.062496479600667953
1.452662467956543 0.03955097496509552 -0.5245360136032104
-0.963391900062561 -0.3048529326915741 -0.4409276247024536
-0.07940615713596344 0.5146637558937073 -0.06556609272956848
0.5086384415626526 0.02337619662284851 -0.33835458755493164
-0.5340270400047302 0.022129788994789124 -0.7774812579154968
-1.046644926071167 0.34431731700897217 -0.4915582239627838
-1.028926134109497 -0.3350564241409302 -0.014074711129069328
0.3862649202346802 -0.3637552261352539 0.45565277338027954
0.19663408398628235 0.5458530187606812 0.4018026292324066
1.390953540802002 0.45663565397262573 0.6572558283805847
-1.3412939310073853 -0.2774900496006012 -0.5555180311203003
1.1121819019317627 0.43268460035324097 0.7356048822402954
-1.9645490646362305 0.3079635798931122 -0.4517766833305359
-1.362635612487793 -0.21910369396209717 -0.18370477855205536
0.020146716386079788 0.2441500425338745 0.35772934556007385
-1.2369815111160278 -0.3460239768028259 0.1183498352766037
-0.6447898149490356 -0.03564897179603577 0.07856880128383636
0.040348343551158905 0.07003520429134369 0.19127683341503143
1.7811037302017212 0.23380747437477112 0.3709077835083008
-1.798551321029663 -0.25606340169906616 0.5906768441200256
0.1270165890455246 -0.061350017786026 0.12969201803207397
