ply
format ascii 1.0
element vertex 814
property float x
property float y
property float z
end_header
-0.6642441153526306 1.1038261651992798 -1.3312718868255615
0.8650432825088501 0.48516520857810974 3.415341377258301
-0.10909280180931091 -0.25158029794692993 2.734591007232666
0.24191871285438538 -0.6006458401679993 -1.1649689674377441
1.4776790142059326 0.08345014601945877 -1.5443224906921387
0.006880968809127808 1.2324672937393188 -2.4655535221099854
0.19604896008968353 -0.07476562261581421 1.384791374206543
-1.1979873180389404 1.4511059522628784 2.2141079902648926
-0.3134572505950928 0.6859637498855591 -2.162008762359619
0.41004636883735657 1.1737929582595825 2.3927574157714844
-0.0780896320939064 -0.8916227221488953 2.389167547225952
-0.26494503021240234 0.929210364818573 3.0298001766204834
0.3740006387233734 -0.5611236691474915 -0.6690707802772522
-0.8755612373352051 0.8323526382446289 0.7773212790489197
-1.0215308666229248 0.09507879614830017 1.7769932746887207
-1.2414928674697876 1.4209723472595215 -1.9316589832305908
-0.9070786237716675 0.33589473366737366 -1.1740282773971558
-0.3235331177711487 0.329990416765213 1.4592732191085815
0.020884612575173378 1.3229305744171143 -0.7169437408447266
-0.506205141544342 1.1886519193649292 -1.1400158405303955
-0.3727448582649231 -0.030708253383636475 0.5372917652130127
0.43680909276008606 0.24791888892650604 1.6885796785354614
-0.031259212642908096 -0.2411491870880127 0.5561566352844238
0.4950246214866638 0.7832695245742798 2.3785858154296875
-0.1148272231221199 -0.732744574546814 -2.8798017501831055
-0.2264862060546875 -0.3798838257789612 -1.094274640083313
-0.5841808319091797 -0.19157841801643372 -1.656982421875
-1.2620463371276855 0.7398362159729004 0.1573384702205658
0.15520144999027252 -0.4608096778392792 0.06038304418325424
-0.22589591145515442 1.0621236562728882 1.102360486984253
-0.4007502794265747 0.2284223586320877 2.6146132946014404
-0.5052905678749084 1.4325038194656372 2.3040943145751953
0.46275418996810913 -0.0786152184009552 -1.3487935066223145
0.43612807989120483 0.10544925928115845 0.40148285031318665
-0.7366762161254883 0.15613412857055664 1.299525499343872
-1.2115600109100342 -0.3955097496509552 -2.7196438312530518
0.0761319100856781 0.5151440501213074 -2.825923204421997
-0.06722085177898407 -0.024176061153411865 -0.255712628364563
-0.3775428533554077 1.3475911617279053 2.2746975421905518
-0.6473184823989868 1.0861549377441406 -0.22139804065227509
-0.013177536427974701 -0.6036894917488098 -0.10448415577411652
-0.64869624376297 0.2780843675136566 2.3410775661468506
1.1250128746032715 -0.7720880508422852 -0.6958202123641968
-0.4417470097541809 0.18295864760875702 -1.4055465459823608
1.2247049808502197 0.010762199759483337 -0.8426490426063538
0.14751186966896057 0.8000767827033997 -2.125515937805176
0.35722461342811584 0.15547052025794983 -0.14019633829593658
0.06619212031364441 1.2806137800216675 1.0286846160888672
1.6968446969985962 -0.8198229074478149 1.1449311971664429
1.0372627973556519 -0.6169498562812805 -1.5563603639602661
-0.7184507846832275 -0.6042881608009338 -2.180330753326416
0.24803975224494934 -0.37134575843811035 0.03689849376678467
-0.7047469615936279 0.21758843958377838 -2.803285837173462
0.8706899881362915 0.42753496766090393 -0.7753629088401794
0.22334417700767517 -0.4609372615814209 -2.6316137313842773
-0.28987789154052734 0.8175046443939209 1.5294702053070068
0.36457788944244385 -1.2270008325576782 -3.2525370121002197
-0.8321080207824707 1.3892967700958252 0.6232802271842957
-0.29562535881996155 0.006109997630119324 -1.1855989694595337
-1.186585545539856 0.2475249469280243 -0.8625072836875916
0.06121806055307388 -1.1033594608306885 2.9568634033203125
0.17052245140075684 0.3024398684501648 1.4114470481872559
-0.2995447516441345 0.2740947902202606 -2.6746883392333984
0.19898748397827148 -1.051708459854126 -2.098159074783325
-0.5964834690093994 -0.39477068185806274 -0.029810095205903053
0.1804238259792328 0.056748196482658386 2.3309741020202637
0.20735517144203186 -0.6400694251060486 -1.6115219593048096
-1.0359963178634644 0.6571277379989624 -0.7283361554145813
0.276794970035553 -0.5255849361419678 -1.1327728033065796
-0.8522586226463318 0.07635565102100372 2.2827742099761963
-0.5340015888214111 1.279198408126831 -0.10138700902462006
-1.129817247390747 0.6077526807785034 2.7878167629241943
-0.08707252889871597 -0.7534155249595642 -1.9230228662490845
-1.1137309074401855 0.41336148977279663 1.6754552125930786
0.7337598204612732 0.30282872915267944 -2.028022527694702
0.9591166973114014 0.3704580068588257 2.6941580772399902
-0.9216740727424622 -0.36011138558387756 0.9651744961738586
1.842468023300171 -0.6114689707756042 1.309710144996643
0.8784013986587524 0.2431456744670868 -1.784069299697876
0.08667358756065369 -0.663477897644043 1.8961690664291382
0.37007713317871094 0.24189704656600952 2.435819625854492
1.312588095664978 0.26762911677360535 1.1642365455627441
0.7132731080055237 -1.155777096748352 -2.6800901889801025
0.23188042640686035 -0.8516440987586975 0.28912845253944397
0.5688809752464294 -0.19609172642230988 -2.2931535243988037
1.0690206289291382 0.07455449551343918 -1.8587548732757568
-0.1966038942337036 0.2775335907936096 -1.9185075759887695
-0.012198686599731445 -0.2865510582923889 -2.6610612869262695
0.2717550992965698 0.2715527415275574 -1.048638105392456
-0.8776867985725403 -0.7199511528015137 -0.2338317334651947
-0.8357215523719788 0.7090867757797241 -2.713548421859741
-0.793257474899292 0.32235056161880493 -2.4404115676879883
0.23217663168907166 -0.16216666996479034 0.9593467116355896
-0.10454109311103821 -0.5475680828094482 0.005787645000964403
0.2362329214811325 0.6425348520278931 1.9277817010879517
-0.22783349454402924 0.6357290744781494 2.5639469623565674
-0.38906750082969666 0.14491592347621918 1.3759549856185913
0.7105035781860352 0.10207337141036987 2.3717446327209473
0.1770325005054474 1.3002066612243652 -2.233837366104126
-0.3751703202724457 0.9050455689430237 -0.4603261351585388
0.8501318097114563 0.3299189805984497 -0.3301253318786621
0.1065688356757164 0.5447050333023071 0.8717178106307983
-0.44974303245544434 0.14360123872756958 -2.1708126068115234
-0.9437701106071472 -0.5850894451141357 -0.8305676579475403
-0.7448806166648865 0.5325878858566284 1.6819779872894287
-0.1190938800573349 0.4805479049682617 -1.8755913972854614
0.04254021495580673 -0.31896328926086426 2.4966371059417725
-0.8590409159660339 -0.10683305561542511 2.171661615371704
-0.05164490267634392 0.01561690866947174 -1.594824194908142
-0.78355872631073 -0.23372122645378113 -1.1538975238800049
-0.7446494698524475 0.3913833200931549 -0.37085673213005066
-0.2856573462486267 -0.3362470269203186 2.141709089279175
-0.341457724571228 1.276552438735962 0.4019582271575928
-1.1404485702514648 0.7869933843612671 0.41023001074790955
-1.1415222883224487 0.08829851448535919 1.4078068733215332
-0.5929474234580994 0.2858947515487671 1.9853321313858032
-0.27246755361557007 0.641344428062439 -1.552151083946228
-0.16591736674308777 0.9010659456253052 0.49718335270881653
0.4202437400817871 0.5844262838363647 -0.6438491344451904
-1.0000476837158203 -0.028850406408309937 -2.164621591567993
0.7914772629737854 0.3435448408126831 1.1827994585037231
0.5599063634872437 0.4391089379787445 2.773719310760498
0.391961932182312 0.1245347410440445 0.38116803765296936
-0.4775997996330261 -0.44622504711151123 -0.6375136971473694
-0.33426496386528015 0.3398609161376953 -2.630725145339966
-0.6683645248413086 0.323392391204834 0.8398326635360718
-1.311048984527588 -0.01817721128463745 -0.7522328495979309
0.33555567264556885 0.751232385635376 3.1266400814056396
1.1811630725860596 0.18446430563926697 -0.8724006414413452
0.4142385721206665 0.21481086313724518 -0.3526696264743805
-0.3318397104740143 -0.28451278805732727 2.321002960205078
-0.9086804389953613 1.2467364072799683 -1.4093410968780518
-0.027453068643808365 0.08391129970550537 2.5075535774230957
0.2005738615989685 0.23974120616912842 2.305943012237549
0.0032342132180929184 0.9377796053886414 -1.5093740224838257
0.6653980612754822 -0.3883057236671448 -0.34675630927085876
0.7112494111061096 -0.3053927421569824 -0.5188365578651428
0.32269707322120667 -0.12447662651538849 1.8757463693618774
-0.40608036518096924 0.03666861355304718 2.663825273513794
-0.9662171602249146 0.6696730852127075 1.556384801864624
-0.8329285383224487 0.15962284803390503 1.2177752256393433
-0.07336033880710602 1.2088781595230103 -0.3429920971393585
-1.131371259689331 -0.5689241886138916 0.38919565081596375
0.3268674612045288 -0.4474013149738312 -2.455441474914551
0.3734416961669922 0.23999062180519104 1.8629131317138672
0.6804080605506897 -0.18987444043159485 2.6446850299835205
-0.2626984119415283 -0.22623342275619507 2.016572952270508
-0.4182403087615967 -0.1989472508430481 1.4643139839172363
0.11376838386058807 0.5999158620834351 -1.4569251537322998
-0.10605646669864655 0.5086853504180908 2.0044806003570557
-0.37158703804016113 0.560897946357727 -0.6830272674560547
-0.26390618085861206 0.40706226229667664 -0.8866520524024963
1.6108403205871582 0.31992313265800476 3.7572646141052246
-0.6988934278488159 1.2645626068115234 1.2959837913513184
0.7756162285804749 -0.4604683518409729 -0.23375695943832397
-0.11987940967082977 0.2966940402984619 1.5592299699783325
1.2508963346481323 -0.18521995842456818 -2.97511887550354
-0.6904438734054565 0.23338405787944794 -0.9071184396743774
0.816154956817627 -0.5505605936050415 1.11870539188385
0.05731559172272682 0.2995184063911438 1.2007570266723633
0.43646058440208435 0.5286217927932739 2.4241647720336914
-0.5972522497177124 -0.010016843676567078 0.08092746138572693
0.3166292905807495 0.2616559565067291 -3.619765043258667
-1.000982403755188 0.6003264784812927 0.6579686999320984
1.5303494930267334 -0.43504956364631653 -0.48426172137260437
0.9309000968933105 -0.3109897971153259 2.2541403770446777
1.4127731323242188 -0.6836748719215393 -1.2557170391082764
-1.7580616474151611 1.2454835176467896 -1.2744535207748413
-1.1245644092559814 0.8662605881690979 3.0168375968933105
-0.8895161151885986 0.15720903873443604 0.5648975372314453
-0.1760510951280594 -0.105606809258461 -2.24118971824646
-0.39987048506736755 0.771095871925354 -0.7957556247711182
-0.0004669204354286194 0.42758041620254517 -0.7820224761962891
0.43323424458503723 0.0236637145280838 -1.2429839372634888
0.5612351298332214 -0.556623637676239 -3.5904347896575928
1.0511072874069214 -0.7490903735160828 2.9884424209594727
1.3010764122009277 -0.19581303000450134 0.020905939862132072
0.4447309374809265 1.0141876935958862 -2.2004122734069824
0.0397520549595356 -0.6022700071334839 3.137436628341675
-0.19148465991020203 0.6674623489379883 -0.8684110045433044
0.7586245536804199 0.3053036034107208 -1.6758471727371216
-0.06288374960422516 0.638786792755127 1.884342074394226
1.2970690727233887 -0.6287968754768372 -1.9321107864379883
0.5492275357246399 0.41409075260162354 -1.0757118463516235
0.3496551215648651 -0.5531671047210693 -0.9385336637496948
1.2406538724899292 0.01690581440925598 -1.8139538764953613
-0.05586091801524162 -0.09400500357151031 0.4947357177734375
0.6540191173553467 -0.011204853653907776 -0.17606624960899353
-0.1893692910671234 -0.6991125345230103 -1.8744791746139526
0.45931482315063477 0.5773851871490479 1.5812588930130005
0.577594518661499 -0.49377018213272095 -2.35713267326355
-0.4421747028827667 0.4807904362678528 2.509936809539795
1.41733980178833 -0.17198601365089417 -0.8066131472587585
0.11117476224899292 0.7990291714668274 -2.0829989910125732
1.5756611824035645 0.127776101231575 -0.2111269235610962
-0.9191629886627197 1.2059690952301025 -0.029604852199554443
0.04175037518143654 -0.4110625386238098 -1.6361926794052124
0.49060970544815063 0.02773582935333252 -3.5560102462768555
-0.08728431165218353 0.050412774085998535 -2.162127733230591
-0.6507568359375 -0.5846115350723267 -1.2524598836898804
-0.7718524932861328 0.244340717792511 -0.5244590044021606
0.3032756447792053 -0.9118598699569702 1.6520438194274902
0.633110523223877 -0.8359389901161194 -2.1130764484405518
0.3390023410320282 0.906379222869873 -0.9620445966720581
-0.6179845333099365 0.8304376602172852 -0.9322782158851624
-0.20291677117347717 0.6304699778556824 -0.976287305355072
0.07583421468734741 0.09774918854236603 -0.3924143314361572
0.6167551279067993 -0.6967309713363647 -1.9481635093688965
-0.5224424600601196 0.15784728527069092 -0.475166916847229
0.40150773525238037 0.8654636144638062 1.7573323249816895
0.06443402171134949 -0.4878941476345062 -2.6499433517456055
-0.48539435863494873 0.7760275602340698 0.2175746113061905
1.0400687456130981 -0.26923057436943054 2.35909104347229
-0.2624063193798065 -0.31396031379699707 -3.010345458984375
1.5471601486206055 -0.5587179660797119 -0.22147002816200256
1.3791300058364868 -0.4921368658542633 -2.44461989402771
0.8870367407798767 -0.41119974851608276 -2.273204803466797
1.0822389125823975 -0.6768962740898132 -2.2342309951782227
-0.20147407054901123 -0.3023853302001953 -0.6313832998275757
0.5022609233856201 1.2033677101135254 2.3185055255889893
-0.12664276361465454 -0.42485153675079346 -0.2154769003391266
1.6294747591018677 -0.24079005420207977 -0.469640851020813
-0.08690230548381805 0.8232555985450745 1.2736947536468506
-0.40187597274780273 0.0956125259399414 1.509883999824524
1.008490800857544 0.22818011045455933 -3.1900100708007812
0.18720519542694092 -0.7712498903274536 2.6040914058685303
-1.262128472328186 0.33816003799438477 -2.806306838989258
0.3790849447250366 1.1784168481826782 2.0340821743011475
0.25715741515159607 0.8053054213523865 1.2029751539230347
0.942196249961853 -0.4053415060043335 -2.840289354324341
0.940802276134491 -0.6145657300949097 0.4360574781894684
-0.7164986729621887 0.15971313416957855 -2.425546169281006
-0.7580437660217285 0.9003930687904358 -3.0061445236206055
-0.04397706687450409 -0.8886448740959167 -1.173402190208435
-0.573982298374176 1.5442419052124023 -1.932372808456421
-0.33976611495018005 0.6283550262451172 1.3216969966888428
0.6374284029006958 0.055892109870910645 -3.08353328704834
0.9469725489616394 -0.5009585618972778 -2.417783260345459
0.9358301162719727 0.35981664061546326 -0.27862271666526794
-0.645973801612854 1.1611298322677612 -2.411749839782715
0.5856990218162537 -0.4079890847206116 -2.9304020404815674
0.21397711336612701 0.18092958629131317 -1.8823407888412476
-0.4369184374809265 0.05993446707725525 -0.7819550633430481
0.7495244741439819 -0.3273717164993286 -0.7640923857688904
-0.050052348524332047 0.3119226098060608 -0.8493601679801941
0.5842993855476379 0.10805830359458923 0.10370445996522903
-0.29890742897987366 -0.6307269930839539 0.47272154688835144
-0.20563337206840515 1.2147234678268433 -1.2232180833816528
0.0419197678565979 -0.6239602565765381 -1.217408537864685
0.4049937129020691 -0.2944867014884949 -0.33088183403015137
-0.025731906294822693 0.25099408626556396 1.3730400800704956
0.30759555101394653 -0.08798432350158691 -1.9327143430709839
1.6407700777053833 -0.6892489194869995 -2.254110097885132
-0.4837528169155121 0.7690433263778687 -0.058441612869501114
0.4586160480976105 -0.5413355231285095 -0.19441647827625275
-0.6450104117393494 0.5132030844688416 -1.111817717552185
0.8805689811706543 -0.6093981266021729 -1.0996283292770386
-0.2057701051235199 0.38927778601646423 -0.5207968950271606
0.36830151081085205 -0.5700148344039917 -1.042321801185608
-0.44699737429618835 -0.3772532641887665 1.9453566074371338
-0.7153400182723999 0.5401886701583862 -2.0831351280212402
0.42510271072387695 0.5371813774108887 -2.3912155628204346
-0.8906587362289429 0.04602572321891785 0.21142572164535522
1.2186059951782227 0.07761684060096741 0.6734057068824768
-0.2795123755931854 0.8821002244949341 -1.8470503091812134
-0.8980655670166016 1.2372426986694336 -0.3329586982727051
0.26152902841567993 0.24306721985340118 0.7595490217208862
-0.4022393822669983 0.8667232394218445 0.6629321575164795
-1.0879590511322021 0.1525757610797882 1.354755163192749
0.024280313402414322 -0.7908612489700317 -2.1275863647460938
0.34178027510643005 -0.40323400497436523 0.18257908523082733
-1.2606996297836304 1.0029606819152832 2.553959369659424
-0.03855406120419502 -0.3619038462638855 3.446532964706421
0.5267899036407471 -0.0830889344215393 -2.7331135272979736
-0.5437130331993103 0.4634503722190857 -0.06102319434285164
-0.4564218521118164 1.0783847570419312 1.015150547027588
-0.38043996691703796 1.1484713554382324 0.6504441499710083
-0.5453631281852722 0.16338777542114258 0.045869551599025726
1.4235981702804565 0.10619664192199707 -0.8381868600845337
0.5353602170944214 -0.5889042019844055 2.4351730346679688
0.22618433833122253 0.9634716510772705 -0.496502161026001
-0.2735256552696228 0.5763217210769653 -1.5616182088851929
-0.08582521975040436 -1.0026366710662842 -1.921668529510498
-0.03097572922706604 0.40724891424179077 0.6076660752296448
-1.254830241203308 -1.0425506830215454 -2.8292903900146484
0.19927743077278137 0.4206588864326477 1.2071269750595093
-0.40995582938194275 0.32410287857055664 0.9093190431594849
1.43340265750885 -0.784633457660675 1.5252231359481812
-0.56097012758255 0.04897230863571167 2.1821706295013428
-0.8701635599136353 1.0800069570541382 2.1567068099975586
-0.2902601957321167 1.0972843170166016 0.5502625107765198
0.7839949131011963 0.23491576313972473 2.290625810623169
-0.19006381928920746 0.0808895081281662 -0.18587389588356018
-0.11554193496704102 0.6183842420578003 -1.9559885263442993
1.7060168981552124 -0.1396150141954422 -2.3478403091430664
1.1929073333740234 -0.525544285774231 0.19741742312908173
-0.12580004334449768 1.3390235900878906 -1.5131257772445679
-0.3811480402946472 0.5818915367126465 -3.062349319458008
-0.7030959725379944 0.5479354858398438 2.0879745483398438
-0.9540117979049683 0.995909571647644 -0.8797675967216492
-0.16088837385177612 0.9125944375991821 0.24890778958797455
0.1682828664779663 -0.6036331057548523 -1.181221842765808
-0.13567057251930237 -0.4307512640953064 -3.040131092071533
-0.7715871930122375 0.9905239343643188 1.8408561944961548
-0.30769091844558716 -0.04173022508621216 -0.9876751899719238
0.41886061429977417 0.6093335747718811 -2.110790491104126
-0.8140469193458557 1.1747690439224243 -0.7499080300331116
-0.010905351489782333 0.40790051221847534 2.1348917484283447
0.7670074701309204 -0.4129939079284668 3.7015273571014404
0.7146969437599182 -0.19866076111793518 2.4221787452697754
1.6623798608779907 0.032099150121212006 -1.390929102897644
-0.39198312163352966 0.804664671421051 -2.697659969329834
0.6800860166549683 -1.1918184757232666 -3.135805368423462
-0.8863546252250671 0.3756806254386902 1.3917418718338013
0.9199399352073669 -0.8151324987411499 -2.2196223735809326
-0.5042428374290466 0.27414169907569885 0.8657753467559814
0.10277608036994934 0.9739061594009399 -2.271435499191284
1.317676067352295 -0.24312689900398254 0.7015051245689392
-1.6908016204833984 1.1528383493423462 -1.9408364295959473
0.3491942286491394 0.24488067626953125 0.863141655921936
-0.7756556868553162 0.33938759565353394 0.0481422021985054
-0.569771945476532 0.40515345335006714 -1.1481283903121948
0.2588087022304535 1.2389200925827026 2.382723093032837
1.0086677074432373 -0.20296549797058105 2.1163980960845947
-0.3457164466381073 0.20257450640201569 -1.7219188213348389
-0.402243047952652 -0.35279005765914917 0.2829953730106354
-0.9454553723335266 0.3390103578567505 -1.6683791875839233
0.6901957392692566 -0.519568920135498 -0.5116084814071655
0.5667330026626587 -0.5791242718696594 0.33301910758018494
1.5320489406585693 0.22087836265563965 1.7982717752456665
0.5653604865074158 -0.10986088216304779 -0.44085219502449036
-0.8955585360527039 0.09876954555511475 0.970076858997345
-0.987417995929718 0.33970099687576294 -1.7642532587051392
-0.12217134237289429 0.02200309932231903 -1.0898950099945068
0.6823133826255798 -0.2797127366065979 2.3750312328338623
0.06274602562189102 0.14990060031414032 -0.04654913768172264
-0.3851311504840851 0.32419371604919434 0.4419868290424347
0.017780326306819916 0.1915837675333023 -0.46648475527763367
1.1034291982650757 -0.005081698298454285 1.8749120235443115
-0.02969709411263466 -0.26237502694129944 1.9913638830184937
-0.569524884223938 -0.4350442886352539 -1.0645761489868164
1.0148351192474365 -0.7542157769203186 -1.8464676141738892
0.7547606229782104 -0.40821701288223267 2.3675918579101562
-0.12871497869491577 -0.271099328994751 -0.1960751712322235
1.1826088428497314 -0.8048539757728577 0.12227418273687363
-0.05677495524287224 -0.11384418606758118 -0.9319517016410828
-0.05546608567237854 0.8669817447662354 2.9897959232330322
1.2762514352798462 -0.5114668607711792 -0.871711254119873
-0.9743950366973877 0.28983670473098755 2.209721088409424
-1.4647774696350098 0.4729480743408203 -0.8913325071334839
-0.35382235050201416 1.3968682289123535 1.2007018327713013
-0.5833840370178223 0.21440117061138153 -1.075486183166504
0.30751103162765503 0.3110884428024292 1.0114346742630005
-0.3568245768547058 1.2423175573349 0.816352128982544
1.7112163305282593 -0.030327335000038147 -2.267801284790039
-0.05029399320483208 1.5895249843597412 -1.309301733970642
-0.6139680743217468 -1.0602107048034668 2.580907106399536
-1.2218027114868164 1.1026722192764282 -1.449331521987915
1.0509346723556519 0.06516377627849579 1.144059419631958
0.7975287437438965 -0.06906983256340027 -0.11284744739532471
0.8031253218650818 0.0841844230890274 -1.0120099782943726
-0.1499517261981964 0.16244497895240784 -0.3517054617404938
0.1963818073272705 0.671527087688446 -2.236091375350952
0.328427255153656 1.345808982849121 -0.23611503839492798
-0.08761107176542282 -0.6205692291259766 -2.104694128036499
-1.2036850452423096 0.34172946214675903 -1.9524331092834473
1.0855659246444702 -0.12822185456752777 0.2591664791107178
-0.3979822099208832 1.4478436708450317 -0.21989810466766357
-0.06933918595314026 0.2588609457015991 2.065941572189331
-0.1819636970758438 0.36724936962127686 1.8983726501464844
-1.1730711460113525 0.16053679585456848 0.6826654076576233
0.6212019324302673 0.07730142772197723 -1.6877361536026
0.8059772849082947 0.5474399328231812 1.5296638011932373
0.6881985068321228 -0.7490493059158325 2.5518102645874023
-0.9673936367034912 -0.2949327826499939 0.9356930255889893
-0.7218781113624573 1.0201146602630615 -2.3117430210113525
0.9123998880386353 -0.28471049666404724 2.77311635017395
-0.2690187990665436 -0.47737953066825867 0.41183656454086304
0.3514377176761627 -0.24070051312446594 2.609344482421875
-1.3404839038848877 1.1845107078552246 2.8777313232421875
-0.48032522201538086 1.4480206966400146 1.6046454906463623
-1.3071486949920654 1.0346194505691528 -2.234699249267578
-0.4159918427467346 0.15944111347198486 2.7195560932159424
0.4397580623626709 -0.8803392648696899 2.3737986087799072
-0.3591885566711426 0.27333003282546997 2.265983819961548
0.3508530557155609 0.06399382650852203 1.6392478942871094
0.5537484288215637 0.3218013644218445 1.2646982669830322
-0.002881355583667755 0.9855456352233887 0.9385319948196411
-0.5427070260047913 0.006134778261184692 -0.6715652942657471
-0.5913268327713013 -0.5347281694412231 1.2126100063323975
0.4052462577819824 0.7423263788223267 0.7276543974876404
-0.6713083982467651 1.3283191919326782 -1.99003267288208
0.2213418185710907 0.19488686323165894 1.9683725833892822
-1.129820704460144 1.3967857360839844 -0.2765490412712097
-0.26449790596961975 0.6721370220184326 -0.6072848439216614
-0.8511227369308472 0.6231780648231506 -1.7211382389068604
-0.4956361651420593 -0.561254620552063 1.332654595375061
-0.9932334423065186 0.49056223034858704 -1.5109596252441406
0.11853940784931183 -0.560097336769104 -1.496546983718872
0.8627870678901672 -0.5440677404403687 0.8327584862709045
0.15562297403812408 -0.6872814893722534 2.6564369201660156
0.5977636575698853 -0.31514012813568115 1.1133257150650024
-0.6118721961975098 1.4730980396270752 2.222555160522461
-0.2540893852710724 0.4474238157272339 2.5664565563201904
-0.8578588962554932 0.318794310092926 1.297562837600708
-1.2187260389328003 1.2548959255218506 0.807545006275177
-0.6442716717720032 -0.05451387166976929 2.0137217044830322
-0.4964684545993805 0.5174897909164429 -2.9926583766937256
-0.6106707453727722 0.6809859871864319 2.166351079940796
-0.596542239189148 1.4752373695373535 0.795462429523468
-0.113078773021698 0.05874091386795044 0.8558181524276733
-0.7129846215248108 -0.33210909366607666 0.6129238605499268
-1.1999499797821045 0.36309945583343506 0.7409504055976868
1.0145714282989502 0.21256473660469055 2.2859015464782715
0.493956983089447 -0.03998205065727234 0.7740758061408997
-0.44736263155937195 0.544471263885498 -0.7395689487457275
0.10439742356538773 0.12189498543739319 -3.707265853881836
-0.06332007050514221 -0.5497692823410034 -0.47532254457473755
0.01166602224111557 -0.784311056137085 0.4909936487674713
0.986723780632019 -0.5560470819473267 -2.116307020187378
0.6171842813491821 -0.07642839848995209 -1.4788492918014526
0.706505537033081 -0.052199870347976685 -1.2387149333953857
0.10698074102401733 -0.053940191864967346 -1.0498859882354736
-0.971625804901123 0.24398767948150635 -0.7983312606811523
1.0456316471099854 0.35269153118133545 -0.4523969292640686
0.6385040879249573 0.47768115997314453 0.2571991980075836
0.4039050340652466 -0.48586419224739075 0.42018863558769226
-0.6925811171531677 1.1155250072479248 -0.23482467234134674
-0.5580704212188721 0.5054628252983093 2.6743640899658203
-0.6842802166938782 0.1508999466896057 -0.4905432462692261
-1.02393639087677 -0.002052873373031616 0.5663974285125732
-0.8538890480995178 -0.958930492401123 2.3142189979553223
-0.4201667904853821 0.9213313460350037 0.2819826602935791
-0.6800328493118286 1.465093970298767 2.405407667160034
-0.243394672870636 0.6003497838973999 1.2196815013885498
0.6199924349784851 0.8383596539497375 -2.1936392784118652
1.261831521987915 -0.3415910005569458 1.9937983751296997
0.8184120655059814 -0.5514360666275024 -1.357122540473938
-1.2916345596313477 0.9320938587188721 -0.42272111773490906
0.2699795067310333 0.2479526400566101 -1.8464784622192383
-0.17134541273117065 -0.6306749582290649 -2.266096353530884
0.6657164096832275 0.30043432116508484 -0.26700589060783386
-0.020716045051813126 0.5788827538490295 0.19988460838794708
-0.6201000213623047 -0.5862416625022888 -0.6137889623641968
-0.5320720076560974 -0.20432540774345398 -1.8922628164291382
0.2915462851524353 0.3835110664367676 -0.26600706577301025
0.4661104083061218 -0.4396130442619324 1.1738488674163818
0.9730952382087708 -0.3548779785633087 1.9052470922470093
-0.4290527105331421 -0.4484016001224518 -0.07500185817480087
-0.02459794282913208 1.2840898036956787 1.6738783121109009
-0.7914834022521973 0.3115358352661133 -2.637801170349121
-0.4541603624820709 -0.35042673349380493 1.3031854629516602
0.7137159705162048 0.8394712209701538 -1.0985523462295532
-0.22747424244880676 0.056535616517066956 0.8823530673980713
0.3319586217403412 0.473369836807251 0.9136274456977844
1.082223653793335 0.1195492222905159 2.021191120147705
-0.7572733163833618 0.9479321241378784 -1.612848162651062
-0.5423434376716614 0.1792873740196228 0.4288681149482727
-0.08240383118391037 1.4295217990875244 1.5200717449188232
-0.22299839556217194 0.6432508230209351 2.39451265335083
-0.3059959411621094 -0.44334256649017334 1.4667495489120483
-0.7507950663566589 0.3798938989639282 -2.5271105766296387
-1.1989331245422363 0.6139183640480042 2.6376023292541504
-0.029348410665988922 -1.00636625289917 -2.05267333984375
-0.9088392853736877 1.542872667312622 -1.1315563917160034
-1.9162408113479614 0.8055702447891235 2.591047525405884
1.618260145187378 -0.9375720024108887 -3.159379720687866
-0.055664047598838806 -0.06267444789409637 1.5018507242202759
-1.1357749700546265 1.3986459970474243 -2.8436179161071777
-0.1532958298921585 -0.3363688588142395 2.0765132904052734
-0.43064939975738525 0.6648370623588562 0.05280373990535736
-0.38165226578712463 0.1281299740076065 0.2792990207672119
0.3303125202655792 -0.24561907351016998 2.2602927684783936
1.4518632888793945 0.2133709341287613 -0.9079528450965881
1.1430420875549316 -0.45462101697921753 -2.8830108642578125
-0.6682934165000916 0.14970926940441132 -1.6031365394592285
-0.5906721949577332 0.8443863391876221 -0.7249102592468262
-0.2840835452079773 -0.4085906744003296 -1.9928197860717773
-1.2542004585266113 1.4619858264923096 2.3951475620269775
-0.4375045597553253 0.6142540574073792 2.7282888889312744
0.2436121106147766 -0.867544949054718 0.7471100687980652
-0.3669404983520508 -0.6694105267524719 1.9544888734817505
0.393790602684021 -0.22269771993160248 2.1393110752105713
-0.625249981880188 0.1772191822528839 -0.8823257684707642
-0.3230929374694824 0.8228076696395874 2.0243277549743652
0.18656781315803528 -1.2703044414520264 -2.5218863487243652
-0.3329232335090637 0.3213542699813843 -1.2628341913223267
-0.9819310903549194 -0.22881467640399933 -0.7910493016242981
-0.548499584197998 0.2262042760848999 -1.409569501876831
1.7534325122833252 -0.6594855785369873 2.670156478881836
-0.8145763874053955 0.6959638595581055 -1.672050952911377
0.8071337938308716 -0.7785416841506958 0.9451119899749756
-1.086441159248352 -0.7303082942962646 -1.944014549255371
-0.224886953830719 0.4965451955795288 -2.6933982372283936
-0.17415794730186462 -0.0715964287519455 -4.035086631774902
0.6876769661903381 -0.41361626982688904 -2.0879061222076416
-0.5603442192077637 0.8035473823547363 0.6088799834251404
-0.6423702836036682 0.18272797763347626 1.3244212865829468
-0.5121110677719116 1.129926323890686 -0.6860886216163635
-0.10640180110931396 1.0566577911376953 -2.8703224658966064
-0.6618368625640869 1.4084712266921997 1.0248727798461914
0.43362921476364136 -0.5735413432121277 0.9486886262893677
-0.7240018248558044 -0.6090600490570068 -1.5908386707305908
0.12134773284196854 -0.8050417304039001 3.4677927494049072
0.8739641308784485 -0.03451518714427948 -1.1824345588684082
0.4537031352519989 -0.4644392430782318 0.24642354249954224
-0.1788632869720459 1.0122956037521362 -2.1067140102386475
-0.05287819355726242 0.16960233449935913 0.05790788307785988
0.10798776149749756 -0.39166826009750366 1.0217666625976562
-0.6051890850067139 1.1874767541885376 -1.2175933122634888
1.4960014820098877 -0.31018373370170593 -2.1863248348236084
0.7153332829475403 -0.6739288568496704 -2.0923125743865967
1.2482531070709229 -0.8529646396636963 0.6259366869926453
-0.3453628122806549 1.0044004917144775 0.029432250186800957
-0.055564090609550476 -0.0388321727514267 0.6762758493423462
-0.05975404754281044 0.20519904792308807 1.5862857103347778
0.2764686644077301 -0.8963603973388672 1.1714916229248047
-1.1171656847000122 -0.020694687962532043 2.656360626220703
-1.456485390663147 1.036189079284668 -0.2295788824558258
1.367514967918396 -0.38779503107070923 2.28501296043396
-0.7710570693016052 1.232113003730774 0.7854254245758057
0.18762032687664032 0.2946721613407135 -2.764533519744873
0.25026363134384155 1.2589548826217651 1.5823463201522827
-0.36649808287620544 -1.3320090770721436 2.4183993339538574
-0.02535771206021309 -0.0012488216161727905 -1.6044533252716064
-0.6258871555328369 0.577824056148529 -1.634984016418457
-0.3145703077316284 -0.292405366897583 -1.2844396829605103
-0.7178267240524292 0.5346609950065613 2.0879132747650146
-1.1083053350448608 0.26215648651123047 -0.31922242045402527
-0.04645378515124321 0.7582821249961853 -0.48822474479675293
0.3289928436279297 0.0854831337928772 -1.3009239435195923
-0.32764917612075806 -1.2156202793121338 -2.8093512058258057
-0.1541762351989746 -0.31765925884246826 -3.7838094234466553
0.29257839918136597 -0.5631186962127686 -0.7808746695518494
0.2003324329853058 0.1154358834028244 0.20814958214759827
-0.1901390105485916 1.136157512664795 2.152564764022827
0.7900809645652771 0.09245491027832031 -2.3437838554382324
-0.7397511005401611 0.7153889536857605 -1.7881417274475098
-0.05667450278997421 -0.3442021608352661 1.3400614261627197
0.7859300971031189 0.7184487581253052 -2.288315534591675
0.5252195000648499 -0.24512119591236115 2.5243489742279053
1.0519483089447021 -0.21003678441047668 -1.3064863681793213
0.7479659914970398 -0.0706537663936615 1.0254895687103271
-1.1196892261505127 0.44824597239494324 -1.9696630239486694
-0.3968551456928253 1.2360203266143799 2.546816825866699
-1.5595951080322266 1.5850627422332764 0.24076321721076965
-1.5928804874420166 1.3768264055252075 -2.227323293685913
-0.4169911742210388 -0.12680773437023163 -0.9627367258071899
-0.6174090504646301 -0.5044272541999817 -1.697987675666809
-0.41859203577041626 -0.1352788656949997 2.207108736038208
-0.4072616696357727 0.05259370803833008 -2.7513158321380615
0.755406379699707 0.20023080706596375 -0.8796201348304749
-0.18031901121139526 1.216152548789978 -1.6652061939239502
-1.0965559482574463 -0.5088378190994263 -1.3336011171340942
-1.201167345046997 1.0134153366088867 -1.3998017311096191
-0.0030654072761535645 0.795535683631897 0.2716091275215149
0.7375520467758179 -0.7592304348945618 -3.012389659881592
-0.07536259293556213 1.0964092016220093 -1.985640525817871
0.5655473470687866 -1.178309440612793 -3.1933650970458984
0.8079203963279724 -0.06860652565956116 -2.8289263248443604
0.11705730110406876 -0.07107207179069519 -1.9202210903167725
-1.3282626867294312 1.33738374710083 -0.40931832790374756
0.6472805738449097 -0.2298099398612976 -1.9929299354553223
-0.22336511313915253 -0.13867822289466858 -1.9496957063674927
-0.6890040040016174 0.49039000272750854 0.9731810092926025
-0.5835639834403992 -0.8491898775100708 1.16383957862854
-1.4368399381637573 1.2208331823349 1.8741604089736938
-1.121736764907837 0.8288165926933289 -1.749190092086792
0.5164097547531128 0.3588007688522339 -0.04201868548989296
-0.4276832342147827 0.4201148748397827 1.5451140403747559
0.5752179622650146 0.22427144646644592 -3.2194247245788574
0.6295768022537231 -0.8142644762992859 -0.12307704985141754
1.110181212425232 -0.3305742144584656 2.3164732456207275
-0.18615956604480743 0.24424658715724945 -0.7860314249992371
-0.9724178910255432 0.9779193997383118 -2.4560129642486572
1.3668090105056763 0.09591811895370483 -0.45471397042274475
-0.38639867305755615 0.21416237950325012 0.6113176941871643
-0.16910354793071747 0.08882345259189606 -1.5583962202072144
-0.7224916815757751 0.3633648157119751 -2.2526392936706543
-1.2550837993621826 -0.7480382323265076 -3.198606252670288
-0.7691537737846375 0.059078872203826904 -3.1748645305633545
0.018061187118291855 0.6068291664123535 -1.27153742313385
-1.0541530847549438 0.7728786468505859 0.17197160422801971
-0.46421968936920166 0.62860107421875 -2.377708911895752
-1.06755530834198 0.12902651727199554 -0.5956869721412659
1.1732535362243652 -0.8193517327308655 0.17432324588298798
-1.0182243585586548 0.0640505999326706 1.4571726322174072
-0.8203710913658142 1.4426190853118896 -2.0995912551879883
-0.60182124376297 -0.35669589042663574 0.6944411396980286
-0.3325977623462677 0.20166121423244476 2.5035290718078613
-0.6297933459281921 1.0116363763809204 -0.41713204979896545
-0.1728503406047821 0.4800630211830139 -2.702864646911621
-0.3579180836677551 0.24101103842258453 2.2294862270355225
-0.8276737928390503 0.8442298173904419 -1.045225977897644
1.237712025642395 0.20705965161323547 -3.308062791824341
-0.35561782121658325 0.37472325563430786 -1.1792311668395996
0.5717266201972961 -0.17014271020889282 -1.481681227684021
-0.7699530720710754 -0.8921578526496887 1.1265568733215332
0.37711915373802185 0.33099284768104553 -1.3469868898391724
0.019048292189836502 0.5080525279045105 -2.3057594299316406
1.387790322303772 -0.8433507680892944 -0.5600753426551819
-0.5381593108177185 -0.12464377284049988 1.2796555757522583
0.9915635585784912 -0.5792651176452637 2.6866912841796875
-1.3567464351654053 1.375855565071106 0.25256913900375366
-0.8099311590194702 0.9085341691970825 1.5297257900238037
-1.0954152345657349 0.1907246857881546 -1.1157102584838867
0.5980147123336792 -0.29542112350463867 0.8268977999687195
0.9379207491874695 0.03316284716129303 -2.935652732849121
-0.7469724416732788 1.003262996673584 0.7867290377616882
-0.03382954001426697 -0.5273098349571228 -0.39141976833343506
-0.879177987575531 -0.473408043384552 -2.3143393993377686
0.16429980099201202 0.12366490066051483 -0.6299103498458862
-0.9864357113838196 0.8767352104187012 2.187512159347534
-0.6332938075065613 0.11329364776611328 0.9187670350074768
0.5441348552703857 0.03419637680053711 -1.862989068031311
-0.9004932045936584 0.06561923027038574 2.5570991039276123
1.1326255798339844 0.3148307502269745 -2.2230305671691895
1.4163274765014648 -1.0619651079177856 -2.4286563396453857
1.1955488920211792 0.04858368635177612 1.5230027437210083
0.5701956152915955 -0.9056271910667419 0.5196870565414429
-0.809149980545044 0.9869164824485779 2.128399610519409
0.5950775742530823 0.4021027684211731 2.1071019172668457
-1.500831127166748 0.9975530505180359 -0.7379550337791443
-0.3925577402114868 0.3740385174751282 -1.847259521484375
-0.8651501536369324 0.9852471947669983 -0.931621253490448
0.616995632648468 0.058017536997795105 -1.8923693895339966
0.48180755972862244 -0.5684310793876648 0.8828346133232117
-0.05136682093143463 -0.549148440361023 -2.3094887733459473
0.4582839906215668 0.7455711960792542 -0.7837005853652954
-0.2264232039451599 -0.10953330993652344 1.21450674533844
-0.8983659744262695 -0.12091992795467377 -0.7641313076019287
-0.70450758934021 0.2545003294944763 -1.3518139123916626
-0.7846431732177734 0.6624842286109924 0.7335195541381836
1.0347976684570312 -0.6411234140396118 -0.6673023104667664
1.3955227136611938 -0.0294206440448761 -2.59100079536438
0.18726766109466553 -0.3883734345436096 -2.6406736373901367
-0.014285363256931305 1.3076648712158203 -1.5148515701293945
0.933907151222229 0.15253974497318268 2.5496633052825928
-0.8271259665489197 0.8886993527412415 -1.59254789352417
0.1950450837612152 0.9732185006141663 0.08153356611728668
0.10880857706069946 -0.15825287997722626 2.523772716522217
0.41839835047721863 -0.4685724377632141 -0.3090434670448303
-0.7979738712310791 0.056035056710243225 1.3297412395477295
-0.5469973087310791 0.6806796789169312 -0.021075276657938957
0.381147176027298 0.10558491945266724 -1.3577344417572021
0.49994662404060364 0.5694053173065186 2.2874958515167236
-0.9098376631736755 -0.9610949754714966 -1.9428009986877441
0.14239798486232758 -0.31796979904174805 -2.2829372882843018
-0.42857837677001953 0.1651616394519806 0.9820454120635986
0.8975740671157837 -0.3591271638870239 -3.0244638919830322
-0.5396669507026672 0.041300877928733826 1.1936737298965454
-0.9097396731376648 0.34063103795051575 1.4321154356002808
-0.25286388397216797 0.734367847442627 1.8400819301605225
0.4792746603488922 0.29615604877471924 2.1360645294189453
0.005420271307229996 0.0056777894496917725 1.4756320714950562
-1.1012954711914062 -0.18373459577560425 0.6448862552642822
-0.7888390421867371 0.5434092283248901 -2.509385824203491
0.33562716841697693 0.3493969440460205 3.2313220500946045
-0.10463381558656693 -0.600351870059967 0.28729838132858276
-0.2442266047000885 -0.8746858835220337 -0.7887029051780701
1.2233794927597046 -0.5169252157211304 0.28552794456481934
0.4366511404514313 0.23678526282310486 -3.1184439659118652
0.4191432595252991 -0.00023868680000305176 -3.293851137161255
-0.22225628793239594 1.223189353942871 -0.05236094072461128
-1.596839189529419 0.283395379781723 2.7624006271362305
-1.0194401741027832 0.9930059909820557 1.059323787689209
-0.8159919381141663 1.310737133026123 -2.1460928916931152
-0.8497380018234253 0.37835150957107544 -2.363588809967041
-1.5925573110580444 0.579939603805542 -2.3031554222106934
-0.15727944672107697 -0.604351818561554 -3.290560722351074
-0.06610838323831558 -0.2837681174278259 -1.8947389125823975
1.6000498533248901 -0.26286518573760986 -3.0585412979125977
0.5823780298233032 -0.11507077515125275 -0.3352157771587372
1.1792948246002197 0.2904699742794037 3.021311044692993
-0.31484824419021606 0.9935430884361267 0.659938633441925
-0.11205841600894928 -0.10610011219978333 -1.5809667110443115
0.15876126289367676 0.6267236471176147 -1.7417576313018799
0.4876881241798401 -0.13030312955379486 -2.7750027179718018
1.8193902969360352 -0.027620375156402588 -0.10417406260967255
-0.5654332041740417 1.1175299882888794 2.5523147583007812
0.17609986662864685 0.656366229057312 -1.8842971324920654
-0.21932673454284668 -0.4834524989128113 1.8504806756973267
-1.0767549276351929 1.362979531288147 1.7315531969070435
0.09042850136756897 0.829301118850708 -1.3554109334945679
0.01356697827577591 0.3322509527206421 0.12317029386758804
0.45609721541404724 1.1758534908294678 1.7636693716049194
-0.5262457728385925 0.4531095027923584 -0.6096629500389099
1.2868913412094116 -0.39869847893714905 2.5506980419158936
0.8416209816932678 -0.3127147853374481 -2.3614156246185303
0.666172981262207 -0.8422458171844482 0.013769282959401608
-0.5076296925544739 0.03660692274570465 1.3946033716201782
1.0654716491699219 0.1262088268995285 0.6318796873092651
0.9004251956939697 0.03229124844074249 -2.647892713546753
-0.5183200836181641 -0.25372013449668884 0.12279443442821503
-1.7592631578445435 1.344152569770813 -1.6578093767166138
2.15997314453125 -0.24062712490558624 -3.8198015689849854
-1.022497534751892 -0.4309830367565155 3.005499839782715
-0.8737409114837646 0.9653421640396118 2.7594985961914062
-0.1996297836303711 -0.48227810859680176 0.14508028328418732
-0.6338658928871155 0.4551944136619568 3.321840524673462
1.355858325958252 0.24975883960723877 -2.089132785797119
0.6695147752761841 -0.43568089604377747 -2.378451347351074
0.48336827754974365 0.03887510299682617 2.8166003227233887
0.6369838118553162 0.32901495695114136 0.5147833824157715
-0.30596405267715454 -0.06507079303264618 0.6994748711585999
-0.861826479434967 -0.5325908660888672 -2.28615140914917
-1.4876402616500854 0.3416517376899719 -2.499204158782959
1.1073062419891357 -0.5591289401054382 1.4951852560043335
-1.0559014081954956 0.9497233033180237 2.5558927059173584
0.8286492824554443 0.41726475954055786 -0.3080257475376129
-1.0718801021575928 1.155828595161438 0.808241605758667
-0.25790148973464966 0.07786653935909271 -0.6918061971664429
1.0642752647399902 -0.7799583077430725 2.811535358428955
0.19128857553005219 -0.05542157590389252 2.4852094650268555
0.1133209615945816 -1.0639901161193848 -1.7957408428192139
-0.2728205621242523 -0.7826056480407715 2.7032272815704346
-0.306328147649765 0.1439395695924759 0.6051391959190369
0.33948925137519836 -0.5981312394142151 1.1813534498214722
1.0005922317504883 -0.30207374691963196 -1.5366318225860596
-1.4081509113311768 1.429058313369751 -2.055206775665283
-0.8838468790054321 -0.48586753010749817 -2.6522066593170166
-0.02660287544131279 -0.16989436745643616 -1.0389325618743896
0.8132926821708679 -0.506869375705719 1.324530839920044
0.7086315155029297 -0.3316992521286011 2.4378929138183594
-0.8407118320465088 0.5709160566329956 -0.009829235263168812
0.4268863797187805 0.4977702498435974 1.933836579322815
0.08693647384643555 0.3849000632762909 -3.5102295875549316
0.3104929029941559 -0.2279304713010788 0.9080103039741516
0.4848439395427704 0.2627675533294678 -1.5556167364120483
0.26188167929649353 -0.8067189455032349 -0.29803627729415894
0.6119281053543091 0.0128011554479599 -0.7416607141494751
0.9485729932785034 0.021953240036964417 -2.9070260524749756
0.12152822315692902 0.12668228149414062 2.6041054725646973
1.550156831741333 -0.612276554107666 -0.4405338764190674
0.7597962617874146 0.37840163707733154 1.4096195697784424
1.065407633781433 0.08206343650817871 -0.3016653060913086
-1.3107472658157349 0.3104742765426636 -0.24930457770824432
-0.19254663586616516 -0.4888712763786316 2.0601441860198975
-1.0506911277770996 0.4118010997772217 -0.29394975304603577
0.329685777425766 0.42735755443573 -2.2361037731170654
-0.5871875286102295 -0.6047929525375366 -2.40929913520813
-1.2885265350341797 -0.6202972531318665 0.9839656352996826
-0.29982590675354004 0.4451214671134949 -0.5510655641555786
-0.57069331407547 0.8275886178016663 0.22377121448516846
-0.8081631660461426 -0.02424323558807373 -0.30474719405174255
1.1768760681152344 0.418105810880661 -0.8198117017745972
1.3459053039550781 0.4350919723510742 2.6675610542297363
1.057523488998413 0.3429110050201416 2.0904784202575684
0.09438340365886688 0.9034925699234009 -2.4216151237487793
0.7073333859443665 -0.03056889772415161 1.2306705713272095
0.20558686554431915 0.8825331330299377 1.7085710763931274
0.08652276545763016 0.12508277595043182 0.2845851480960846
-0.8402491211891174 1.2984719276428223 -1.264813780784607
-0.43497371673583984 -0.7879393100738525 -1.383529782295227
-0.470522403717041 0.9448279738426208 -1.4530218839645386
0.585771918296814 -0.7662336826324463 -2.1623499393463135
0.53867107629776 1.2444262504577637 0.22544804215431213
0.78374183177948 0.22389349341392517 -2.6723554134368896
0.29253867268562317 -0.22086460888385773 2.660856008529663
0.8699864149093628 -0.419249564409256 1.3189363479614258
-0.7888547778129578 0.06982135772705078 1.82016122341156
0.17333129048347473 -0.3555320203304291 -3.1112399101257324
0.2470538169145584 -0.3095433712005615 -2.715608835220337
0.33836492896080017 -0.13429582118988037 2.0522944927215576
-0.7411626577377319 0.15855565667152405 1.600029706954956
1.626704454421997 -0.562606155872345 1.3358091115951538
0.0008612349629402161 -0.46455276012420654 2.429680109024048
0.09577704966068268 -1.0636491775512695 -2.1078970432281494
0.42024558782577515 -0.3139774203300476 -1.8350389003753662
1.7377982139587402 -0.8952339887619019 0.24900323152542114
0.03493843972682953 0.7097105979919434 0.566321849822998
-0.046582743525505066 -0.8213174939155579 1.3304460048675537
0.8532423973083496 0.06871385872364044 -3.348379373550415
-0.2428884208202362 -0.20477648079395294 -1.6985177993774414
1.2293423414230347 -0.5583119988441467 -1.98556649684906
-0.1108466386795044 -0.1255110800266266 -1.7982509136199951
0.0808785930275917 -1.095317006111145 -3.10459303855896
0.3038082718849182 -0.25375843048095703 3.625326156616211
-0.6930539608001709 -0.05540372431278229 2.6948165893554688
-0.22761328518390656 0.010948166251182556 0.4206542670726776
-0.2954544425010681 1.2800930738449097 2.78265118598938
-0.6518303751945496 0.668308675289154 -1.3425830602645874
-0.8002824187278748 0.8612974882125854 2.1471548080444336
0.491884708404541 -0.19103781878948212 -0.8894941210746765
0.5109551548957825 0.5479090213775635 -2.140994071960449
-0.05563325807452202 1.1578352451324463 1.3890022039413452
0.16551941633224487 -0.8982930183410645 3.0809144973754883
-0.7179077863693237 1.1392701864242554 0.17538543045520782
-0.9848172068595886 -0.35799282789230347 -0.05033468082547188
-0.19877535104751587 0.29123979806900024 0.7488613724708557
-0.33368226885795593 0.4689154326915741 2.6304595470428467
-0.6844320297241211 -0.2876078188419342 -0.041768599301576614
0.09589774906635284 -0.30064916610717773 -0.9459052085876465
-0.49303025007247925 1.3919827938079834 2.913870334625244
0.4179035723209381 -0.10438178479671478 -2.70509934425354
-0.12177810072898865 1.0097801685333252 2.095979690551758
1.5067399740219116 -0.6097959280014038 2.2029876708984375
-0.2706855833530426 1.2057201862335205 -0.9174145460128784
0.4500557780265808 0.3774680495262146 1.2549153566360474
-0.5435737371444702 -0.06892651319503784 0.6808807849884033
-0.36098161339759827 0.8119709491729736 0.13423018157482147
0.19463370740413666 0.14505495131015778 1.4884178638458252
2.147139310836792 0.042649731040000916 0.5688300132751465
1.7926084995269775 -0.7815226316452026 1.6449893712997437
-0.9661723375320435 1.0904819965362549 0.8719821572303772
-0.4467034339904785 -0.4502197504043579 -1.9223802089691162
-0.34784311056137085 -0.9806641936302185 -3.1521174907684326
0.8559731841087341 -0.08792589604854584 1.2855334281921387
0.7677618861198425 -0.28840887546539307 -3.216822862625122
-0.8108988404273987 -0.5813562273979187 0.2513329088687897
-1.1845793724060059 0.6484213471412659 0.8611384630203247
0.6195399165153503 -0.5641146898269653 2.5295493602752686
1.2263262271881104 -1.0970736742019653 -3.685101270675659
0.2760620713233948 1.108059287071228 2.5095770359039307
