ply
format ascii 1.0
element vertex 816
property float x
property float y
property float z
end_header
2.7020676136016846 -0.3616933524608612 0.24950747191905975
1.8383233547210693 -0.4841880798339844 1.112573504447937
2.031829833984375 0.18269559741020203 0.5147784948348999
-1.0882679224014282 0.22366394102573395 0.9702557325363159
3.0762455463409424 0.18071456253528595 0.17395195364952087
2.121965169906616 0.43677404522895813 1.0616519451141357
-2.3657283782958984 0.6512991786003113 -0.7796252369880676
2.536471366882324 0.4593872129917145 0.2267475128173828
1.9922770261764526 0.5715042948722839 0.4185360372066498
0.29449740052223206 -0.3323577642440796 -0.715146541595459
2.8159897327423096 0.25359681248664856 0.8212130069732666
2.5869436264038086 0.42339977622032166 -0.20238761603832245
-1.5813089609146118 -0.414559006690979 0.8395460844039917
0.2650711238384247 -0.18415313959121704 1.2348986864089966
-1.9397515058517456 0.6740798950195312 -0.013134550303220749
-2.522165536880493 0.6697567701339722 0.5630034804344177
0.15003257989883423 0.4039570689201355 1.2141540050506592
1.2768574953079224 0.7275928258895874 -0.570310652256012
-2.035616159439087 0.6476514935493469 1.0194071531295776
-0.800872266292572 0.35345733165740967 1.220406174659729
-0.411645770072937 -0.33233270049095154 0.7553115487098694
-1.2736327648162842 -0.32155901193618774 0.13999339938163757
-1.8903533220291138 -0.45168864727020264 0.7756549119949341
-1.9793919324874878 -0.49100184440612793 0.6760822534561157
-1.6336802244186401 0.06676249206066132 0.9402541518211365
-1.2284976243972778 0.23820924758911133 0.5331975221633911
-2.7686946392059326 0.006767898797988892 -0.17594201862812042
-1.879213571548462 0.1882341206073761 0.6485810875892639
-1.8758742809295654 -0.2864936888217926 -0.3159788250923157
-2.4556775093078613 1.0157268047332764 0.11322291195392609
0.24597831070423126 0.580666720867157 -1.0708305835723877
1.9397963285446167 -0.2211361676454544 1.1363067626953125
-2.5524747371673584 1.006761908531189 0.6012918949127197
-2.0737929344177246 0.6577040553092957 -0.10191855579614639
1.3432228565216064 -0.32752710580825806 -0.22072072327136993
0.5063474178314209 0.9062336087226868 -0.6328296065330505
-2.686246395111084 0.912256121635437 0.13344809412956238
1.9591628313064575 0.554445207118988 -0.5316612720489502
0.3187956213951111 0.9494893550872803 -0.41264769434928894
-1.7489300966262817 0.8511020541191101 -0.8860980868339539
-1.1606754064559937 0.5500987768173218 1.2046151161193848
-0.8413453698158264 0.7040517926216125 0.971137523651123
2.9258499145507812 0.172639399766922 0.7350490093231201
1.2869787216186523 0.6877043843269348 -0.8657429814338684
-2.393209218978882 1.0409855842590332 -0.5453859567642212
2.583543300628662 0.43305131793022156 0.23278173804283142
-2.7187986373901367 -0.047249555587768555 0.21628035604953766
1.1563612222671509 -0.3152625858783722 -0.4955216348171234
-0.9045605659484863 -0.3438166379928589 0.7018746733665466
-1.649010181427002 -0.057675838470458984 -0.8902026414871216
1.6432512998580933 0.6047435402870178 -0.33658990263938904
-2.5116140842437744 0.840772271156311 0.14718258380889893
-0.9114044904708862 -0.04124162346124649 -0.7044469118118286
-2.5785741806030273 1.02195405960083 0.3385760486125946
2.4537394046783447 0.46338462829589844 0.3191804885864258
-2.3399720191955566 -0.2865150272846222 0.9931563138961792
-0.7415568828582764 -0.3381730020046234 0.7640205025672913
-1.4528558254241943 -0.2699407637119293 -0.6276419162750244
-0.9265943169593811 -0.30733975768089294 -0.8853863477706909
-1.0663697719573975 0.03788748383522034 1.1914690732955933
-2.416635751724243 0.6710101962089539 -0.8042135834693909
2.074530839920044 0.006857007741928101 -0.6393994092941284
-1.9540188312530518 0.3847477436065674 -1.2425521612167358
1.8088756799697876 -0.07695640623569489 -0.9031227231025696
1.3072912693023682 0.7074164152145386 -0.749458909034729
-1.7257726192474365 0.30559685826301575 0.694737434387207
2.004286050796509 0.5547001957893372 0.6892914772033691
-0.7383625507354736 -0.2855864465236664 -0.9709782004356384
-2.679072141647339 0.5350124835968018 -0.044232651591300964
2.1154608726501465 -0.015697449445724487 -0.8194870352745056
0.7878776788711548 0.8448591232299805 0.6159002780914307
-1.5981076955795288 0.7971093058586121 -0.6623114943504333
0.1750209629535675 -0.3310187757015228 0.3730878233909607
-2.1773300170898438 -0.17342618107795715 -1.1838301420211792
2.459472894668579 -0.3543257713317871 -0.48309874534606934
0.7245617508888245 -0.3441929817199707 -1.012677788734436
-1.2911745309829712 0.07919634878635406 0.9727694392204285
-1.23298180103302 -0.29091161489486694 0.7489176988601685
3.092604398727417 -0.2147914171218872 -0.29622596502304077
0.6212706565856934 0.674659788608551 0.7757658362388611
1.6583664417266846 -0.04795287549495697 -1.05918288230896
-1.1024314165115356 0.08000798523426056 0.5771827697753906
2.0003466606140137 0.03831704705953598 0.5586563944816589
2.7003026008605957 -0.3538542091846466 0.7384052872657776
0.7344138622283936 0.8625860810279846 0.5130812525749207
0.9700085520744324 -0.3717308044433594 -0.21689525246620178
-2.5141732692718506 0.8594394326210022 -0.37116214632987976
1.9276506900787354 0.5684342384338379 -0.17110376060009003
-2.0907022953033447 0.14587460458278656 1.1762751340866089
2.875009298324585 -0.37276697158813477 0.5599772334098816
0.6417457461357117 -0.32484012842178345 -0.9386205077171326
1.2772760391235352 0.0956258699297905 -1.1750226020812988
-1.9737560749053955 -0.34422633051872253 -0.5408087968826294
1.6054261922836304 0.4199834167957306 -1.1335500478744507
-1.8746662139892578 0.1084895133972168 1.2835214138031006
-1.5534709692001343 0.8108141422271729 -0.9368470907211304
2.511878252029419 -0.36706435680389404 -0.6335606575012207
0.7348337173461914 0.6753566265106201 0.8026511669158936
-0.32658687233924866 1.0378262996673584 0.3504329323768616
-1.9175776243209839 0.3497920334339142 0.8260940313339233
1.3363703489303589 0.7075779438018799 0.12041168659925461
2.745945692062378 0.2945137023925781 -0.6210393905639648
-2.0655064582824707 -0.3849601149559021 0.42391225695610046
1.2815132141113281 0.6646793484687805 0.9246078133583069
-1.445788860321045 -0.14249852299690247 -0.9098411798477173
-0.05634535104036331 0.9647982716560364 -0.5846080780029297
-0.5185587406158447 -0.314739465713501 0.4438296854496002
2.1504788398742676 -0.4191247820854187 0.9207426905632019
-0.4459333121776581 -0.3202773332595825 0.27142786979675293
2.9198954105377197 -0.3861360549926758 -0.4788762629032135
3.155514717102051 -0.3440452516078949 0.5287784934043884
-1.0181227922439575 0.9086053967475891 -0.6197145581245422
3.154811143875122 -0.22159717977046967 0.32208961248397827
1.793184757232666 0.5086535215377808 1.0571023225784302
1.1112555265426636 0.7470440864562988 0.4621882140636444
2.503854751586914 0.45250898599624634 0.08484267443418503
2.4277243614196777 -0.351696252822876 -0.26112934947013855
1.2803994417190552 -0.3160777688026428 0.2082548588514328
1.3835948705673218 0.6581816673278809 0.7643734216690063
0.4273372292518616 0.8954307436943054 -0.7209221124649048
-2.009991407394409 0.667743980884552 -0.23229414224624634
2.8938674926757812 0.22018465399742126 -0.5805046558380127
-0.3836267590522766 -0.3659955561161041 -0.45038875937461853
-2.6851556301116943 0.5576401948928833 -0.8175602555274963
-2.686171054840088 0.9812583327293396 0.672709584236145
2.7611422538757324 -0.3532363474369049 -0.9500802755355835
2.399305820465088 0.48302561044692993 -0.16425909101963043
-0.2256086766719818 1.0328205823898315 -0.2867598235607147
-0.5258363485336304 1.0801384449005127 -0.13800857961177826
-2.1429693698883057 0.6092537045478821 -0.20266816020011902
-0.8552271723747253 -0.16761744022369385 1.2232896089553833
0.14687448740005493 0.9679937362670898 0.518619954586029
1.2321786880493164 0.0996764749288559 -1.1840496063232422
3.1136183738708496 -0.23000046610832214 0.11959128826856613
-2.669823408126831 0.5637009143829346 -0.7457872033119202
2.0440964698791504 -0.3918668329715729 0.7738320231437683
-1.55312180519104 0.488625168800354 1.2350887060165405
1.1786361932754517 0.7272650003433228 -0.8846635222434998
-0.20359200239181519 0.2491970956325531 1.2063817977905273
-0.2611902952194214 -0.33447176218032837 -0.09170718491077423
3.0397799015045166 0.1932527720928192 0.4483085870742798
-2.0543596744537354 0.1462552696466446 0.6826701164245605
-2.484706163406372 0.5167513489723206 -1.0805774927139282
1.1220899820327759 -0.2888471484184265 -0.14461907744407654
-1.1729414463043213 0.19937542080879211 -1.2280571460723877
2.6916418075561523 0.34207653999328613 -0.512546956539154
0.480770468711853 0.4068080186843872 1.2090224027633667
0.36321431398391724 0.49078717827796936 -1.1449774503707886
-1.1450881958007812 0.8435373306274414 0.3840860426425934
1.048149585723877 0.7891690135002136 -0.5987905263900757
-2.748713254928589 0.12589357793331146 0.813252329826355
-1.4791702032089233 -0.34848806262016296 0.0300431065261364
-0.6546701192855835 -0.3517167568206787 0.077260322868824
1.2235051393508911 0.02694326639175415 1.1769248247146606
0.8937156796455383 -0.32418233156204224 -0.8437699675559998
-1.8219112157821655 0.2869988679885864 1.225885272026062
1.1042226552963257 0.6802006363868713 1.2423913478851318
-2.637545347213745 -0.03735710680484772 -1.0353851318359375
-0.8301150798797607 -0.3416203260421753 0.5382915735244751
0.9134130477905273 0.8202928304672241 -0.8268356919288635
-0.7373855710029602 1.0427881479263306 -0.33749955892562866
-1.9636448621749878 -0.4407515823841095 -0.9010649919509888
1.3223812580108643 -0.32046714425086975 -0.65843665599823
-0.9227418303489685 -0.3066253364086151 -0.779009222984314
-1.4934533834457397 -0.49989619851112366 0.8057777285575867
-1.4592905044555664 -0.17453421652317047 1.078955888748169
2.1169421672821045 -0.4054189920425415 0.8414260149002075
-2.0560197830200195 0.7940110564231873 -1.0034312009811401
-2.2416231632232666 0.6375291347503662 -0.27667346596717834
2.1384639739990234 0.5500801801681519 0.23054039478302002
2.532658815383911 0.4575337767601013 -0.1839570701122284
-2.7111620903015137 0.9379793405532837 -0.7268356680870056
-1.357752799987793 -0.33526766300201416 -0.5142747163772583
-0.23436932265758514 0.905783474445343 -0.7690227627754211
0.3397981524467468 -0.3478938937187195 -0.0256163589656353
2.77935791015625 0.35257333517074585 0.23002539575099945
1.813446044921875 -0.444724977016449 -0.8344511985778809
-2.713374614715576 0.27487343549728394 -0.8389281034469604
-0.8223715424537659 0.45812278985977173 -1.1921104192733765
0.8720152974128723 0.5900354385375977 -1.118531584739685
-1.3885809183120728 -0.40242069959640503 1.278513789176941
3.0470967292785645 -0.054373010993003845 0.764737606048584
2.1925745010375977 -0.29155778884887695 0.45076996088027954
-2.1215639114379883 0.7248969078063965 -0.9782611131668091
-2.66689133644104 0.5116748809814453 -0.5442484021186829
2.62148380279541 -0.2862403392791748 1.0327154397964478
-1.157809853553772 -0.3360985219478607 -0.6233791708946228
1.7926373481750488 -0.47200921177864075 1.1330182552337646
-1.0241848230361938 0.6776169538497925 -1.0340299606323242
-2.5967423915863037 -0.22450625896453857 -0.6038404107093811
-1.4028027057647705 -0.5028883814811707 0.9962184429168701
0.10260371118783951 -0.32181861996650696 1.1414977312088013
-1.7528398036956787 -0.5014470815658569 1.0575734376907349
-1.3795166015625 0.506325364112854 -1.2145578861236572
-1.3583372831344604 0.7793896794319153 0.8497622609138489
1.4288541078567505 0.09437480568885803 1.1925785541534424
-1.3247853517532349 0.4410930871963501 1.265432357788086
-1.4385182857513428 -0.3303527235984802 -0.579737663269043
-0.15036995708942413 0.922755777835846 0.7718422412872314
-2.003143072128296 0.7465502619743347 0.8457149267196655
-1.5894869565963745 0.7350453734397888 0.843127965927124
-1.3745423555374146 -0.04508064687252045 0.6821373701095581
1.4922000169754028 0.43408989906311035 -1.0936708450317383
-0.9101703763008118 0.04192744940519333 -1.2217791080474854
0.09727975726127625 0.3032439351081848 -1.193943738937378
2.6080470085144043 -0.36541295051574707 -0.5396677255630493
-2.366044044494629 -0.2973644435405731 0.8221065998077393
2.475470542907715 0.4556422233581543 0.31470155715942383
-1.4133625030517578 0.7315572500228882 -1.0372501611709595
-1.7147763967514038 -0.2646830976009369 -0.5449673533439636
2.902041435241699 0.21864815056324005 -0.5676267147064209
-0.40088406205177307 0.9904150366783142 -0.595122218132019
1.610947608947754 -0.06710749864578247 1.1163125038146973
1.0546942949295044 -0.311528742313385 -0.19842900335788727
-1.5339384078979492 0.14349699020385742 -0.5897296667098999
0.87981778383255 0.6312807202339172 -1.0432040691375732
-0.7144525647163391 -0.3599202632904053 -0.2504180371761322
-0.31413525342941284 0.9598530530929565 0.7552714347839355
2.1105008125305176 0.4753131866455078 1.0008606910705566
0.30920514464378357 -0.33236318826675415 0.23124094307422638
0.9973048567771912 0.2303391993045807 1.19035005569458
-2.609945297241211 0.7218836545944214 -0.5663896203041077
-1.4414770603179932 -0.20381496846675873 -0.9159957766532898
0.6416977047920227 0.8636677265167236 0.6945990324020386
-1.2713618278503418 0.7092911601066589 -1.0279531478881836
-0.2894873321056366 -0.3459201157093048 1.104653000831604
-0.8431851863861084 -0.33863282203674316 0.8549672365188599
0.6642645001411438 -0.31591057777404785 0.817001223564148
-0.4512094259262085 -0.3909136652946472 -0.26057541370391846
-2.6676459312438965 0.43217507004737854 -0.2633005678653717
-0.50264972448349 1.058742880821228 -0.10453294217586517
-1.9346784353256226 0.17090781033039093 0.8198103904724121
-1.2346948385238647 0.16153396666049957 -0.8416109681129456
-1.5605895519256592 -0.10312485694885254 -1.1791857481002808
1.8690742254257202 0.5749850869178772 -0.02827192097902298
0.7313722968101501 -0.3262937068939209 -0.9429137706756592
-2.659731388092041 0.9122419357299805 0.4903212785720825
-1.9485137462615967 -0.13533088564872742 0.7151904702186584
3.0887856483459473 -0.24502426385879517 -0.6359789371490479
-1.7997137308120728 -0.19080764055252075 1.1481226682662964
-2.641484260559082 -0.1927344799041748 0.8849195241928101
-1.2729381322860718 -0.05055449903011322 0.9309775829315186
1.6469879150390625 -0.3599870800971985 -0.10842269659042358
-1.3450886011123657 -0.24682621657848358 1.263263463973999
-1.8162169456481934 -0.023118704557418823 -1.1380757093429565
-1.4464657306671143 -0.360256552696228 0.8804425597190857
-1.0882084369659424 -0.24180589616298676 -1.1943820714950562
3.2070202827453613 -0.1871221363544464 -0.46084654331207275
-1.8552364110946655 -0.05457523465156555 -0.841023325920105
-0.12194934487342834 0.9112125039100647 0.7661023139953613
-2.5604822635650635 0.7411795258522034 -0.6267183423042297
-0.8289663195610046 0.5030848383903503 1.2074248790740967
-1.0374189615249634 0.7286521196365356 0.9308415651321411
0.15832741558551788 0.5897653102874756 1.0936726331710815
-0.8686864972114563 -0.3781556487083435 0.3282451927661896
-0.4929165840148926 1.044048547744751 0.36261650919914246
1.8904216289520264 0.38199448585510254 1.1290805339813232
-1.0948625802993774 0.14357072114944458 0.5296010375022888
-1.3384507894515991 -0.008185938000679016 1.0096408128738403
-0.27009713649749756 -0.31351572275161743 -1.0239444971084595
-2.465007781982422 1.01559317111969 0.4897848963737488
2.759763240814209 -0.35872453451156616 -0.7411271929740906
-1.5936176776885986 -0.2883716821670532 -0.6092934012413025
1.0461937189102173 -0.3038436770439148 -0.17118129134178162
-1.8174009323120117 0.37198030948638916 1.266220211982727
-2.289329767227173 -0.22292891144752502 0.4990048408508301
2.1450934410095215 -0.01044870913028717 -0.8094083070755005
1.0808806419372559 -0.11868120729923248 1.1874117851257324
0.9708589911460876 0.6172097325325012 1.1103867292404175
-1.74687922000885 0.11974242329597473 0.7951124310493469
2.9981961250305176 -0.012205526232719421 -0.8012523651123047
-0.4589970111846924 0.09918609261512756 -1.1943035125732422
0.4600856602191925 0.9451636075973511 0.043755870312452316
-2.052555561065674 0.7227393984794617 -0.5594773888587952
1.1997315883636475 -0.10030917823314667 -1.166110634803772
-2.4514548778533936 0.8783738017082214 0.03957450017333031
1.5896457433700562 -0.051286399364471436 1.1503839492797852
-1.5462559461593628 0.2439308762550354 0.8234858512878418
-1.7575212717056274 0.19558997452259064 0.8403493165969849
-2.153413772583008 0.3282760977745056 -1.0797666311264038
2.8398663997650146 -0.37399807572364807 0.6023893356323242
2.5629141330718994 -0.35722512006759644 -0.4704628884792328
-0.997292160987854 0.8331965804100037 -0.8852547407150269
2.5766794681549072 0.4001680016517639 0.5588756203651428
-0.07612859457731247 0.1740415394306183 1.2043389081954956
2.903122901916504 0.2123967707157135 0.7353687882423401
1.7897605895996094 -0.08131155371665955 -0.8227480053901672
2.9995789527893066 -0.34806686639785767 0.4688147306442261
0.0833379253745079 0.23342108726501465 1.2235368490219116
-0.840615451335907 -0.36264240741729736 0.5577207803726196
-1.865972638130188 0.04344575107097626 1.2576227188110352
0.11216939985752106 -0.3577473759651184 -0.16117870807647705
1.5547634363174438 0.5793575048446655 1.0234253406524658
-1.739712119102478 0.729183554649353 -0.33720067143440247
-2.1286773681640625 -0.10163138806819916 -0.8732144236564636
1.3650754690170288 0.7019292116165161 -0.4440581798553467
0.149531751871109 0.0391225665807724 -1.1809478998184204
-2.376129150390625 0.6241787672042847 -0.09255319833755493
1.0638452768325806 -0.028831183910369873 -1.169765591621399
0.1062217578291893 -0.31894853711128235 0.4140247404575348
-2.5642075538635254 1.0176405906677246 0.7983316779136658
-0.8634809255599976 0.9894333481788635 -0.5370489358901978
1.1277700662612915 0.6672884225845337 1.2389744520187378
-1.6972882747650146 0.7388080954551697 0.4029862880706787
1.3613742589950562 0.6641305088996887 -0.8446378707885742
0.1645096391439438 0.9848549365997314 -0.17920927703380585
-1.5407215356826782 -0.05278678238391876 -0.8862273693084717
3.170145034790039 0.05751877278089523 0.06784338504076004
-0.24723918735980988 -0.3368855118751526 0.19287046790122986
2.269965887069702 0.47963374853134155 -0.5430617332458496
-2.3825225830078125 0.6255309581756592 0.8442619442939758
-2.0863800048828125 0.6354275941848755 0.29515230655670166
0.8443050384521484 -0.30020344257354736 -0.5081679224967957
-0.5098450183868408 -0.3276412785053253 1.1008878946304321
-1.4283593893051147 0.1679680198431015 0.9143387079238892
-2.6598751544952393 0.562494158744812 0.021437661722302437
-2.0310170650482178 -0.25308871269226074 0.6982866525650024
-1.625751256942749 -0.06602582335472107 -0.560444176197052
0.3276408612728119 0.16327784955501556 -1.1995187997817993
-1.121446967124939 -0.10976512730121613 -0.6942207217216492
0.7941230535507202 -0.3149383068084717 -0.9993645548820496
-2.2601962089538574 0.6011549234390259 -0.8569762706756592
2.890327215194702 0.2969949245452881 -0.2267221212387085
-2.2206623554229736 -0.2634865641593933 -0.08216634392738342
-2.7508490085601807 0.23677808046340942 0.4385407865047455
-1.8780938386917114 0.03925732523202896 -1.2118299007415771
1.881844401359558 -0.310671329498291 -0.5732929706573486
0.7788026928901672 0.7488385438919067 -0.9219268560409546
1.867821455001831 -0.16182784736156464 -0.996536135673523
-0.2931816577911377 0.8666867017745972 0.8157130479812622
-1.076453685760498 0.16109396517276764 -1.2295581102371216
-2.696263551712036 -0.08588960766792297 -0.8755823373794556
2.041430950164795 0.10385312139987946 0.5982662439346313
1.6164008378982544 -0.029173240065574646 1.1329195499420166
-0.28194427490234375 -0.3292020857334137 0.9089936017990112
-0.281485915184021 -0.30577075481414795 0.6455808281898499
-1.9138014316558838 -0.07185457646846771 -0.6132776141166687
0.9729901552200317 0.6866373419761658 1.1252233982086182
1.556771159172058 0.6158891916275024 -0.0660448744893074
2.526362657546997 0.3080441355705261 -0.9469524621963501
-1.3070056438446045 0.801544189453125 -0.4595784842967987
0.8863463997840881 -0.3263011574745178 1.0027419328689575
-1.5669156312942505 -0.3363334834575653 0.16799096763134003
2.7166802883148193 0.28994834423065186 -0.6705225706100464
-2.2607977390289307 0.9052487015724182 -0.6094217300415039
-1.1555825471878052 -0.3542764186859131 -0.6674782633781433
3.0155601501464844 -0.35069453716278076 0.5347571969032288
2.040275812149048 0.03746471554040909 -0.9048416018486023
-2.063120126724243 0.18582133948802948 -1.2259324789047241
-1.873570203781128 -0.35240375995635986 -1.2302252054214478
-2.4256956577301025 0.856728732585907 -0.5682210326194763
-0.636447012424469 -0.32536226511001587 1.1074848175048828
1.5553781986236572 -0.24266624450683594 -1.217803955078125
0.6687072515487671 -0.3250725269317627 -0.8064186573028564
0.7902389168739319 0.8186876177787781 0.6552546620368958
-0.874210000038147 -0.33024677634239197 -0.44340094923973083
-2.6720633506774902 -0.13233081996440887 0.6410010457038879
-0.394661545753479 0.6631144285202026 0.9784975647926331
2.2844250202178955 0.4901173412799835 0.7395314574241638
0.4278697967529297 -0.3491523861885071 0.3798386752605438
0.9137639999389648 -0.3114126920700073 -0.07165437191724777
-0.9990934729576111 0.1580028086900711 -1.2460122108459473
0.44291141629219055 -0.36288613080978394 0.42367562651634216
2.02834415435791 0.5471528768539429 -0.4819011688232422
-2.6745071411132812 -0.1430758386850357 0.48785120248794556
1.9286234378814697 -0.2653551995754242 -0.6269577741622925
-0.4302319884300232 -0.3285924792289734 -1.0679513216018677
-2.3752031326293945 0.6127454042434692 -1.052494764328003
-0.051379021257162094 -0.3153894543647766 -0.94769686460495
-0.08667483925819397 -0.07523132860660553 -1.1967027187347412
2.555037260055542 -0.21652154624462128 1.083104133605957
-2.241051197052002 0.6316128373146057 0.03466528281569481
-2.6963305473327637 0.23376426100730896 0.7328062057495117
-2.689639091491699 0.2488727569580078 -0.28919219970703125
-2.333559513092041 0.5891427993774414 -0.7385846376419067
-0.4030669033527374 -0.36132317781448364 -0.2013799548149109
-2.379610776901245 0.6646895408630371 0.843012273311615
2.4543514251708984 -0.34540438652038574 0.1756340116262436
2.0386977195739746 -0.3078557252883911 1.1413354873657227
1.1204681396484375 -0.3264515995979309 -1.0516788959503174
-1.9041852951049805 -0.31646156311035156 -0.6000756621360779
0.9293285012245178 0.6566676497459412 1.1443575620651245
0.19987556338310242 0.6353967189788818 -1.0140454769134521
-0.8360080718994141 0.9282189607620239 0.12476066499948502
1.4927828311920166 -0.2584115266799927 -0.637029767036438
-1.8467438220977783 -0.4021519124507904 -0.8089762926101685
-1.9981294870376587 0.05345344543457031 -0.7524279356002808
-1.9168130159378052 -0.24231448769569397 0.5461224913597107
-1.6494402885437012 0.21363750100135803 -0.623458981513977
1.177002191543579 0.6677747368812561 1.168479084968567
0.4515955448150635 0.92643803358078 0.4499262571334839
-2.317063570022583 0.8990947008132935 -0.15932922065258026
-0.8883625268936157 0.6374924182891846 -1.0685287714004517
1.739841341972351 0.027320705354213715 -0.9405571818351746
0.8535904288291931 -0.06366480886936188 -1.1667370796203613
2.0051333904266357 0.3148227632045746 1.0903966426849365
-0.4390227794647217 -0.306143194437027 0.05442697927355766
-2.425851583480835 -0.1643185168504715 0.5527536869049072
-0.9338332414627075 -0.3354746699333191 -0.2714637517929077
-0.8534123301506042 -0.3566031754016876 -0.30185985565185547
-1.8026801347732544 0.7263981103897095 -0.41138559579849243
2.129249095916748 0.5117442011833191 0.768109142780304
-1.4884721040725708 -0.12327617406845093 0.7438163757324219
0.24317917227745056 -0.3192980885505676 -0.8187246322631836
2.1990509033203125 0.5324437022209167 0.22368589043617249
-2.6343748569488525 0.9094685316085815 0.9337443113327026
-1.9046552181243896 0.7820342183113098 -1.0017575025558472
-2.049774169921875 -0.22209854423999786 -0.5820053815841675
-1.4940506219863892 0.7960373163223267 -0.6430772542953491
1.514204740524292 0.5068744421005249 1.106658697128296
-2.4182474613189697 0.6410648822784424 0.6900025606155396
-1.4880650043487549 0.7338320016860962 0.19797296822071075
0.7712764143943787 0.8560768365859985 0.3661036491394043
-2.509507179260254 0.8691533803939819 -0.15194827318191528
-0.403636634349823 0.20646026730537415 1.1662473678588867
2.5667672157287598 0.3346483111381531 0.9457928538322449
0.16130925714969635 0.7186123728752136 -0.9220108985900879
-2.296067714691162 -0.2490646094083786 0.8715386390686035
-2.1698262691497803 0.621902346611023 0.16390614211559296
0.7263398170471191 -0.33900535106658936 0.908273458480835
-1.0498218536376953 0.8638247847557068 0.36831364035606384
-0.34929466247558594 0.9877971410751343 -0.04898437112569809
-0.7467168569564819 0.9410867691040039 0.20873616635799408
1.6819192171096802 -0.13370351493358612 -0.8492549657821655
1.5642566680908203 0.4070369601249695 -1.1380505561828613
-1.8400887250900269 0.3075774908065796 -1.2384276390075684
2.8305811882019043 0.17902624607086182 0.9034451842308044
0.7497909665107727 -0.31038013100624084 0.11854619532823563
1.5366398096084595 0.422076940536499 -1.1380895376205444
0.6291114091873169 -0.3360118865966797 1.066609501838684
1.328926920890808 0.7023831605911255 0.03653427213430405
1.2045601606369019 -0.31697672605514526 0.8206818699836731
3.178797721862793 -0.0446045845746994 0.324409544467926
0.7229361534118652 0.6586824655532837 0.8127970099449158
2.121795654296875 0.5616374015808105 -0.10298299789428711
-0.3165472745895386 1.0356285572052002 -0.2746621370315552
0.9459531307220459 0.6998545527458191 0.8687246441841125
0.65279221534729 -0.31608977913856506 -0.3937409520149231
1.140399694442749 0.6410269737243652 1.2573728561401367
1.8744430541992188 -0.3336203098297119 -0.607846736907959
-0.1115894690155983 -0.31375473737716675 0.07392958551645279
-1.2560231685638428 -0.3255997598171234 1.2592239379882812
-1.8203123807907104 0.12291116267442703 0.8714896440505981
-1.8024003505706787 -0.3178228735923767 -0.20852994918823242
1.2197943925857544 -0.3058147728443146 -1.1092779636383057
2.913705348968506 -0.2089087963104248 -0.9494559168815613
1.7648675441741943 -0.09001824259757996 -1.1258903741836548
-2.0234932899475098 0.03376416862010956 0.8327342867851257
-0.2181188464164734 0.43520182371139526 -1.1694310903549194
-1.5349169969558716 0.2031286358833313 -1.106697916984558
1.8735430240631104 0.012395963072776794 0.5681909918785095
1.9148750305175781 0.5612969994544983 0.7173979878425598
-0.9445772171020508 -0.1913396269083023 1.2125465869903564
-2.554755449295044 1.041943907737732 -0.7571385502815247
1.0964488983154297 0.7871087789535522 -0.22831468284130096
-0.9030024409294128 -0.32928934693336487 1.1220448017120361
1.6021428108215332 0.6180133819580078 -0.05534983053803444
-2.4457006454467773 -0.28901565074920654 0.5629541873931885
-2.6779558658599854 0.3659054636955261 -0.4863869249820709
-1.8871582746505737 0.23982200026512146 -0.8128779530525208
-0.7099395990371704 0.7013418674468994 0.9671969413757324
-0.6396912336349487 -0.18513090908527374 1.2358322143554688
2.103426694869995 0.08173765987157822 1.0772185325622559
1.6003148555755615 0.10208910703659058 -1.1676713228225708
-1.8362674713134766 0.2153397798538208 0.9555292725563049
-0.8261576294898987 -0.3638646602630615 -0.7100663185119629
0.7536718845367432 0.1685231328010559 1.2145400047302246
0.2912767231464386 0.12119798362255096 -1.193278431892395
-1.7783184051513672 0.7392359972000122 -0.3074030578136444
0.6105515956878662 0.881542444229126 -0.6040170192718506
-0.5414923429489136 1.0515891313552856 -0.07466485351324081
-2.255073308944702 -0.07041467726230621 0.7648288607597351
-1.0165791511535645 0.9426742196083069 -0.8048796057701111
-1.0977082252502441 0.9090576171875 0.6642641425132751
1.294319748878479 0.6982495784759521 0.4801240563392639
0.15433372557163239 0.9696520566940308 0.4089585244655609
0.48411405086517334 -0.3419487476348877 0.33681485056877136
-1.248557448387146 0.23192544281482697 1.2803058624267578
-2.6315019130706787 0.9356615543365479 0.0957590714097023
-2.1835758686065674 -0.2714312672615051 0.921852171421051
0.972967267036438 0.5279020071029663 -1.1218180656433105
2.938206911087036 0.21859140694141388 0.6778063178062439
-1.1866998672485352 0.30567267537117004 -1.2240358591079712
-1.6847565174102783 0.3445451855659485 0.6552231907844543
2.3373472690582275 0.44327905774116516 0.873091995716095
-1.5672240257263184 -0.07198576629161835 -0.6152995824813843
-2.3557753562927246 0.987459659576416 0.820009708404541
-1.4482853412628174 0.2733873724937439 -1.2332684993743896
-1.383536458015442 -0.04812702536582947 1.2671031951904297
2.086977243423462 -0.09379319846630096 -1.068118929862976
-0.7631555795669556 0.5992302894592285 1.1052403450012207
-0.0342509001493454 -0.33532780408859253 0.9522151947021484
-1.552929162979126 -0.3242560029029846 0.03919147327542305
1.778452754020691 0.02308071404695511 0.6283456683158875
-1.654844045639038 0.25630563497543335 -0.8084447383880615
-2.3178768157958984 -0.07206693291664124 1.1890240907669067
-0.8997583389282227 -0.31118741631507874 -1.0303568840026855
-2.7443721294403076 0.011242210865020752 0.6933475136756897
-2.726107597351074 -0.004336833953857422 0.8742594718933105
-0.7586818933486938 -0.33815714716911316 0.8170263171195984
-1.3534175157546997 0.296550989151001 0.5871853232383728
-2.7474429607391357 0.40533342957496643 -0.8395824432373047
2.6131227016448975 -0.3681924343109131 -0.44122979044914246
-0.9077771902084351 0.45004749298095703 1.2130091190338135
2.7199864387512207 -0.3741905689239502 -0.39522773027420044
-2.150355339050293 0.6371369361877441 -0.15414556860923767
0.245014488697052 0.7398419976234436 0.817365288734436
1.1817610263824463 0.7638616561889648 -0.4673519730567932
-0.7195491790771484 1.011175274848938 0.432131826877594
-2.5121443271636963 0.5913074612617493 -1.063997745513916
-0.26804137229919434 1.0288742780685425 -0.13846173882484436
0.8782315850257874 0.8036728501319885 0.45299091935157776
-1.844468593597412 -0.10793806612491608 1.2406128644943237
-1.8088533878326416 0.38486576080322266 0.8234560489654541
-1.3791550397872925 -0.060903266072273254 -0.7943785786628723
0.6140910983085632 0.8400095701217651 0.48766258358955383
-0.7812038064002991 0.6207998394966125 1.0730212926864624
-2.3631701469421387 0.1772603541612625 1.227083444595337
-2.412546157836914 0.6400331258773804 -0.14635883271694183
-0.06618964672088623 0.2565307021141052 1.2142853736877441
-0.13090908527374268 -0.32585057616233826 0.507189929485321
2.1996450424194336 -0.0539870411157608 -0.6372399926185608
-1.3856217861175537 -0.12014862895011902 1.0035072565078735
2.55572247505188 0.3369882106781006 0.9446728229522705
-1.6277644634246826 -0.257220983505249 -1.243933081626892
2.088582992553711 -0.3435438573360443 -0.2320174127817154
-1.6995668411254883 0.20828771591186523 -1.1550143957138062
-1.2772443294525146 0.7488722801208496 -0.9994806051254272
-0.4275580644607544 -0.2750891447067261 1.2210386991500854
-0.16768686473369598 -0.2320663034915924 1.2527824640274048
1.8672420978546143 0.2258278727531433 1.1481696367263794
1.6145286560058594 -0.012000590562820435 -0.6146240234375
-2.1046931743621826 0.6401634216308594 -0.822280764579773
-0.6437236666679382 0.9503055810928345 0.0038148043677210808
2.784268617630005 -0.35700535774230957 -0.7029454708099365
-2.1138272285461426 -0.2743210792541504 -0.6770370602607727
-1.3195538520812988 0.8578285574913025 0.637199342250824
-0.9386470913887024 0.0735974833369255 1.2262723445892334
1.5129839181900024 0.6218793392181396 0.6836382150650024
-1.0482956171035767 -0.20684905350208282 -0.7437449097633362
0.6637340188026428 0.8985993266105652 -0.49259549379348755
-2.4237072467803955 0.7713682651519775 -0.27105244994163513
0.9003252983093262 0.8345433473587036 -0.6762698888778687
2.2620110511779785 0.44722336530685425 -0.8774446249008179
-0.42031043767929077 -0.3237312436103821 0.9894112944602966
-2.568162202835083 1.0184495449066162 -0.06351388990879059
1.6387360095977783 0.006646305322647095 -0.7363948822021484
-0.7630173563957214 -0.3301423490047455 -0.7937189936637878
-1.5711945295333862 -0.3884631097316742 -1.2428843975067139
-0.01746399700641632 -0.07085040211677551 -1.1791552305221558
-0.9080036878585815 0.580960214138031 1.1451038122177124
-2.0878241062164307 0.6411357522010803 -0.7571261525154114
0.03721468895673752 0.9821654558181763 0.26592400670051575
2.8042871952056885 0.3269141912460327 -0.3400527536869049
-2.3099145889282227 0.6305334568023682 0.48153674602508545
-2.1617984771728516 -0.05660012364387512 -0.7600005269050598
-1.7114593982696533 0.7671159505844116 -0.9862851500511169
-1.549055576324463 -0.07375672459602356 1.1558425426483154
2.613778591156006 -0.21007536351680756 1.060624599456787
0.9343472719192505 -0.323293000459671 -0.7242584228515625
-2.563382148742676 -0.1186421811580658 0.3350539803504944
-2.460298776626587 0.561875581741333 0.9531006217002869
-1.330721139907837 -0.12481546401977539 1.1911205053329468
0.5348173975944519 0.6092581152915955 0.8511701226234436
3.050811290740967 0.18628965318202972 0.1580384224653244
-2.635075569152832 0.055404163897037506 1.0923658609390259
-1.1709262132644653 -0.3488081991672516 -1.0125319957733154
-1.2657344341278076 -0.13667984306812286 0.8136686682701111
1.940560221672058 -0.0864512175321579 0.69670569896698
0.21988248825073242 0.9617246389389038 0.17949716746807098
-2.288879871368408 0.9715732932090759 0.20916788280010223
-0.19615069031715393 0.9911286234855652 -0.636580228805542
1.1676139831542969 0.4174308180809021 -1.1452263593673706
-2.5507047176361084 1.025636911392212 0.5063702464103699
-1.35560941696167 -0.0826731026172638 1.2501686811447144
2.862884044647217 -0.36970317363739014 0.7067791819572449
0.8812968730926514 0.8332090973854065 -0.7314337491989136
2.218163013458252 -0.0015443265438079834 -0.8092681765556335
0.318026602268219 0.04588232934474945 -1.1886533498764038
0.9462919235229492 0.8085121512413025 0.6661335229873657
0.9953890442848206 -0.18856599926948547 1.1847699880599976
-1.3615444898605347 0.7781436443328857 0.33089303970336914
1.469226360321045 0.5968062877655029 -0.9147309064865112
-1.7562605142593384 -0.3406120538711548 0.28372785449028015
-1.940567970275879 0.24994495511054993 0.9544024467468262
-0.6805243492126465 -0.34769096970558167 0.22700506448745728
-2.117818593978882 -0.0335199236869812 -0.7382309436798096
-1.6282366514205933 0.05479194223880768 0.8607876300811768
-0.11828162521123886 0.685269832611084 0.9548216462135315
-2.3997929096221924 1.0125101804733276 0.2883618175983429
0.8720405101776123 -0.3180600106716156 -0.5126714706420898
-0.34263670444488525 -0.20050106942653656 -1.1922624111175537
2.16139817237854 -0.2268114686012268 -0.8728312253952026
0.40135902166366577 0.9443399906158447 0.13518472015857697
0.40643465518951416 -0.32359886169433594 0.8726698756217957
2.9574358463287354 0.2521832585334778 0.5263664126396179
1.6032700538635254 -0.3409019708633423 -0.1684560924768448
-1.5463268756866455 -0.551344633102417 1.0645501613616943
-1.9647630453109741 0.2346438765525818 1.2845433950424194
2.4412927627563477 0.3954406976699829 -0.7432525157928467
-0.942803144454956 0.8419561982154846 -0.8448519110679626
-1.3755958080291748 0.08016727864742279 -0.7179292440414429
-1.9928042888641357 -0.09470269083976746 0.624872088432312
-2.1096701622009277 0.63226318359375 0.5748928189277649
1.6033538579940796 -0.348066508769989 -0.07320313900709152
1.0131773948669434 0.8004950881004333 -0.7518258690834045
-0.6775456070899963 0.2975830137729645 -1.2035462856292725
2.5958969593048096 -0.3256259858608246 -1.0779856443405151
-2.282172203063965 -0.3375222682952881 0.544053852558136
2.0486860275268555 -0.4695923924446106 0.8708515167236328
0.38836541771888733 -0.2373737096786499 -1.138375997543335
-2.574911117553711 0.5003326535224915 1.0546599626541138
-1.5062730312347412 0.30115488171577454 -1.1840764284133911
1.091131567955017 0.6917855739593506 0.9814489483833313
-0.751943051815033 -0.3256416618824005 0.7252203226089478
-2.195735454559326 0.3989354074001312 1.2115293741226196
3.124685525894165 -0.053247109055519104 0.5285813212394714
0.9374954104423523 0.3357994556427002 -1.2058018445968628
-1.658019781112671 0.7069489359855652 -0.026155218482017517
-1.5722317695617676 0.11880725622177124 -1.166793942451477
-0.4082532525062561 1.0276267528533936 0.36327165365219116
2.6699185371398926 0.40386778116226196 -0.24677270650863647
-2.330310583114624 0.34251880645751953 1.2065738439559937
0.4176410436630249 -0.32063737511634827 0.5093391537666321
-0.781677782535553 1.0301477909088135 0.09183688461780548
1.5083860158920288 -0.003823414444923401 -1.1753162145614624
1.1215438842773438 0.7487423419952393 0.5609545707702637
-1.498278021812439 0.2771815061569214 -1.2166006565093994
-2.710292100906372 0.06422089040279388 -0.4562150835990906
-1.3420809507369995 0.15849369764328003 -0.7983757257461548
-1.726892113685608 0.28737664222717285 -1.141517996788025
3.074742078781128 0.19637341797351837 0.2350982129573822
-0.848120391368866 0.4482078552246094 1.2276041507720947
1.2538819313049316 -0.1372007131576538 -1.157984972000122
-1.6290098428726196 0.0896286591887474 0.8206300139427185
-2.394468069076538 0.6267111301422119 1.0511250495910645
-1.7031289339065552 0.11225654184818268 1.1891858577728271
-1.5230236053466797 -0.3052559494972229 -1.2081706523895264
1.7297093868255615 0.5875406861305237 0.3572414517402649
2.202848196029663 -0.34741371870040894 0.7708398699760437
0.3871682286262512 0.10920719802379608 -1.2209539413452148
-2.286777973175049 0.9017570614814758 0.31441280245780945
-2.590996742248535 0.983012855052948 -1.0017929077148438
2.134223699569702 0.08211760222911835 0.5865659117698669
-1.9946527481079102 0.4519888758659363 -1.2192660570144653
0.45649370551109314 0.12012599408626556 -1.1971580982208252
-0.7584208250045776 1.008773684501648 -0.2314719259738922
-1.788865566253662 0.721642255783081 -0.48804333806037903
-2.5501599311828613 1.0849968194961548 -0.3204195201396942
0.016903288662433624 0.7375164031982422 0.8728774189949036
-1.825777530670166 -0.3251015245914459 0.7413132190704346
-0.2695075273513794 0.20610150694847107 -1.193694829940796
2.5700576305389404 -0.3641979694366455 0.2930009067058563
2.3039088249206543 -0.3287000060081482 0.43229347467422485
1.6655343770980835 0.14709171652793884 1.1666826009750366
1.9862056970596313 -0.36495324969291687 -0.2680507302284241
-2.223003387451172 -0.24924135208129883 -1.0279234647750854
-0.3414149880409241 -0.3436262011528015 1.145885705947876
-1.278717041015625 0.8036909699440002 -0.2570825219154358
-0.8812093138694763 -0.07036879658699036 1.2142057418823242
-1.866862416267395 -0.11438824236392975 0.6842765808105469
2.9655683040618896 -0.3695490062236786 0.716031014919281
0.6476832628250122 0.81541508436203 0.7841772437095642
1.1390641927719116 -0.35405904054641724 -0.202717125415802
-1.6405996084213257 -0.25997522473335266 0.9516316056251526
-2.4763829708099365 0.8538848757743835 -0.46097248792648315
-0.9047803282737732 -0.26035964488983154 -1.195662021636963
1.3000584840774536 0.11791540682315826 -1.1848691701889038
-0.6686597466468811 0.06534675508737564 1.1978909969329834
1.7777981758117676 -0.3304215669631958 -0.24208660423755646
0.3560710847377777 -0.3143898546695709 -0.4845792055130005
0.9882169961929321 0.47459104657173157 -1.1385992765426636
-1.4608371257781982 0.7809489965438843 -0.47218626737594604
1.9130696058273315 -0.4284017086029053 0.7925446629524231
-1.4137132167816162 -0.45852386951446533 0.890982449054718
0.7467072606086731 0.2424129992723465 1.1953445672988892
0.6190093755722046 0.5671364068984985 -1.07779860496521
-1.6206647157669067 0.6267307996749878 -1.1473472118377686
-1.2917073965072632 -0.32695481181144714 -0.7564206719398499
0.8736323118209839 -0.318764865398407 -0.8327537775039673
-1.2828443050384521 -0.35849514603614807 -0.9268580079078674
-1.6313934326171875 0.2586270868778229 0.6987241506576538
1.228712558746338 0.7433936595916748 -0.29429832100868225
-1.7371485233306885 0.7483806610107422 0.7849364876747131
2.4077250957489014 0.4903392493724823 -0.16243934631347656
1.3612995147705078 0.640177845954895 0.8824885487556458
-1.5777113437652588 -0.26404643058776855 -0.794133722782135
-0.038414910435676575 0.8358211517333984 0.817501962184906
-1.4047644138336182 -0.15604373812675476 -0.7573304176330566
-2.1314213275909424 -0.16107763350009918 -0.7096725106239319
-1.654125690460205 0.33442771434783936 -0.6622591614723206
-2.3694419860839844 0.04759025573730469 1.202278971672058
2.044736862182617 0.5502864122390747 -0.23745016753673553
0.46901655197143555 -0.3183595836162567 0.751459002494812
1.6445649862289429 -0.3328000009059906 0.06815604120492935
-2.0399482250213623 -0.018349826335906982 -0.6046364903450012
3.0055365562438965 -0.1257925033569336 -0.6907057762145996
0.4972759187221527 -0.2614550292491913 -1.1321120262145996
0.4793163537979126 0.9222500324249268 0.09266861528158188
-1.0757827758789062 -0.331650048494339 0.0882369801402092
0.3043386936187744 0.17895808815956116 -1.199242115020752
-2.116034984588623 -0.1429307460784912 1.1516082286834717
-0.8550457954406738 0.8509629368782043 0.8146532773971558
2.333059549331665 -0.16695956885814667 1.1159706115722656
-1.4255746603012085 0.35148173570632935 -1.230444312095642
-1.5460931062698364 -0.5555866360664368 -1.2440614700317383
-2.246842622756958 0.8327451944351196 -0.22770294547080994
-2.2868165969848633 0.9420838356018066 0.6011043787002563
1.9860886335372925 0.0190516859292984 -1.029083251953125
-2.0890724658966064 0.06028404086828232 0.6640905737876892
-0.5353515148162842 0.08029808104038239 -1.2062218189239502
0.48008373379707336 -0.3555382788181305 0.13768230378627777
-1.2610905170440674 -0.37062233686447144 -0.3275010287761688
0.4247628450393677 0.9380980134010315 0.1861700415611267
-1.777441143989563 -0.4012835919857025 1.2596638202667236
0.6589279770851135 -0.31972169876098633 0.6735667586326599
2.0122623443603516 0.17086806893348694 -0.6806216239929199
-0.6348012089729309 -0.32668060064315796 0.8975228667259216
-2.3505795001983643 1.0053329467773438 0.3797187805175781
-0.23111389577388763 -0.3083656430244446 -1.1334627866744995
-2.0223405361175537 0.8463956713676453 -0.9035612344741821
-0.8139433860778809 -0.35092663764953613 0.41199949383735657
0.31526097655296326 -0.3410246968269348 0.2940291464328766
-1.7247573137283325 0.0241050124168396 -1.181862473487854
1.3740525245666504 0.6977549195289612 0.16061599552631378
-2.4240691661834717 1.0514440536499023 -0.9019504189491272
-2.1435601711273193 -0.027366891503334045 1.2642109394073486
-2.1388988494873047 0.7285382747650146 -0.8842745423316956
0.44949406385421753 -0.14713814854621887 -1.1610667705535889
1.950838327407837 0.5806505680084229 -0.15320929884910583
0.6078753471374512 -0.16763870418071747 -1.1566240787506104
1.2630221843719482 -0.3221871256828308 0.4976970851421356
-2.070434808731079 0.10481681674718857 0.8412189483642578
0.5961767435073853 -0.3255181312561035 -0.7943620085716248
-2.105177640914917 0.3573628067970276 -1.231718897819519
-0.2764897644519806 0.7102969884872437 -0.9636019468307495
2.762294054031372 -0.3593859076499939 0.5667515397071838
2.499657392501831 0.15873035788536072 -1.099368929862976
0.846299946308136 -0.3757951557636261 0.06750912964344025
-0.16181911528110504 0.5758587718009949 1.1029332876205444
2.0445339679718018 -0.32567843794822693 1.1330407857894897
-1.4945197105407715 0.40565139055252075 1.2610958814620972
-1.1226959228515625 0.3039884567260742 0.5226805806159973
-1.3723795413970947 -0.23935019969940186 0.7199721932411194
-1.7751814126968384 0.3348645567893982 0.9242950081825256
1.6579855680465698 -0.35484784841537476 -0.02061035856604576
1.172900915145874 -0.3119189441204071 0.9277676343917847
-1.967373013496399 -0.22883859276771545 0.7144567966461182
-1.5172653198242188 -0.16096489131450653 1.222318410873413
1.0639762878417969 -0.33741408586502075 0.01723545975983143
2.638441801071167 0.33668768405914307 -0.6698540449142456
-0.4217202365398407 0.1194765642285347 1.182291865348816
-1.8536934852600098 -0.08748002350330353 0.7792657017707825
-2.4196510314941406 0.3955443501472473 1.1915651559829712
-1.8276187181472778 -0.13448290526866913 1.150888204574585
-2.648951292037964 1.013112187385559 0.47882410883903503
1.7763627767562866 -0.3506656885147095 0.12204628437757492
-2.091672658920288 0.1278548240661621 0.7724020481109619
1.5480756759643555 0.6096519231796265 -0.6535108685493469
0.9645342826843262 -0.32022109627723694 -0.5315387845039368
-0.728121280670166 1.0605580806732178 0.5545036196708679
3.1707048416137695 0.10339872539043427 0.3743237853050232
-1.351555585861206 -0.012303829193115234 -0.7484597563743591
-1.6591941118240356 0.311723530292511 1.2432434558868408
-2.0887603759765625 -0.06683969497680664 -0.6679781079292297
1.3051222562789917 0.5631176233291626 1.0626397132873535
-1.841688632965088 -0.4776964783668518 -0.9236422181129456
-1.2337596416473389 -0.050185561180114746 0.8899924755096436
-1.5197992324829102 0.7543065547943115 -0.30175289511680603
-1.5011272430419922 -0.20891544222831726 -1.2207295894622803
-1.4985827207565308 0.7888944149017334 -0.6249675750732422
0.999198853969574 0.8104763031005859 -0.584737241268158
-2.239858627319336 -0.13897307217121124 1.0388519763946533
1.1253116130828857 -0.3128320276737213 0.21408262848854065
-1.0543171167373657 -0.042241171002388 -0.8203243613243103
-2.5521562099456787 0.8284540176391602 0.6125998497009277
2.446974039077759 -0.36022067070007324 0.263534814119339
0.357965886592865 -0.3405967950820923 -0.46803656220436096
-0.30450037121772766 0.5200140476226807 1.1739747524261475
-2.6525967121124268 0.9973844885826111 0.006346873939037323
-2.678015947341919 0.4661944508552551 -0.9552311897277832
-1.4384117126464844 -0.4130184054374695 -0.8892152309417725
-0.7952800989151001 -0.387697696685791 0.2669181227684021
-0.6788612008094788 1.027165412902832 -0.4699645936489105
-1.1698310375213623 0.08733406662940979 -1.2580523490905762
0.1877252161502838 0.3881518244743347 1.2221251726150513
-2.446578025817871 0.6042772531509399 0.28471288084983826
1.6839336156845093 -0.32966792583465576 -0.7784898281097412
-1.255897879600525 0.810026228427887 -0.9480042457580566
-1.8019672632217407 0.253178209066391 -0.9836477041244507
-0.055730558931827545 -0.1630956083536148 1.235204815864563
-2.159491539001465 0.6538851261138916 0.6385499835014343
-2.3885302543640137 -0.15081091225147247 0.5925427079200745
1.9619752168655396 0.17431257665157318 0.402884304523468
-0.09060243517160416 0.983450710773468 0.22998465597629547
0.9344598054885864 -0.32380732893943787 -0.7055445313453674
-1.3854072093963623 -0.02977585792541504 1.084045171737671
-2.118720769882202 0.48000261187553406 1.186622977256775
0.02909669652581215 1.0423362255096436 -0.3758682310581207
-1.8980445861816406 0.11738130450248718 -0.7313206195831299
3.1087706089019775 0.13449640572071075 0.2127254456281662
0.5481746196746826 -0.3099108934402466 -0.16704107820987701
-1.2047483921051025 0.7018425464630127 -1.0454719066619873
-1.2097957134246826 0.8336483240127563 0.4724842607975006
-2.431535482406616 -0.22431185841560364 0.7086201906204224
-2.5931928157806396 0.7378659248352051 -0.3117092251777649
-0.16444669663906097 1.0073165893554688 0.42262572050094604
-0.04975837469100952 -0.3258918523788452 -0.29742902517318726
0.4396759569644928 -0.3221414387226105 0.8054744601249695
1.394172191619873 0.6534658074378967 0.7625200748443604
-0.7071559429168701 -0.026376262307167053 1.1969760656356812
0.5030845403671265 -0.21573485434055328 -1.149814248085022
-1.8196941614151 0.24784228205680847 0.5961638689041138
-1.435707449913025 -0.0781044214963913 0.9983908534049988
-2.0831010341644287 -0.2915329337120056 0.34555158019065857
2.166515827178955 -0.39232000708580017 -0.8359532356262207
