ply
format ascii 1.0
element vertex 809
property float x
property float y
property float z
end_header
-0.4237562417984009 -0.4370141923427582 0.19437187910079956
0.8078196048736572 0.3147204518318176 -0.37628355622291565
0.9401522278785706 0.4685608148574829 -0.5022928714752197
1.6249358654022217 -0.10190361738204956 -0.7091549634933472
-0.8559345006942749 0.6340814232826233 0.4264366328716278
0.8651099801063538 0.0560525506734848 -0.5308421850204468
-0.4018515944480896 0.47904089093208313 0.2169777750968933
-0.5051164031028748 0.39571377635002136 0.23589012026786804
1.0051497220993042 0.1995679885149002 -0.10621377825737
0.6606661677360535 0.032679349184036255 -0.04224235564470291
1.8436558246612549 -0.03236377239227295 0.4237816333770752
1.5722451210021973 0.2546739876270294 0.02689039148390293
1.7948819398880005 -0.3667711615562439 -0.0001885072560980916
1.3473621606826782 0.7376618385314941 -0.35930272936820984
0.024425741285085678 -0.031069844961166382 0.5639687776565552
1.7450566291809082 -0.16339999437332153 -0.483100026845932
-0.86592698097229 0.6365036964416504 0.4007796049118042
0.765712559223175 -0.22394528985023499 0.9763900637626648
-0.3375459313392639 -0.3100251853466034 -0.07400085777044296
1.0104728937149048 -0.3214521110057831 0.5358198285102844
-1.4449766874313354 0.26825156807899475 0.5941377282142639
-0.49160218238830566 -0.48079627752304077 -0.761237621307373
0.1074390858411789 -0.10419747233390808 -0.9566804766654968
-1.8603800535202026 0.1433107852935791 -0.8743428587913513
1.4164472818374634 0.2308865338563919 0.4858397841453552
0.35331597924232483 -0.23213116824626923 -0.8328041434288025
-0.21712881326675415 0.087643563747406 0.13851040601730347
1.002720594406128 0.46759483218193054 -0.7193405032157898
1.6957368850708008 0.7103885412216187 -0.34860026836395264
0.22036775946617126 0.08544109761714935 -0.0953197032213211
-0.724983274936676 -0.04212237894535065 -0.0314481183886528
0.7954729199409485 0.04128555953502655 -0.29133397340774536
-1.9216963052749634 0.16688574850559235 0.5569888353347778
-0.4751983880996704 -0.34879106283187866 -0.023615358397364616
0.7229488492012024 0.06759899854660034 -0.11709947139024734
2.3913891315460205 -0.37144750356674194 0.027502870187163353
-0.04137001559138298 0.3631622791290283 -1.0539259910583496
-0.06784290075302124 -0.014551609754562378 0.4361878037452698
2.0144386291503906 0.4846370220184326 0.15976698696613312
2.07378888130188 -0.2965914309024811 -0.5779624581336975
0.22904573380947113 0.28240811824798584 0.25684884190559387
0.880205512046814 0.014620542526245117 -0.11991144716739655
0.16220736503601074 0.055234476923942566 0.8537824153900146
0.3687315583229065 0.8240160942077637 0.975573718547821
1.6654696464538574 -0.3583618104457855 0.4144216775894165
1.760811448097229 -0.4211149215698242 -0.12003466486930847
0.40071365237236023 0.6468441486358643 -0.4928969740867615
1.466645359992981 0.6471278071403503 -0.012164084240794182
-1.855137586593628 -0.19737014174461365 -0.4795302152633667
0.8352700471878052 -0.4495389461517334 -0.09161307662725449
1.7141919136047363 0.21826370060443878 0.19231067597866058
-1.1881890296936035 -0.3665997385978699 0.08087430149316788
2.0737192630767822 -0.4102708101272583 -0.01160847581923008
0.505617618560791 -0.19974929094314575 0.3906867206096649
1.5301096439361572 0.07798156142234802 0.7549982070922852
-0.22719556093215942 0.01550835371017456 0.43809762597084045
1.135643720626831 0.404898464679718 -0.6521580815315247
0.02819197252392769 0.17184153199195862 -0.27391868829727173
0.35903459787368774 -0.4499299228191376 0.46069398522377014
-0.7000136971473694 0.07088135182857513 0.1810402274131775
0.6016812920570374 0.08515241742134094 0.509986937046051
1.2537143230438232 0.5978885293006897 0.19537246227264404
1.1574639081954956 0.09208299219608307 -0.08282839506864548
0.7656521797180176 0.3128577172756195 -0.6404731273651123
0.9767880439758301 0.3427807092666626 0.8082650899887085
-1.2866545915603638 0.140668585896492 -0.3598962724208832
-0.6994500160217285 0.29791367053985596 -1.085997462272644
2.505373477935791 0.0021986961364746094 -0.8700464963912964
-0.9550287127494812 -0.17443998157978058 0.47628509998321533
0.5039437413215637 -0.20879608392715454 -0.3968726098537445
0.2041855901479721 0.09591309726238251 -0.8202205896377563
-0.07137671113014221 0.2053532600402832 0.08233126252889633
1.419390082359314 0.18017128109931946 0.2707065939903259
0.15178680419921875 -0.06706444919109344 0.1481715738773346
1.3950618505477905 0.5945767164230347 0.2831701934337616
-0.9241717457771301 0.672110915184021 0.3046296536922455
-0.817693829536438 0.3132627606391907 -0.15598449110984802
-0.9043064117431641 0.4757825434207916 0.2912239730358124
-0.028580114245414734 0.3386673927307129 1.1798758506774902
2.0072054862976074 0.11145885288715363 0.09857968986034393
0.7232322692871094 0.4538869261741638 0.052313078194856644
-1.7598882913589478 0.23006294667720795 -0.5346369743347168
1.501830816268921 -0.3394119441509247 -0.3479607105255127
0.34979796409606934 -0.18398123979568481 0.416472852230072
2.4369733333587646 0.5538054704666138 0.30442503094673157
-0.44195181131362915 -0.479758620262146 0.25039345026016235
-0.07014288008213043 0.6613925099372864 -0.9876417517662048
1.221086859703064 -0.2095053344964981 -0.7094008326530457
1.4601328372955322 -0.2374839037656784 -0.4399392604827881
0.2670593559741974 0.5251657962799072 -0.36245355010032654
0.8601420521736145 -0.41265738010406494 0.1541447788476944
-0.3759189546108246 0.2235618382692337 -1.0125226974487305
0.6384052038192749 -0.24762222170829773 -0.09350176900625229
0.5111374258995056 -0.15405608713626862 0.7108685970306396
-0.7240061163902283 -0.2060861438512802 -1.2259141206741333
3.0813260078430176 0.22101303935050964 -0.16758455336093903
0.7684421539306641 0.4140045642852783 0.5939011573791504
2.1373791694641113 0.1064518392086029 1.0467289686203003
1.635336995124817 0.7221921682357788 -0.11496926099061966
-0.10866773873567581 -0.19931358098983765 0.38686347007751465
-1.0046004056930542 -0.046004608273506165 1.08797287940979
1.8427696228027344 0.26027119159698486 0.227486252784729
-0.28283199667930603 0.37102556228637695 -0.508458137512207
-0.41271618008613586 -0.0709768682718277 1.115100622177124
0.5176500678062439 0.36725249886512756 0.10381688177585602
-0.6320173740386963 0.7252092957496643 0.2797178030014038
0.5543256402015686 0.04886534810066223 0.538263738155365
-0.47227734327316284 -0.012425974011421204 -0.11645612865686417
-0.4749405086040497 -0.3203766345977783 -0.3662814497947693
1.3053728342056274 0.5561179518699646 0.011104651726782322
1.6013842821121216 0.4047173857688904 -0.6023868918418884
-1.833886981010437 -0.11999379098415375 0.3548513948917389
-0.4290715456008911 -0.5112892389297485 -0.5619386434555054
0.4864463806152344 0.3546978235244751 0.05478035286068916
-0.8802181482315063 -0.3542344272136688 0.38243696093559265
-0.751522958278656 -0.3400847315788269 0.34639638662338257
-0.12645253539085388 0.8545752763748169 -0.46559083461761475
1.7902578115463257 -0.23306156694889069 -0.22142834961414337
0.8641379475593567 -0.26674818992614746 -0.05935659632086754
-0.9346686601638794 0.6382990479469299 0.5844013094902039
0.691335916519165 0.5796974301338196 0.8074306845664978
1.5774632692337036 0.42851483821868896 0.021039921790361404
0.00481690838932991 0.5367910265922546 -0.6062695384025574
-1.6797820329666138 0.13948550820350647 0.5646576881408691
-0.6454572081565857 0.5786641240119934 0.1840394139289856
1.4303889274597168 -0.04518638551235199 0.17136706411838531
-0.7574000954627991 -0.08505746722221375 -0.16043493151664734
-0.5460023283958435 -0.43063339591026306 -0.8589699268341064
0.5325091481208801 0.1430431306362152 -0.17234429717063904
-0.33293187618255615 0.09153655171394348 0.19972734153270721
0.79851895570755 0.10823239386081696 0.16987749934196472
2.5321035385131836 -0.0007433444261550903 0.31766843795776367
-0.7088640928268433 0.50954669713974 0.23935315012931824
0.8226711750030518 0.057734906673431396 0.5750496983528137
2.1533689498901367 0.4221613109111786 0.9152054190635681
1.4928920269012451 -0.09187276661396027 0.6814637780189514
1.472163200378418 0.7354590892791748 -0.36784589290618896
-0.846000611782074 0.597629189491272 -0.47366929054260254
-2.1412301063537598 0.3213663399219513 -0.9606122970581055
1.0074650049209595 -0.4444798529148102 -0.43738260865211487
1.9708822965621948 0.02673231065273285 0.3003925383090973
-0.12806671857833862 0.20095345377922058 -0.794700562953949
0.88560551404953 0.2869848608970642 0.5972785353660583
0.6950121521949768 0.7820228338241577 -1.02762770652771
-0.7749919295310974 -0.26248881220817566 0.8607588410377502
-0.8141060471534729 -0.29480063915252686 -0.44837135076522827
1.0437402725219727 -0.07724474370479584 -0.08977996557950974
0.058504246175289154 -0.1228766143321991 -0.5010426640510559
0.21085138618946075 0.23996436595916748 0.5360328555107117
1.3511838912963867 0.2595669627189636 0.1232432946562767
0.31485554575920105 0.8156654834747314 0.29549041390419006
1.4392549991607666 -0.5117924809455872 -0.0865069255232811
1.0399954319000244 0.5133846998214722 -0.6296202540397644
-0.028839703649282455 0.12139245867729187 -0.8625292181968689
-0.03234638273715973 0.07900261878967285 0.37365978956222534
0.8571839928627014 0.5572142004966736 0.2944563925266266
0.3884260356426239 0.44647955894470215 0.19939184188842773
-0.39827314019203186 -0.23666024208068848 -0.42758187651634216
0.7799886465072632 -0.4472315311431885 0.442598432302475
0.9364936351776123 -0.44348040223121643 -0.8124167323112488
1.7987269163131714 -0.3719194531440735 -0.4575747549533844
1.4330344200134277 0.05823655426502228 0.30654698610305786
-0.96983802318573 -0.12200696766376495 0.8197681903839111
2.136239528656006 0.5613560080528259 1.0575593709945679
1.1341739892959595 0.16755470633506775 -0.1680411547422409
-1.1662471294403076 0.18557316064834595 0.9097771048545837
0.00423014909029007 0.550981879234314 0.4380270540714264
-0.1637168824672699 -0.37835031747817993 0.3752802312374115
-0.7303350567817688 0.5316377878189087 0.9126325249671936
-0.007882699370384216 0.25979235768318176 -1.045159935951233
1.3298218250274658 0.7419006824493408 -0.13845619559288025
-0.026477903127670288 0.7306973934173584 0.2822434902191162
0.3918389081954956 -0.4516012668609619 0.5793351531028748
0.414207398891449 0.28254395723342896 1.1626863479614258
-1.1356594562530518 0.39207005500793457 0.7678382992744446
2.068460702896118 0.5430878400802612 -0.045557018369436264
1.0968811511993408 0.6406435370445251 0.30504775047302246
-1.7749485969543457 0.6159389019012451 0.6503143310546875
1.0296099185943604 -0.06617365777492523 0.7382326722145081
1.3759151697158813 0.12558826804161072 -0.82535320520401
1.1003460884094238 -0.4764501452445984 -0.577407717704773
1.7218014001846313 -0.31837713718414307 -0.29130667448043823
-0.6146785616874695 0.5793387293815613 0.8125736713409424
-0.04721138998866081 0.9117673635482788 0.09962551295757294
0.989776074886322 0.3775702714920044 -0.6106228828430176
-0.007565170526504517 0.34039032459259033 -0.2058013528585434
0.7417282462120056 -0.103493332862854 -0.27878159284591675
0.3052891194820404 0.25786715745925903 -0.02613304927945137
0.1452968716621399 -0.11323821544647217 -0.2102571427822113
-0.31156694889068604 -0.25057923793792725 1.1828722953796387
0.5107330083847046 0.012344121932983398 -0.09985366463661194
0.4109770655632019 0.6180256009101868 0.410032719373703
-0.3465847373008728 -0.35057589411735535 -1.0831037759780884
1.0545480251312256 0.338289737701416 -0.707637369632721
1.068727731704712 0.2750658690929413 0.41667404770851135
-1.300730586051941 0.2982272803783417 -1.0696210861206055
1.4590955972671509 0.7136863470077515 -0.5465715527534485
0.034817397594451904 -0.06876227259635925 -0.07157967984676361
0.6589967608451843 0.20900359749794006 1.1418657302856445
0.4295646846294403 -0.1521952897310257 0.1729644536972046
-0.9766091704368591 0.7219017744064331 -0.3656512200832367
0.751764714717865 -0.4606187641620636 -0.6241244077682495
-0.9224419593811035 0.5890741348266602 -0.29482245445251465
0.7500811815261841 0.09245546162128448 -0.41827014088630676
0.3613002598285675 0.2649041414260864 0.9485856294631958
1.2496888637542725 -0.08684201538562775 0.5535086393356323
0.6503647565841675 0.09292158484458923 -0.383156955242157
0.47037234902381897 0.28148362040519714 -0.14503072202205658
-1.4153224229812622 0.146609827876091 -0.3964082896709442
0.2819516360759735 -0.2737365961074829 0.07191315293312073
0.47490039467811584 0.368419885635376 1.101934790611267
-0.5061070322990417 -0.32164081931114197 0.8907152414321899
0.08063104003667831 0.8877772092819214 -0.3451498746871948
0.45006632804870605 0.47489339113235474 0.42929327487945557
0.12838412821292877 -0.14516305923461914 -0.4103018641471863
1.767596960067749 0.265988290309906 -0.075246162712574
-1.4781694412231445 0.5605884790420532 0.5362603664398193
-0.766621470451355 -0.5168871879577637 -0.9644940495491028
-0.0031231343746185303 0.9248287081718445 0.42005670070648193
2.4377002716064453 -0.0007848292589187622 -0.2951570749282837
-0.11062346398830414 0.6084111928939819 0.3378373980522156
2.427800416946411 0.08667927980422974 -0.5467107892036438
0.41513553261756897 -0.3912750482559204 0.5650127530097961
0.2591087818145752 -0.0089913010597229 -0.36746931076049805
1.6312059164047241 0.43965014815330505 -0.11460190266370773
-0.3649597465991974 -0.1461762934923172 0.5327538251876831
-0.2505631744861603 0.6532582640647888 0.16000670194625854
-0.9341393113136292 0.2248498946428299 0.11769793927669525
0.4530790448188782 0.7329584956169128 -0.5160397291183472
1.7729071378707886 -0.14285464584827423 -0.361865758895874
1.198384165763855 -0.22148947417736053 1.0840448141098022
-0.9026365876197815 -0.2836410403251648 -0.8107144236564636
0.10885840654373169 -0.12866120040416718 -0.626157283782959
0.03552120178937912 0.4799964129924774 -0.6886758208274841
-0.3864792585372925 0.1157224029302597 -0.26060986518859863
-1.4203784465789795 0.026109978556632996 -0.8606500625610352
-0.9292888045310974 -0.019740477204322815 -0.8132298588752747
1.7807670831680298 0.09257173538208008 -0.9555249214172363
2.193399667739868 0.3454534411430359 -0.8667067885398865
1.9807542562484741 0.42617326974868774 -0.38695192337036133
-0.11916676163673401 0.42340776324272156 1.0709749460220337
0.08890046179294586 0.0952335000038147 0.527305006980896
0.3998565077781677 -0.12361131608486176 0.7536504864692688
-1.7717983722686768 0.4343058466911316 -0.050777848809957504
-0.6553159356117249 0.6744481325149536 0.16276714205741882
-0.8008086681365967 -0.15107837319374084 -0.1995035707950592
0.19507181644439697 0.25902438163757324 -0.22077761590480804
-0.1520201861858368 0.6985957622528076 0.15549644827842712
-1.6654366254806519 -0.11864116787910461 -0.5885820388793945
0.1903131604194641 0.7328952550888062 -0.0692802220582962
1.8389911651611328 0.49293696880340576 -0.2633879482746124
-1.4053645133972168 0.5721185207366943 -0.37642598152160645
1.6901413202285767 0.5438598990440369 0.09421620517969131
0.2782880663871765 0.030540302395820618 0.7677191495895386
0.6003166437149048 -0.2142554670572281 -0.5135080218315125
0.4043347239494324 0.3536628484725952 -0.7360580563545227
1.4314481019973755 0.08933354914188385 -0.44167521595954895
-0.6970641613006592 0.3048689365386963 -0.742631196975708
0.9170541167259216 0.46262669563293457 0.21881765127182007
1.7084259986877441 -0.46916553378105164 0.27150285243988037
0.6047875881195068 -0.2690134048461914 0.07792509347200394
-1.364458441734314 0.03759033977985382 0.31833282113075256
0.7906523942947388 -0.21424296498298645 0.3092358112335205
-1.9645144939422607 0.004711762070655823 0.5569917559623718
1.3733742237091064 0.35590481758117676 0.6926952004432678
-0.25106480717658997 0.6918728351593018 1.0206862688064575
1.550756812095642 0.26865074038505554 0.2596968710422516
0.9883122444152832 -0.1862078607082367 0.15707412362098694
0.4167916774749756 -0.04870349168777466 -0.03782349079847336
2.5390868186950684 -0.0839981734752655 -0.015650684013962746
1.4775484800338745 0.38880133628845215 1.002255916595459
1.7830995321273804 0.008043915033340454 0.10466131567955017
1.0527362823486328 0.8796219229698181 0.4442034959793091
0.310598760843277 0.9237789511680603 0.40652546286582947
-1.3806099891662598 -0.32052886486053467 0.47898539900779724
0.07707028090953827 0.2518210709095001 -0.6114453077316284
0.10908189415931702 0.030852213501930237 0.03615279868245125
1.2672903537750244 0.1602698266506195 -0.5730947852134705
-0.07582782208919525 -0.4156544804573059 -0.4433761239051819
-1.355505108833313 0.01340252161026001 -0.3761996030807495
-0.2907131314277649 0.12323039770126343 -0.9197005033493042
0.5946242213249207 0.22071492671966553 0.17311790585517883
1.4686986207962036 -0.42171409726142883 -0.2688939571380615
0.337890088558197 0.6797573566436768 -0.21505247056484222
0.9375379681587219 -0.2702064514160156 -0.05417676642537117
-0.6815834045410156 -0.2870447337627411 0.26223883032798767
-0.7108813524246216 -0.03910377621650696 -0.722733199596405
2.3716490268707275 0.16379451751708984 0.49774473905563354
1.4995566606521606 0.038209348917007446 0.4684370160102844
0.7793121933937073 0.19801753759384155 -0.16422297060489655
2.180875778198242 0.48891785740852356 0.11040100455284119
0.3189508318901062 0.06084546446800232 -0.314186155796051
0.15838217735290527 0.1877949982881546 -0.33249878883361816
-1.2948638200759888 -0.20655183494091034 0.31509503722190857
0.6938667297363281 0.23112615942955017 -0.5445583462715149
1.0053893327713013 -0.27623671293258667 0.7808212637901306
-1.678255319595337 -0.08951744437217712 -0.03553592413663864
-0.3619304299354553 0.2891843616962433 -0.3794470429420471
0.6157671809196472 0.5186155438423157 0.18643279373645782
-0.7322044968605042 0.5885404944419861 0.15299223363399506
0.6367278099060059 0.07117366790771484 -0.9591175317764282
0.020919308066368103 -0.3566226363182068 -0.0699600949883461
1.475846529006958 0.3199605345726013 0.4023750126361847
0.5315581560134888 0.028400689363479614 -0.67564857006073
-1.2699683904647827 -0.16443535685539246 -0.033111345022916794
-0.47842666506767273 0.7856868505477905 -0.4113549590110779
-0.08654120564460754 0.40630030632019043 -0.05965437740087509
0.7125290036201477 0.288886159658432 -0.42047128081321716
-0.6964089870452881 0.30384933948516846 0.49772515892982483
1.206055998802185 -0.1463654637336731 0.020669633522629738
-0.709191083908081 -0.11401847004890442 -0.29095372557640076
0.4912387728691101 0.1608213633298874 -0.3225671947002411
1.7293275594711304 0.5128342509269714 -0.2659631073474884
3.274562120437622 -0.32791954278945923 -0.8311326503753662
1.2849422693252563 -0.05534641444683075 -0.30318331718444824
1.2282897233963013 0.3882763683795929 1.0567132234573364
1.3721773624420166 0.1943388283252716 -0.5793336033821106
1.2256665229797363 0.13772036135196686 -0.718944251537323
-1.8501396179199219 -0.10166844725608826 -0.40395480394363403
1.2477394342422485 0.33578935265541077 -0.04877874627709389
1.7872689962387085 0.24819724261760712 -0.28161853551864624
1.5085145235061646 0.160320445895195 -0.6632867455482483
-0.4770798087120056 0.29545676708221436 0.7784015536308289
-0.6789875030517578 0.5081197023391724 0.17666974663734436
1.8101247549057007 0.1923295557498932 -0.8272161483764648
2.0438830852508545 -0.1792481392621994 0.9641568064689636
0.1941155195236206 0.09448219835758209 0.23278668522834778
0.8614517450332642 -0.27694326639175415 0.3173602819442749
1.9575237035751343 -0.4637017548084259 0.13017357885837555
-0.046067990362644196 -0.01528330147266388 -0.6192801594734192
-0.6113516688346863 0.5203840732574463 -0.21756403148174286
2.1110405921936035 0.10381966829299927 0.288546621799469
0.14596198499202728 -0.39991456270217896 0.6604236364364624
0.8777777552604675 0.281604528427124 -0.9109830260276794
1.382839560508728 0.07825271785259247 -0.2894108295440674
0.8930458426475525 -0.39999476075172424 -1.0510247945785522
0.5147608518600464 0.5901027917861938 0.2576521635055542
0.7122242450714111 0.15788871049880981 0.11027178913354874
0.5086694955825806 0.588714599609375 0.915579080581665
-0.3849712014198303 -0.1665181964635849 -0.23050962388515472
-0.04822948947548866 -0.2782208323478699 0.7403489351272583
0.9276678562164307 0.7930315732955933 0.2707325518131256
1.2457677125930786 -0.07146285474300385 0.7367807626724243
-0.08961500972509384 0.31714004278182983 -1.1226660013198853
-0.49451181292533875 -0.21927210688591003 -0.8246729373931885
1.4684561491012573 0.41039901971817017 -0.4055764079093933
-0.07836759835481644 -0.15961237251758575 -0.18298719823360443
-0.6268166303634644 0.039847731590270996 0.35160771012306213
-1.0525394678115845 0.3547888696193695 -0.48584768176078796
-0.36536818742752075 -0.44245919585227966 -0.5840548872947693
-0.31646740436553955 0.17526648938655853 1.2216243743896484
0.34108197689056396 0.0981031060218811 -0.12151988595724106
-1.1395132541656494 0.021710649132728577 0.38953283429145813
-0.30908164381980896 0.7561099529266357 -0.013080058619379997
0.07654210925102234 0.4195103347301483 0.9855194091796875
0.7275730967521667 0.1010434478521347 -0.14947351813316345
0.41783076524734497 0.3241824209690094 0.2192397266626358
-1.5828708410263062 0.30171340703964233 0.795461893081665
-0.903059184551239 0.6672407984733582 -0.5517900586128235
-0.389751136302948 0.07942906022071838 -0.05866144970059395
1.123401165008545 0.37981700897216797 -0.4862046539783478
-0.18986991047859192 0.30935487151145935 0.8136512637138367
0.19876223802566528 0.7556480169296265 -0.40096330642700195
-0.6658346056938171 -0.0009896159172058105 0.6501155495643616
0.06657145917415619 0.42046529054641724 0.27474352717399597
-0.466231107711792 0.6722850203514099 -0.42254889011383057
-0.2613978981971741 -0.1690756380558014 1.0479369163513184
-0.8756091594696045 -0.2699633836746216 0.6122952699661255
1.2869356870651245 0.7570476531982422 -0.6353091597557068
0.06398596614599228 0.09713682532310486 0.34502485394477844
-0.15828552842140198 0.39706897735595703 -0.16002626717090607
1.0761229991912842 0.12595725059509277 1.0787197351455688
-0.3209972083568573 0.3066059947013855 -0.4184414744377136
1.6539685726165771 -0.46811187267303467 0.03520701453089714
-0.4746342897415161 -0.2539098858833313 -0.7777906656265259
1.5862101316452026 -0.06257626414299011 -0.07042534649372101
1.9749748706817627 0.19391192495822906 0.36875200271606445
1.5678796768188477 -0.3486708402633667 0.3865618109703064
-0.4710509777069092 -0.16569623351097107 -0.022046297788619995
1.3198338747024536 0.3650938868522644 0.022553183138370514
0.6086839437484741 0.1956995278596878 -1.134891390800476
0.8173122406005859 0.054276615381240845 0.8571471571922302
-0.18186698853969574 0.9190008640289307 0.055158358067274094
-2.3911213874816895 0.2869468927383423 -0.422226220369339
-0.026936039328575134 0.15349450707435608 -0.6965759992599487
-0.37174731492996216 0.043133512139320374 0.3191424608230591
0.703696608543396 0.7590507864952087 -0.13098645210266113
1.2843389511108398 -0.19257548451423645 0.6161282658576965
1.8403139114379883 -0.2770388126373291 -0.022513167932629585
1.0303633213043213 -0.17910955846309662 -0.9209645390510559
1.5601699352264404 0.039284348487854004 -0.2631976306438446
0.1797923743724823 0.39366137981414795 0.6782320737838745
0.7119448184967041 0.49569058418273926 0.07654726505279541
0.5493748188018799 0.4646139144897461 -0.5276077389717102
0.2943984568119049 -0.44319549202919006 -0.2404070496559143
1.2280371189117432 0.6290410757064819 -0.26974713802337646
-1.1773124933242798 0.04765699803829193 -0.4125974774360657
1.0340447425842285 0.07055124640464783 -0.3731326758861542
1.2376434803009033 0.49183955788612366 -0.29320356249809265
-2.5611627101898193 0.37021511793136597 -0.06392189860343933
-0.024843599647283554 0.18920405209064484 -0.7288941740989685
1.3013317584991455 0.5600659847259521 0.288703978061676
-1.254647135734558 0.1920890212059021 0.027504507452249527
-0.6283823847770691 0.48910027742385864 0.12208136916160583
-1.3838895559310913 0.1805814951658249 -0.05770972743630409
-0.4230997562408447 0.19421197474002838 -0.3344254493713379
-1.8490692377090454 -0.1985374391078949 0.9391605854034424
0.68501877784729 0.1971578598022461 0.2737348675727844
1.2366948127746582 0.06958901882171631 -0.3069039583206177
0.19522786140441895 -0.3202682137489319 0.6381489038467407
-0.17980395257472992 0.7236282825469971 0.10145830363035202
-0.35899972915649414 0.15237396955490112 -0.19386212527751923
1.2622179985046387 -0.38552242517471313 0.0052843280136585236
0.26903653144836426 0.23891815543174744 1.1655806303024292
-0.772042453289032 0.5627257823944092 -1.0156980752944946
1.2935236692428589 -0.011724874377250671 -0.02961389347910881
1.293442726135254 0.24756115674972534 0.20509661734104156
1.4214190244674683 0.18603204190731049 -0.929735541343689
-0.32978570461273193 0.047567591071128845 0.7079362869262695
-0.30662739276885986 0.46832340955734253 -0.672081708908081
-0.28316235542297363 -0.42466482520103455 -0.6963761448860168
-0.8566014170646667 -0.31137675046920776 0.04423680901527405
0.2563265264034271 0.32598939538002014 0.5812909603118896
1.9549412727355957 0.5922245383262634 -0.6281723380088806
0.7174359560012817 0.04110155999660492 0.6961214542388916
1.024010419845581 0.8490272164344788 0.14537906646728516
1.2902697324752808 -0.26684707403182983 0.02627198025584221
-0.9917572140693665 0.5862048268318176 0.2721744775772095
0.6483432054519653 0.8453776836395264 -0.4075954258441925
1.217939853668213 0.2611052691936493 -0.2618304491043091
-0.35955876111984253 0.4954688847064972 0.43147769570350647
0.5527926087379456 0.7224178910255432 0.934325098991394
1.1733335256576538 0.3325248956680298 -0.06032468006014824
0.8065662980079651 -0.11217103898525238 0.17552724480628967
-0.39121896028518677 0.05776895582675934 0.8491058945655823
1.0251022577285767 0.6123376488685608 -0.5381985902786255
0.12197792530059814 0.8997925519943237 -0.18685677647590637
-0.7096036672592163 -0.07333055138587952 0.551006555557251
-1.1903895139694214 0.43561846017837524 -0.30567777156829834
-0.7955595850944519 0.6021929383277893 0.21103501319885254
-1.0603742599487305 0.6207666397094727 0.21360667049884796
0.3064791262149811 0.8922972083091736 -0.3631916046142578
0.028317097574472427 0.24197477102279663 -0.1806960552930832
1.0612585544586182 0.8010290265083313 -0.4876333475112915
-0.32222142815589905 -0.039234280586242676 0.5546914935112
0.1786055564880371 0.33416903018951416 0.6955750584602356
0.21724221110343933 0.7352383136749268 -0.8041905760765076
-1.614179253578186 0.190756693482399 0.18731722235679626
0.2969149351119995 -0.4274411201477051 -0.1195729672908783
1.4325355291366577 0.0005784779787063599 0.47665834426879883
0.16891439259052277 -0.4267735481262207 0.1673721820116043
-1.3209489583969116 0.3710159361362457 -0.2596588134765625
0.48928794264793396 0.7882024645805359 0.6348653435707092
-0.49864715337753296 0.2993733882904053 -1.0101429224014282
-0.2527425289154053 -0.4156465530395508 0.4238189160823822
-1.1139006614685059 0.06837092339992523 0.8834627866744995
-1.976011872291565 -0.16916897892951965 0.39075377583503723
-0.521021842956543 0.3979684114456177 0.20815196633338928
1.087417721748352 0.16163820028305054 -0.07357116788625717
-1.2206541299819946 0.5942025184631348 -0.920640230178833
0.31835711002349854 -0.11715562641620636 -0.27445465326309204
0.46114248037338257 0.10856011509895325 0.5725163221359253
1.1055376529693604 0.1797468215227127 -0.33234769105911255
0.5614919066429138 -0.05770863592624664 0.2979501485824585
-1.2553942203521729 -0.12145701050758362 0.18714097142219543
1.450173258781433 -0.374622106552124 0.5271584987640381
-1.1323174238204956 -0.3873561918735504 -0.8591140508651733
0.5343629121780396 -0.45119643211364746 -0.6044853925704956
1.4973036050796509 0.1178639829158783 1.0500450134277344
1.1290004253387451 -0.3570709526538849 -0.5884056687355042
1.6765296459197998 -0.20552976429462433 0.3383128345012665
1.7951507568359375 0.5067306756973267 -0.04232131689786911
0.9333319067955017 -0.3567577302455902 0.38319462537765503
0.8564301133155823 0.3566522002220154 1.1105477809906006
1.5270345211029053 -0.08210378885269165 -0.31986695528030396
2.547855854034424 0.16507583856582642 0.8183988332748413
1.715469241142273 0.18320073187351227 0.5470589399337769
0.0917295292019844 0.045041948556900024 0.7907612323760986
1.1423693895339966 -0.06735058128833771 0.5975505113601685
-0.4710315465927124 0.2008911520242691 1.1871814727783203
-0.9983611106872559 0.16661661863327026 0.4393516778945923
2.958991289138794 -0.05882492661476135 -0.9430988430976868
1.0308992862701416 0.29011070728302 -0.42475736141204834
1.8484772443771362 0.1075109988451004 0.21038030087947845
-0.22650252282619476 -0.10527598857879639 -0.7478401064872742
1.3941413164138794 -0.0616324245929718 0.793595016002655
-0.15313467383384705 0.9356697201728821 0.2706380784511566
0.9314720630645752 0.3714466691017151 -0.10230883955955505
0.5593436360359192 0.20472069084644318 0.5357435941696167
1.0613059997558594 0.23677335679531097 0.5230443477630615
1.1261014938354492 0.08709648251533508 -0.03463141992688179
-0.579867422580719 0.08703026175498962 -0.10003689676523209
1.5352884531021118 0.3824876546859741 0.12590719759464264
-0.23421898484230042 0.203007772564888 0.5210081934928894
-0.716576099395752 0.4440610408782959 0.20882369577884674
-0.691831111907959 0.3476204574108124 -0.2042379230260849
1.7797834873199463 0.08478701114654541 -0.12191378325223923
-0.9010153412818909 0.402192622423172 1.1113969087600708
-1.2575453519821167 -0.3479002118110657 -0.19445863366127014
-1.662347674369812 -0.27632519602775574 -1.0880779027938843
-1.5327105522155762 0.02468535304069519 -0.9827295541763306
0.4687589406967163 0.46476227045059204 -0.6063332557678223
0.08364446461200714 0.466020405292511 -0.3943120539188385
-2.4990880489349365 0.25098717212677 -0.7612353563308716
-0.15955570340156555 0.3214039206504822 0.21499638259410858
0.6093840003013611 0.9314951300621033 -0.43790775537490845
0.3092435896396637 0.769069254398346 0.6913599371910095
-0.2868296802043915 0.92128586769104 0.45609816908836365
2.2938811779022217 -0.18857866525650024 0.27896788716316223
1.2612924575805664 0.33951544761657715 0.42640283703804016
2.1893081665039062 -0.10739858448505402 0.6501694917678833
0.9641447067260742 -0.03312842547893524 -0.22980254888534546
0.05603120103478432 0.5294104814529419 -0.3105281591415405
2.4246859550476074 0.25922468304634094 -0.29806530475616455
0.19940103590488434 0.013054057955741882 1.1504663228988647
1.724859356880188 0.0844758003950119 0.2125231772661209
-0.8251426219940186 -0.2012045830488205 0.021179061383008957
1.1231930255889893 -0.25171709060668945 0.9061640501022339
2.2317662239074707 -0.0032541751861572266 0.46406349539756775
2.4642765522003174 0.11506932973861694 -0.7199175357818604
-0.896418035030365 -0.17885324358940125 -0.10071901977062225
-0.4064992368221283 0.9400711059570312 -0.008797230198979378
-0.3769688904285431 -0.08339852094650269 0.1128477081656456
1.2976551055908203 0.1632700115442276 0.191151425242424
0.5078458189964294 -0.356316477060318 0.43363073468208313
0.9816833138465881 -0.18900956213474274 0.18757875263690948
1.2391878366470337 -0.20933091640472412 -0.7289286851882935
-1.3713685274124146 -0.1350931078195572 0.24501734972000122
1.655042052268982 0.29447412490844727 0.25089776515960693
1.7548328638076782 0.0018507838249206543 0.16796353459358215
-1.3870067596435547 -0.17238204181194305 -0.00412440812215209
-0.8150511384010315 0.2394600659608841 0.13645556569099426
-0.08252686262130737 0.8289220333099365 0.24282599985599518
-1.6974087953567505 0.12146338820457458 0.017101287841796875
-1.7451398372650146 -0.05650235712528229 0.780352771282196
0.5400927662849426 0.18441422283649445 -1.1738533973693848
0.8930854797363281 -0.025820791721343994 0.11655335128307343
1.4405205249786377 0.08819292485713959 0.30797654390335083
-0.7620088458061218 -0.3829371929168701 -0.20471684634685516
1.1646808385849 0.006006360054016113 -0.23434466123580933
0.30720674991607666 0.08011266589164734 -1.1676772832870483
-0.20221617817878723 -0.0879201889038086 0.2615726590156555
1.366530418395996 -0.07985447347164154 -0.06585459411144257
1.5298997163772583 -0.12904870510101318 -0.08584703505039215
-0.8268440365791321 0.2827666699886322 0.09682640433311462
0.7792335152626038 -0.34976446628570557 -0.5265300273895264
-1.013489842414856 0.01141001284122467 -0.7775912880897522
0.1817413866519928 0.12785033881664276 0.40375304222106934
0.9058840870857239 0.9065659046173096 0.530218243598938
-0.1777532994747162 0.08035044372081757 0.1797301322221756
-0.14526286721229553 -0.4272884726524353 0.16801461577415466
1.3650840520858765 0.010661602020263672 -0.3940773606300354
0.8293677568435669 0.9275529980659485 -0.03618477284908295
0.9944183826446533 0.10555543005466461 0.3789575397968292
1.3902204036712646 0.3333866000175476 0.7175474762916565
0.03076617419719696 0.03256484866142273 -0.8491929173469543
0.24443760514259338 0.3314815163612366 0.14757080376148224
-0.03365081548690796 -0.2215345799922943 0.4994600713253021
0.7015501856803894 0.6250123977661133 0.4064088463783264
-0.885342538356781 0.6160328388214111 -0.7528830170631409
-1.3112070560455322 0.6687817573547363 0.02225482650101185
0.12044264376163483 0.46978282928466797 -0.5708789229393005
-1.1258454322814941 0.05568806827068329 -0.04818463698029518
1.4043108224868774 0.09794533252716064 -0.3896792531013489
0.7150260210037231 0.3309726119041443 1.0739860534667969
1.5290952920913696 -0.29312849044799805 -0.23782582581043243
-0.857367217540741 0.19000288844108582 -0.5868464112281799
-0.32940125465393066 -0.41974177956581116 0.7069931626319885
-0.9155982732772827 0.5256595611572266 0.09700705111026764
-1.1239522695541382 0.13988831639289856 -0.3863127827644348
2.2058017253875732 -0.4742312431335449 0.12002676725387573
-2.155730962753296 -0.0671694278717041 0.17258140444755554
-0.12777645885944366 0.04038552939891815 0.2935195565223694
1.3441308736801147 0.6602280139923096 0.7545874714851379
1.9215651750564575 0.45393267273902893 -0.2770526111125946
1.2342151403427124 0.05451132357120514 -0.20130141079425812
1.5131542682647705 0.3197968602180481 -0.20170748233795166
2.1893725395202637 -0.2309311479330063 0.09204056113958359
1.7111077308654785 -0.2461710423231125 0.8021815419197083
-0.2608177661895752 -0.19786015152931213 0.4969613254070282
0.0990353673696518 0.2501606345176697 0.788938581943512
2.254091739654541 -0.263109415769577 -0.5517042279243469
-1.0863343477249146 0.19101107120513916 -0.5214883685112
-1.4519487619400024 0.010149061679840088 -0.10341127216815948
-0.2469155639410019 -0.06373026967048645 1.0494645833969116
0.8321985006332397 0.29403430223464966 -0.6163913011550903
2.50425386428833 0.16278713941574097 0.010629232041537762
0.17492040991783142 -0.4615834951400757 0.45573264360427856
0.7849275469779968 -0.40101391077041626 -0.40253227949142456
0.8928799033164978 -0.4601001441478729 -0.827488362789154
-0.26247280836105347 0.026856914162635803 -0.016857566311955452
-2.4460110664367676 -0.03151923418045044 0.5662275552749634
0.37353476881980896 0.3421449363231659 0.4164365231990814
-0.8720871210098267 0.5180010199546814 -0.4439122676849365
2.5146970748901367 0.14634524285793304 -0.48826074600219727
-1.3806431293487549 -0.026234596967697144 0.22024016082286835
3.072394371032715 0.21915705502033234 -0.13950012624263763
0.1900007128715515 -0.44014304876327515 -0.21408604085445404
1.8103947639465332 -0.36784762144088745 -0.24162453413009644
0.22603605687618256 -0.20996297895908356 0.03280234709382057
2.0052969455718994 0.49155908823013306 -0.9240021705627441
0.07582686841487885 0.2498217523097992 0.2729792594909668
1.444902777671814 -0.030444681644439697 -0.366399347782135
1.595707654953003 -0.17703364789485931 -0.02736244536936283
1.5183637142181396 -0.48122838139533997 -0.24753396213054657
0.3548760712146759 0.682550847530365 -0.6471781730651855
0.6973782777786255 0.37916630506515503 0.15998613834381104
1.4571284055709839 0.22938083112239838 -1.221126914024353
0.8106259703636169 0.0019646435976028442 0.2674602270126343
0.8897227644920349 0.19504603743553162 -0.0723176822066307
0.6334418654441833 0.11843277513980865 0.20680277049541473
-1.5555071830749512 0.7079389095306396 -0.4100237488746643
2.0219509601593018 0.640371561050415 0.4304080903530121
0.612188458442688 0.7150577306747437 0.19932611286640167
-0.02465929090976715 0.8225852251052856 0.9546061754226685
-0.44185614585876465 -0.008690759539604187 0.6094734072685242
-0.6769857406616211 0.1330060213804245 -0.06362972408533096
0.6085934638977051 -0.1463843733072281 -0.9815059900283813
1.3854020833969116 0.1835184246301651 0.2683388888835907
-0.11518175154924393 0.5083205699920654 0.3902954161167145
0.9230877757072449 -0.20709116756916046 0.06668160855770111
-1.0041747093200684 0.39573678374290466 -0.6261942982673645
1.5254037380218506 0.4724727272987366 -0.17661349475383759
-2.1731748580932617 -0.1125190258026123 -0.8740794062614441
-1.972638487815857 -0.175322026014328 0.12447212636470795
0.8089535236358643 -0.44854536652565 0.0982094258069992
0.949790894985199 0.4710904061794281 -0.6588389277458191
-0.32603901624679565 0.5428617596626282 0.01041798759251833
-0.4446220397949219 0.30257683992385864 0.1459839940071106
0.3244885206222534 0.39390993118286133 0.6950250864028931
0.32577192783355713 0.4147931933403015 0.17805787920951843
-0.036998193711042404 0.2158391773700714 1.1887831687927246
1.4594523906707764 -0.43886274099349976 0.26770874857902527
-0.8003100752830505 0.4487988352775574 -0.2963506281375885
-0.8402087092399597 0.35345810651779175 -0.2925494611263275
0.6884405612945557 0.40623146295547485 -1.402538776397705
0.10563552379608154 0.6006161570549011 0.04293375462293625
0.3877669870853424 -0.11790302395820618 -0.589806079864502
1.4805326461791992 0.17442913353443146 -0.5749397873878479
-1.61972975730896 -0.08925546705722809 0.19886159896850586
-0.7672014832496643 0.20010973513126373 0.08599063009023666
-2.119729995727539 0.7509300708770752 1.2207361459732056
1.2360824346542358 0.5918133854866028 -0.07175891101360321
1.2392572164535522 0.7793789505958557 0.08531103283166885
1.6535859107971191 -0.47440004348754883 -0.4261679947376251
1.52597177028656 -0.08016899228096008 -0.42618319392204285
1.6583064794540405 0.27518385648727417 0.6398820877075195
0.3627862334251404 -0.24934333562850952 0.0890243649482727
0.22519484162330627 0.2449807971715927 0.5179275274276733
-1.1521319150924683 0.5418668389320374 -0.7001433372497559
0.07278376817703247 0.41727080941200256 -0.2197193205356598
-0.7751088738441467 0.13127747178077698 0.6493114829063416
-1.1796257495880127 0.7974169254302979 -0.6642035841941833
-0.8192885518074036 -0.16000896692276 0.10079818218946457
0.22637702524662018 -0.13844960927963257 -0.6731972098350525
0.07146698236465454 0.9547004699707031 0.4143450856208801
1.7137752771377563 -0.3364853858947754 -0.1371750831604004
1.130102515220642 -0.2568005919456482 -0.734647810459137
-0.21663662791252136 -0.39331287145614624 -0.15253038704395294
-0.19065335392951965 -0.2755783796310425 0.40109238028526306
1.2659027576446533 0.4209195375442505 -0.5927403569221497
-0.06357372552156448 0.036641061305999756 -0.22679656744003296
-0.9010390639305115 -0.14259175956249237 0.6526935696601868
-2.712538242340088 0.35837775468826294 0.1607656180858612
0.832562267780304 -0.282701313495636 0.20926710963249207
-0.6551274061203003 0.08610516786575317 -0.14990603923797607
-1.0689496994018555 0.7646512389183044 -0.042817793786525726
-1.533360481262207 0.1135675460100174 -0.23919661343097687
0.20746499300003052 -0.4600198268890381 0.024330148473381996
0.08688385784626007 0.349174439907074 -0.11377847194671631
1.5194438695907593 0.1827774941921234 -0.16477593779563904
-0.5869465470314026 0.19090084731578827 -0.6542210578918457
0.847376823425293 -0.028890296816825867 -0.9254670739173889
2.094407796859741 0.4726305603981018 0.28817272186279297
1.8141049146652222 0.03552752733230591 -0.35734912753105164
0.21311518549919128 -0.051792800426483154 -0.18986627459526062
1.8351019620895386 -0.09468188881874084 -0.023755449801683426
1.2521580457687378 -0.43038317561149597 -0.9859133362770081
-0.14093101024627686 -0.4158025085926056 0.7253533601760864
0.04719897732138634 0.31141650676727295 -0.679864227771759
1.0511051416397095 0.4086853265762329 -0.7142654061317444
0.1598730981349945 0.7503730654716492 0.028032371774315834
1.1151206493377686 0.10129514336585999 0.8976010680198669
-0.4233202040195465 -0.42331331968307495 0.43444323539733887
1.7764838933944702 -0.3652690351009369 -0.6597395539283752
-0.8615801334381104 -0.3214870095252991 -0.8490929007530212
0.5970455408096313 -0.3263801336288452 0.4237450063228607
1.745749592781067 -0.15806373953819275 0.045741621404886246
0.06968162953853607 0.7197810411453247 0.3628197908401489
0.23639324307441711 -0.206842839717865 0.13864246010780334
1.371411919593811 -0.4193902611732483 0.9201793074607849
1.1026884317398071 -0.3392755389213562 0.6474936008453369
-0.21609769761562347 0.6138508915901184 -1.0475510358810425
-0.6133721470832825 -0.10287497937679291 -0.03815322741866112
0.10472455620765686 0.46683377027511597 -0.45163819193840027
0.006513461470603943 0.3450753092765808 -0.1771916002035141
0.933026134967804 -0.4618343412876129 0.2809021472930908
-0.6241918802261353 0.8872761130332947 0.14316724240779877
1.618950605392456 -0.4025212526321411 0.47974470257759094
1.1313812732696533 -0.31157851219177246 0.5377087593078613
0.9157190918922424 0.3244733214378357 0.7928337454795837
-0.5545759797096252 0.2327767312526703 -0.40184757113456726
2.260476589202881 0.2953871190547943 -0.7324368357658386
1.6204133033752441 -0.20763275027275085 0.07923701405525208
0.47947660088539124 -0.44146299362182617 0.5050725340843201
-0.844711184501648 -0.02929605543613434 -0.5846859812736511
1.6505670547485352 -0.006355553865432739 0.4523957669734955
0.742279052734375 -0.21142813563346863 -0.6583167910575867
0.3117660880088806 0.31674283742904663 0.27266180515289307
1.5490061044692993 0.6585132479667664 0.7949140071868896
-0.5768030881881714 0.6430617570877075 0.43477198481559753
-1.4453705549240112 0.34251588582992554 0.34915462136268616
-0.6997367143630981 0.18413938581943512 -0.10802410542964935
-2.7201263904571533 0.5307806730270386 -0.37855562567710876
1.3394014835357666 0.3462599515914917 -0.3464234471321106
0.33349716663360596 -0.15059064328670502 0.7884355783462524
2.1088922023773193 0.6031812429428101 -0.0056581879034638405
-1.9378483295440674 -0.14488394558429718 0.14669236540794373
-0.5421349406242371 0.7365869283676147 -0.1145855262875557
1.6651415824890137 0.15779386460781097 -0.43139833211898804
0.7186092138290405 -0.023972511291503906 0.2492595613002777
-0.36325064301490784 -0.010188117623329163 -1.090535044670105
0.1540207415819168 0.6498650312423706 0.6339390277862549
1.250312089920044 0.39271214604377747 -0.10394664108753204
2.078200101852417 -0.4134359359741211 0.9626157283782959
-1.205438256263733 0.32759392261505127 -0.3461335301399231
0.4948047995567322 0.8037242293357849 0.7484449744224548
0.7377772331237793 -0.27620184421539307 -0.10948256403207779
-0.4168831706047058 -0.19273267686367035 -0.4525529742240906
-1.8716083765029907 -0.3308185935020447 -0.7722830772399902
-0.547234058380127 -0.10672277212142944 -0.8438197374343872
1.3512705564498901 -0.13437896966934204 -0.13253338634967804
-0.7594967484474182 -0.3774074912071228 0.8009774088859558
2.4838998317718506 -0.2949974536895752 0.5221937298774719
-1.1625584363937378 -0.022077694535255432 1.0111497640609741
2.014817476272583 0.3160485327243805 0.1963140219449997
-0.7264718413352966 0.4435599148273468 0.4903261959552765
-1.3017617464065552 0.47609323263168335 1.0682176351547241
-1.5211169719696045 0.3771432936191559 -0.9213371276855469
0.5107094645500183 0.4676690101623535 0.2367708683013916
-0.021463528275489807 0.3246004581451416 -0.3233911395072937
0.1210162490606308 0.7325779795646667 -0.19470736384391785
0.7870564460754395 0.205455020070076 0.011635953560471535
0.11649569869041443 0.12020310759544373 1.0163570642471313
1.2537493705749512 0.03628447651863098 -1.1097115278244019
0.2386331409215927 0.3123640716075897 -0.2570216953754425
0.8488346934318542 0.06816263496875763 -1.113477110862732
0.8236704468727112 0.09655840694904327 0.033461540937423706
2.073225259780884 -0.21918664872646332 0.1673058271408081
1.0187790393829346 0.45623451471328735 0.518658459186554
0.5544787645339966 -0.48683828115463257 -0.8352797031402588
1.122833490371704 0.3554324209690094 0.08035482466220856
0.8610681295394897 -0.28665679693222046 0.6065133213996887
-0.3847042918205261 -0.44795626401901245 -0.32451164722442627
1.292689323425293 0.037283554673194885 -0.21682457625865936
-0.7608367800712585 -0.3973083198070526 0.03744812682271004
-0.016270700842142105 0.44764262437820435 0.7872285842895508
0.6419717073440552 0.4181869328022003 0.5895826816558838
-1.0188575983047485 0.7694593667984009 -0.07145437598228455
1.8746099472045898 0.19660015404224396 0.04818619042634964
1.2377021312713623 0.8963257670402527 0.09524638950824738
2.22446608543396 -0.16692887246608734 0.6618137359619141
0.034938108175992966 0.3694177269935608 0.18773801624774933
0.08556079864501953 0.31075093150138855 0.3046511709690094
2.0009377002716064 0.115415558218956 0.11654603481292725
-1.078695297241211 0.16233450174331665 0.12004494667053223
0.9205761551856995 -0.06291753053665161 -0.6460049152374268
0.35762566328048706 0.14159244298934937 0.3829288184642792
0.6625241637229919 -0.41951775550842285 0.968901515007019
0.8167080879211426 -0.406026691198349 -0.7015740275382996
-0.8745031356811523 -0.0424996018409729 -0.6156646609306335
0.4215020537376404 -0.1730722337961197 0.15424764156341553
2.2961506843566895 0.1786680668592453 -0.2326536625623703
1.554344892501831 0.5386323928833008 0.5693425536155701
-0.5087752342224121 0.35628628730773926 0.3064585328102112
0.43481239676475525 -0.46483102440834045 -0.15143267810344696
0.8507136106491089 0.5004630088806152 0.5382227301597595
-0.6010971665382385 0.19134069979190826 0.03228282928466797
0.47848525643348694 0.7900028228759766 -0.758406937122345
-1.8929482698440552 -0.1946997195482254 0.9142429828643799
1.7675789594650269 -0.1326666921377182 0.04881184175610542
0.05847984179854393 0.11680741608142853 -0.6351161599159241
0.41484367847442627 -0.00906488299369812 1.0547535419464111
0.5955283641815186 0.5279681086540222 -0.42310449481010437
-0.39608559012413025 0.27946245670318604 -0.2813647985458374
0.6021148562431335 -0.2498949021100998 -0.0027749440632760525
0.21758927404880524 0.8990694880485535 -0.3405638039112091
1.5542142391204834 0.36710333824157715 0.09824857860803604
-0.6604522466659546 0.15327775478363037 -0.4285455346107483
0.686079740524292 0.23012341558933258 -1.264739990234375
0.7185770273208618 0.4802735149860382 0.6028125286102295
1.6432071924209595 0.03792327642440796 0.4550841152667999
1.8098644018173218 0.19382376968860626 0.5804309248924255
-0.005983531475067139 0.4628680348396301 -0.9291253685951233
2.4997706413269043 0.08774612843990326 0.09691369533538818
0.6556084156036377 0.39156875014305115 -0.15135273337364197
0.45546287298202515 0.16911712288856506 -0.6470151543617249
0.4901306927204132 0.18236254155635834 -0.006914952769875526
0.25196510553359985 -0.09817740321159363 0.6996501088142395
1.3341059684753418 0.7237230539321899 1.4223757982254028
-0.14740478992462158 -0.10467950999736786 0.4182269275188446
-0.3853805959224701 0.3225422501564026 -0.09370691329240799
0.6543962955474854 0.3289955258369446 0.5007919073104858
1.2015514373779297 0.2782953381538391 0.5330370664596558
-0.9705389142036438 0.30126699805259705 0.14228305220603943
-1.8170356750488281 0.2991105318069458 -0.282474547624588
1.5142463445663452 0.5252991914749146 -0.15459373593330383
-0.02630852535367012 0.335667222738266 0.26437506079673767
-0.6331539750099182 -0.19988684356212616 -0.5320562720298767
