ply
format ascii 1.0
element vertex 816
property float x
property float y
property float z
end_header
0.02713371068239212 -0.10337269306182861 -2.184448719024658
-0.008975651115179062 0.22560447454452515 -1.135195255279541
-0.19978347420692444 0.88325035572052 -1.9168020486831665
0.12864312529563904 0.015572667121887207 -0.22264839708805084
1.047715187072754 -0.2256697416305542 -0.7656529545783997
0.815485417842865 0.2657354474067688 3.0242247581481934
1.2170222997665405 0.133589968085289 1.9826436042785645
-0.2367410659790039 0.5802934169769287 1.4887516498565674
-0.8752025961875916 0.8436098694801331 -2.738583564758301
0.02494465932250023 0.15294568240642548 -1.0974067449569702
0.8258177638053894 -0.3018852174282074 -2.1853151321411133
0.8855600953102112 0.34828221797943115 -0.7415280938148499
-0.8100430965423584 0.6176607012748718 -1.9492777585983276
0.9821888208389282 1.205499291419983 2.4165804386138916
0.12345466762781143 0.5763912796974182 -0.14827188849449158
0.06020626053214073 0.4950258135795593 -2.2059123516082764
-0.044739603996276855 0.9502046704292297 0.1360132247209549
-0.11002769321203232 1.236853837966919 0.2787152826786041
0.8789194822311401 0.05325953662395477 0.35580772161483765
-1.319917917251587 1.3223767280578613 -1.1934690475463867
-0.5264269709587097 0.7801588773727417 -2.9212708473205566
0.21288380026817322 -0.9323681592941284 -1.8451024293899536
0.10619358718395233 0.31599774956703186 -1.5985798835754395
-0.0879993885755539 0.009704157710075378 -1.6862725019454956
-0.6944214701652527 1.168212652206421 -1.6126785278320312
0.015860386192798615 0.4720703363418579 -0.5809434056282043
-0.06788108497858047 0.6289209127426147 2.089054822921753
1.2318642139434814 0.5983834862709045 0.27023184299468994
-0.48857301473617554 0.6822988986968994 -0.7415538430213928
-0.0037144124507904053 -0.13034746050834656 0.46924474835395813
0.2705068290233612 1.0831270217895508 -1.9973433017730713
-0.16881594061851501 0.8755334615707397 -0.010277802124619484
1.1111106872558594 0.3852269649505615 -3.1524946689605713
0.03316068276762962 0.9046372175216675 0.7908186316490173
0.5892817974090576 0.18336136639118195 -0.5829038023948669
-1.0563329458236694 0.9773014187812805 -0.09285971522331238
1.3498225212097168 -0.2311411201953888 -1.1488124132156372
-1.041808843612671 0.9109548926353455 -0.7680619955062866
1.0604699850082397 0.5636482238769531 -2.6722800731658936
-0.3898146450519562 0.5375964641571045 -0.9004737138748169
-1.519425868988037 1.2879234552383423 -1.1508945226669312
1.2670217752456665 0.26768970489501953 -0.02054736576974392
1.1449432373046875 -0.021699339151382446 -1.9857611656188965
0.05026661232113838 0.4554399251937866 3.199604034423828
0.3745812773704529 0.17632907629013062 0.5346463918685913
-0.880399763584137 0.7473083734512329 -0.9840856790542603
0.753635823726654 0.34569859504699707 -1.1797517538070679
-1.0202656984329224 1.103886365890503 1.0910742282867432
0.7757673859596252 0.7202668190002441 -1.2546583414077759
-0.5984023213386536 0.6504563689231873 -0.23161262273788452
0.13326671719551086 -0.885232150554657 -1.4261057376861572
0.281022846698761 0.03132963180541992 0.07795771956443787
-1.1745400428771973 1.3394172191619873 -0.4179406464099884
1.2820481061935425 0.28588953614234924 2.5385050773620605
0.36871302127838135 0.23076675832271576 -1.165101170539856
-0.07170242071151733 0.6617714166641235 0.4016435742378235
0.23409563302993774 0.37067747116088867 2.1610231399536133
0.6861876249313354 0.06417122483253479 0.11223860085010529
-0.7196964025497437 1.0701987743377686 2.224092960357666
-0.6401022672653198 -0.05737820267677307 -1.9514745473861694
0.8101041913032532 -1.1504688262939453 1.6222797632217407
-0.6593642830848694 0.3181927800178528 0.3691030740737915
-0.6334245204925537 0.6789133548736572 1.5741428136825562
0.4668893814086914 0.4424387216567993 0.3276849091053009
1.516308307647705 0.08138315379619598 -2.1909685134887695
0.3392132818698883 0.92830491065979 -0.6139833927154541
-0.7150173783302307 0.8356090784072876 2.3049871921539307
0.677578330039978 0.12475833296775818 -1.0489342212677002
-0.6338468790054321 0.11098612844944 0.9416187405586243
0.24529646337032318 0.039145514369010925 -0.943632960319519
-0.38219860196113586 1.3103502988815308 -0.5726325511932373
-0.27584630250930786 0.6146870851516724 -1.1610749959945679
1.0042543411254883 0.18255262076854706 1.368638277053833
-0.5719096660614014 1.325439453125 0.5273401141166687
-0.7503188848495483 0.6533703804016113 -0.7851639986038208
-0.12117128819227219 1.0297372341156006 3.0229203701019287
0.24682044982910156 0.4722180962562561 0.8811400532722473
-0.20603151619434357 0.6022360324859619 -0.42635083198547363
0.02013065665960312 0.25431138277053833 2.2093114852905273
1.2893599271774292 -0.35900306701660156 -0.2865723669528961
0.17054679989814758 0.10477669537067413 0.1915292590856552
-0.20009243488311768 0.8158699870109558 -0.123649463057518
0.533588171005249 0.6642434000968933 -2.290705442428589
-0.3177497982978821 0.47626036405563354 0.07071615755558014
-0.19350703060626984 0.8021507263183594 -2.3266773223876953
-0.40505921840667725 0.8781344890594482 -0.05649356171488762
0.8923970460891724 0.006315454840660095 -0.929972767829895
-0.6257483959197998 0.9375817775726318 -1.7101250886917114
-0.016742058098316193 0.680947482585907 -1.7622812986373901
-0.674929141998291 1.3239578008651733 -1.3178004026412964
0.43563055992126465 0.07237128913402557 -2.3685543537139893
-0.7183213233947754 -0.024289608001708984 0.20022621750831604
-0.9060865044593811 0.8451370000839233 0.18598024547100067
0.13145050406455994 -0.023870140314102173 -0.11788856983184814
-0.7460110783576965 0.8347485065460205 2.262495279312134
0.1846798211336136 0.6030892133712769 1.5002250671386719
-0.5528113842010498 0.2305268943309784 -1.4241811037063599
0.9618942141532898 0.17677746713161469 -0.13396970927715302
0.10681657493114471 1.208808183670044 0.3418549597263336
0.05262548476457596 -0.667266845703125 -2.3091306686401367
0.13566169142723083 1.1737371683120728 -2.210045576095581
-0.7000098824501038 0.9383028149604797 -1.4059815406799316
0.3448580801486969 0.1413007378578186 1.6942963600158691
-0.3950995206832886 0.024050801992416382 2.101893186569214
0.19816745817661285 0.761073112487793 -2.4724225997924805
0.10737287998199463 0.007609128952026367 1.320487380027771
-0.007624682039022446 0.30990007519721985 -1.427803635597229
-0.5702954530715942 0.015750974416732788 2.311056137084961
0.5834676027297974 0.16145320236682892 1.7637814283370972
-0.27149930596351624 -0.10439571738243103 -2.387147903442383
-0.8883017301559448 0.5722982883453369 -0.5686757564544678
-0.43479448556900024 1.0807174444198608 0.7619665861129761
-0.5066479444503784 0.5670182108879089 -0.9309649467468262
0.6759647130966187 0.1207876056432724 -1.7209889888763428
-0.11095242947340012 0.47696197032928467 1.3374574184417725
-0.17576830089092255 0.7965302467346191 1.9016987085342407
0.3201012909412384 0.9660632610321045 0.40113797783851624
0.8160557746887207 0.1334286779165268 2.3897969722747803
1.3893359899520874 0.6309589147567749 -1.5174264907836914
0.4368341565132141 0.3112872838973999 -2.1323904991149902
-0.22545158863067627 1.2135759592056274 -0.2536880373954773
0.3951191306114197 0.2988848090171814 0.025014562532305717
0.3527679145336151 0.5390363335609436 -0.5814180374145508
1.3038426637649536 0.6325267553329468 -1.707748532295227
1.0340758562088013 0.4375569522380829 -1.7946256399154663
1.029435157775879 0.707956850528717 0.4295554459095001
0.3388288617134094 -0.31418895721435547 -1.2392240762710571
1.0565338134765625 0.5988976955413818 -1.3863680362701416
1.5769646167755127 0.7040740847587585 0.9845609664916992
0.4464040994644165 0.09977363049983978 -1.3692338466644287
-0.9599043130874634 0.9376579523086548 -1.8764612674713135
-0.81184983253479 0.4561450779438019 1.818984031677246
0.7370812892913818 -0.3254072666168213 2.0852956771850586
-0.1925312876701355 1.1116962432861328 0.9149492383003235
-0.10481185466051102 0.9476411938667297 0.5649561882019043
-0.46531692147254944 -0.10794961452484131 2.3258039951324463
0.6634823083877563 -0.24975815415382385 0.8691186308860779
0.16490766406059265 0.6439989805221558 -2.0784032344818115
-0.03470788896083832 -0.11018428206443787 -2.0636801719665527
0.13659748435020447 0.8072351813316345 1.1200006008148193
-0.23902146518230438 1.0723806619644165 2.312082052230835
1.1611924171447754 -0.13054659962654114 0.49301835894584656
0.68463534116745 0.40364301204681396 0.4603644609451294
-0.8196134567260742 1.1772562265396118 0.00910176057368517
0.1389772891998291 0.6169204115867615 1.717698335647583
-1.1278765201568604 -0.14541497826576233 0.5151680707931519
-0.21669673919677734 -0.003907203674316406 -0.9170632362365723
-0.7122137546539307 0.3693299889564514 0.5327410101890564
0.003350377082824707 0.06082479655742645 1.4565390348434448
-0.9389249086380005 0.9533156156539917 -0.7480725646018982
1.0438716411590576 0.5203647613525391 0.59087735414505
1.0985947847366333 -0.4109487533569336 -1.516533613204956
0.34108611941337585 -0.007056519389152527 -0.6389803886413574
1.0460851192474365 0.00197562575340271 0.059216976165771484
-0.47486215829849243 0.8176677227020264 -1.6715551614761353
-0.033017050474882126 0.5143413543701172 -0.52971351146698
0.6321597099304199 1.1824980974197388 0.41823017597198486
-0.4199559688568115 1.2685837745666504 0.145164355635643
1.2563269138336182 -0.36879637837409973 1.8955092430114746
-0.42758166790008545 0.4906303286552429 -1.3729021549224854
0.42144864797592163 -0.32430413365364075 1.6120253801345825
0.6931352019309998 0.875625491142273 0.37416282296180725
0.31795191764831543 0.7009854316711426 -1.2968826293945312
0.5983275771141052 1.0360920429229736 1.0168153047561646
-0.8400305509567261 0.7485690116882324 -0.1819339543581009
-0.3557066321372986 1.236039161682129 -2.6114931106567383
-0.5375843644142151 0.676283597946167 -1.8972450494766235
-0.17583206295967102 0.26834386587142944 -1.8433252573013306
0.4828760623931885 0.76882004737854 -0.7139788269996643
0.2091650664806366 0.3974943161010742 -1.7628414630889893
0.028657488524913788 0.7426437139511108 -0.8809959292411804
0.47460076212882996 0.8283528685569763 -2.651724100112915
1.0417556762695312 0.9356744289398193 1.7360633611679077
0.43281441926956177 0.8996957540512085 -0.2614913880825043
-0.44898277521133423 1.0243022441864014 -2.761627435684204
0.012077473104000092 0.3672201633453369 1.1963781118392944
-0.6516284942626953 1.1011124849319458 -1.8835808038711548
0.27799952030181885 -0.06711678206920624 -0.5533787608146667
0.20010049641132355 1.0201507806777954 1.5165696144104004
-0.31908953189849854 1.2745916843414307 -0.9361085295677185
-0.4579928517341614 0.8610464334487915 -1.618606448173523
0.04609069228172302 1.0859311819076538 -1.0283068418502808
0.9418209195137024 0.6747970581054688 -0.7249243259429932
1.2311512231826782 -0.3413228988647461 -1.1977686882019043
-0.6205471158027649 1.3783390522003174 -0.6996387243270874
0.027988847345113754 0.3782568573951721 1.035198450088501
0.06580032408237457 0.7542511224746704 -0.8348554968833923
-0.11071297526359558 0.34346309304237366 2.7517356872558594
1.151532769203186 0.538321852684021 -2.296815872192383
-1.1254868507385254 0.9848731160163879 -1.0682475566864014
-1.179168939590454 1.2796825170516968 1.0205873250961304
0.5669282674789429 0.05846337974071503 -1.4794330596923828
-1.3407646417617798 0.5981071591377258 -0.7130706906318665
-0.14803443849086761 0.5678329467773438 -2.623198986053467
0.1274283528327942 1.2009533643722534 1.0264005661010742
-0.5214323997497559 1.1390172243118286 -1.7048168182373047
0.20162183046340942 1.256859540939331 -2.0431764125823975
-0.05952732637524605 -0.06807373464107513 -2.047039747238159
0.5913828015327454 0.6753365397453308 -0.26748815178871155
-0.12322233617305756 0.620162308216095 -1.8961597681045532
0.6079145669937134 0.1527123600244522 1.1931384801864624
0.6080142259597778 -0.2010985016822815 0.7384236454963684
1.4703996181488037 0.18569563329219818 -0.1738455593585968
0.5375787615776062 -0.18781313300132751 -2.8271238803863525
-0.3965960741043091 0.5930025577545166 -2.687676429748535
1.7764958143234253 -0.06509505212306976 -3.0547688007354736
0.9552059173583984 0.4881281852722168 -0.9227163791656494
0.01024286076426506 0.3646177649497986 0.8201674818992615
-0.9012543559074402 0.6934939622879028 1.4214322566986084
-0.16425810754299164 0.39409375190734863 1.5708273649215698
-0.2263738512992859 1.1553298234939575 -0.8662505149841309
-0.15729880332946777 0.3566642999649048 -1.856331467628479
0.6803330183029175 -0.2239191234111786 0.40563157200813293
-0.5522051453590393 0.5416572690010071 -1.4407429695129395
0.039768949151039124 0.5913673639297485 1.1309380531311035
1.5017467737197876 0.1936899870634079 -1.9961732625961304
1.1049787998199463 0.045382604002952576 -0.05973774939775467
0.640472948551178 0.8913753032684326 1.9758962392807007
-1.0432780981063843 1.4896939992904663 -3.0680325031280518
-0.44687211513519287 0.7637958526611328 -0.835634171962738
1.0488234758377075 -0.003439098596572876 -0.6462527513504028
-0.11372540891170502 1.0014002323150635 2.7511892318725586
0.32984429597854614 0.7845814824104309 -1.0946279764175415
1.3710651397705078 0.45905375480651855 -0.5390260219573975
-0.43737417459487915 0.23470008373260498 -2.981943368911743
0.7612481713294983 -0.2028142511844635 -0.20801015198230743
0.20858824253082275 0.6146657466888428 1.0156434774398804
-1.1567291021347046 1.3354120254516602 -3.1383771896362305
-1.4554890394210815 1.2697219848632812 -0.9247864484786987
0.6603713035583496 -0.2995358407497406 -0.6261770725250244
-0.5874371528625488 -0.019005998969078064 -1.5466557741165161
-0.6470754742622375 0.4958041310310364 -0.14311529695987701
-0.530059278011322 0.668506383895874 -1.4561749696731567
0.8327924013137817 1.1382125616073608 2.0492470264434814
-0.4859966039657593 0.022399619221687317 -0.9857694506645203
-0.7016397714614868 0.009381324052810669 0.2657719850540161
0.005798179656267166 0.2107098549604416 -1.4571396112442017
0.20987869799137115 -0.5155014991760254 -1.4425352811813354
0.07668741047382355 0.43789273500442505 -1.8811994791030884
0.14918525516986847 0.6536771655082703 -0.9635470509529114
-0.07205916941165924 1.1259605884552002 -1.2592697143554688
0.4755895733833313 0.39250463247299194 -2.2067840099334717
-0.81541508436203 0.3525271415710449 -1.7858402729034424
0.6477229595184326 0.348924458026886 -1.3121817111968994
-0.0004100315272808075 0.2935750484466553 2.2813596725463867
0.5602146983146667 -0.18942099809646606 -0.3358757197856903
-0.08747485280036926 -0.34970545768737793 -0.5059748291969299
1.6718100309371948 -0.35761091113090515 2.0529286861419678
-0.38144680857658386 -0.18815675377845764 2.7457311153411865
1.363372802734375 -0.14745932817459106 -1.2573086023330688
0.6369863152503967 0.6826722621917725 -2.650908946990967
0.09894070029258728 0.0841868668794632 -0.3538401424884796
-0.7542658448219299 1.0228629112243652 -1.3041414022445679
-0.9607880711555481 0.5876179337501526 -1.4907147884368896
-0.6141039133071899 -0.07112041115760803 -0.18931856751441956
0.22186502814292908 0.27910566329956055 -1.3226494789123535
-0.0925976037979126 0.28282344341278076 2.5029077529907227
-0.544148325920105 0.4338511526584625 1.0425697565078735
0.007635690271854401 1.0643385648727417 -1.1721843481063843
0.6010230779647827 0.7012173533439636 -1.2946609258651733
0.9842205047607422 0.7616791725158691 -1.9839171171188354
0.048141732811927795 -0.09659846127033234 1.406150221824646
0.9172407984733582 0.008791834115982056 -0.8837690353393555
-0.08446115255355835 0.19490399956703186 1.2808356285095215
0.4897327423095703 0.4018101096153259 0.1570243388414383
0.2518475651741028 0.5319874882698059 0.33097514510154724
-1.075049877166748 0.48897069692611694 1.3174896240234375
-0.2953493893146515 0.3445807099342346 -0.8648250102996826
-0.2514688968658447 -0.23654413223266602 2.3211820125579834
0.9107926487922668 0.18446554243564606 0.9472289681434631
0.4344901442527771 0.4791821837425232 -1.4727298021316528
-0.09734497219324112 1.1474385261535645 -1.5424708127975464
-0.7568033337593079 0.7674583196640015 0.13744297623634338
-0.10649967193603516 1.0467898845672607 -0.05801956355571747
0.6160094738006592 0.46056288480758667 1.2862130403518677
-0.3465965986251831 0.3707543909549713 -2.545234441757202
0.5936431288719177 -1.0734925270080566 2.162785291671753
-0.20126469433307648 1.2057214975357056 -0.943300187587738
0.1875368356704712 -0.3012758493423462 -1.6195080280303955
-0.4637938141822815 -0.7433195114135742 1.382514476776123
0.3135664761066437 0.6759089827537537 -2.470686912536621
0.9936040043830872 1.1335967779159546 1.9684661626815796
-0.2905832529067993 1.3406399488449097 -0.7812044024467468
-0.17044681310653687 0.03505781292915344 1.5806773900985718
-0.05702480673789978 0.7039646506309509 -1.7844531536102295
0.44277259707450867 0.1062055230140686 2.696300983428955
-0.05184023082256317 -1.3890279531478882 1.9931106567382812
-0.48317402601242065 1.233778953552246 1.2006456851959229
-0.08485274016857147 0.3787190318107605 0.6016364097595215
1.0071921348571777 0.5786761045455933 -2.3617870807647705
0.2389460951089859 0.5644551515579224 -0.642936110496521
-0.6892467737197876 0.7266282439231873 0.528838038444519
1.4243323802947998 -0.31294023990631104 2.300124406814575
0.1786787211894989 -0.18616867065429688 -1.162196397781372
0.952582061290741 0.008208796381950378 1.4207614660263062
-1.171980619430542 1.3553320169448853 -1.8005675077438354
1.4118163585662842 -0.26785343885421753 1.6412907838821411
0.9049018025398254 0.11118993163108826 -1.1233503818511963
-0.9047653675079346 1.2172088623046875 2.5564911365509033
-0.7114843130111694 0.03712478280067444 0.3730762004852295
0.8671889901161194 0.716338038444519 -1.8812501430511475
-0.3346870541572571 0.753926694393158 -0.05682546645402908
4.820898175239563e-05 0.9062745571136475 0.22422891855239868
-0.7088663578033447 1.2313307523727417 -1.5236643552780151
0.029750827699899673 1.0414196252822876 2.717028856277466
-0.02794777601957321 -0.1094365268945694 -1.5854054689407349
0.25779950618743896 0.33722984790802 1.261494517326355
0.15911650657653809 0.4528746008872986 0.7358484864234924
0.6113311052322388 0.1567721962928772 -2.003378391265869
0.14689788222312927 -0.21447399258613586 -0.8058890104293823
-0.2871438264846802 0.4397808313369751 1.0547420978546143
0.43495655059814453 0.6291431784629822 -0.8449606895446777
-0.32305142283439636 0.7781813144683838 0.10672558844089508
-0.033558666706085205 -0.27363377809524536 -2.6018917560577393
-0.05459735542535782 0.32873043417930603 -1.8526667356491089
-0.13285799324512482 0.5755770206451416 1.4456334114074707
0.38739582896232605 0.3202967643737793 2.48490571975708
0.07918551564216614 0.15021495521068573 2.610424041748047
-0.07907170802354813 0.49116751551628113 0.6382173895835876
0.09837435185909271 0.786186158657074 1.1493055820465088
-0.09123232960700989 0.48581039905548096 1.317166805267334
1.0128092765808105 0.27038687467575073 2.9387097358703613
-0.2883269488811493 0.33720698952674866 0.31634101271629333
-0.9938676357269287 0.5182654857635498 0.9961838126182556
1.1249796152114868 0.6693804264068604 0.6439948081970215
0.37012118101119995 0.5337233543395996 0.5866290330886841
0.16956575214862823 0.8971467614173889 1.9297059774398804
0.36867791414260864 0.39181315898895264 -2.200890064239502
-0.3678073585033417 0.9479159116744995 2.194538116455078
-1.0571649074554443 0.6085629463195801 1.0920640230178833
0.7338031530380249 -0.3408714830875397 1.0847530364990234
-0.31958258152008057 0.4207061529159546 0.6159442067146301
0.14323796331882477 0.685257077217102 -0.5216218829154968
0.3218501806259155 0.39436501264572144 1.9129482507705688
0.3290577232837677 0.7580427527427673 -2.2733781337738037
-0.9769349098205566 0.154191255569458 -3.033942222595215
0.668718159198761 1.1492279767990112 -0.0994439423084259
-0.2941111624240875 0.2750488519668579 -1.7281420230865479
-0.0939938947558403 1.3131457567214966 -1.453994631767273
1.175370216369629 0.7482621669769287 -0.35977935791015625
0.2586449980735779 0.8883285522460938 0.3888205587863922
0.3300733268260956 -0.33146506547927856 1.6512590646743774
0.1522834300994873 1.2229307889938354 -2.0249147415161133
-0.387397438287735 1.186149001121521 2.5730795860290527
-0.23952507972717285 0.46200716495513916 0.9644810557365417
-0.858843982219696 0.7201060056686401 1.1302095651626587
0.6342020630836487 0.09804189205169678 1.297908067703247
-0.5785966515541077 1.3714038133621216 -0.5571399331092834
0.38309037685394287 1.0822962522506714 -0.7803343534469604
0.09076157212257385 0.10499417781829834 -0.040971823036670685
-0.5876715779304504 0.30185630917549133 -1.7438536882400513
0.12194988131523132 0.29793429374694824 -1.3679165840148926
1.309519648551941 -0.3922647535800934 1.2510782480239868
-0.8765454292297363 0.0865836888551712 -1.5262119770050049
0.553352952003479 0.09147307276725769 1.5651092529296875
-0.6186795234680176 0.19010744988918304 -0.8733139038085938
0.08839461207389832 0.7094575762748718 -0.03006715141236782
0.6717543601989746 0.340939998626709 -0.9259940981864929
0.8831104040145874 -0.07961179316043854 -0.3666629195213318
-0.7020164132118225 -0.025200486183166504 0.27092334628105164
-0.08645202219486237 0.2320055514574051 -1.4627354145050049
-0.5442350506782532 0.022151976823806763 0.4871683120727539
0.30658960342407227 -0.15487469732761383 -1.3623647689819336
0.6942395567893982 0.4411408007144928 -1.1364065408706665
-0.07123485207557678 1.0844167470932007 -1.5286811590194702
-0.2858554422855377 1.0603060722351074 -0.3075145184993744
0.3603469133377075 0.45982494950294495 0.43721804022789
0.9414000511169434 -0.3641296625137329 -1.7161098718643188
-0.8378309607505798 0.06273895502090454 -3.067531108856201
1.311085820198059 0.24717950820922852 1.8854801654815674
0.23136112093925476 0.15668314695358276 -0.05991541966795921
0.4880169630050659 -0.33750006556510925 1.0155631303787231
0.30627673864364624 1.0717827081680298 0.7294992208480835
-0.5668299794197083 0.20470818877220154 1.0372587442398071
0.7089951038360596 -0.2720721364021301 -1.683309555053711
0.4850488305091858 0.22297878563404083 -0.49928075075149536
-0.651793360710144 0.18415334820747375 -1.2128026485443115
0.41236692667007446 0.11883656680583954 -1.9296187162399292
-0.2912293076515198 1.1825200319290161 1.2203028202056885
0.25904250144958496 0.9374481439590454 0.45436468720436096
-0.6745032072067261 1.2443004846572876 -0.11290444433689117
-0.44280099868774414 0.3966307044029236 1.437417984008789
-0.7940045595169067 0.7686514258384705 -2.128751516342163
-0.004783812910318375 1.314358115196228 -1.2246789932250977
0.8057777881622314 0.671622633934021 0.24009276926517487
0.5701330900192261 0.649809718132019 -0.8758576512336731
0.5970659255981445 -1.24979567527771 1.7160725593566895
-0.4862053096294403 0.7727956771850586 -0.8591704368591309
-0.5750634074211121 0.6460989713668823 -0.053030725568532944
-0.274164080619812 -0.23033328354358673 1.334365725517273
0.4318275451660156 0.9150961637496948 -1.2801071405410767
-0.18344196677207947 -0.17439374327659607 0.3604414463043213
0.8168153166770935 -0.08150553703308105 1.1390334367752075
0.14162877202033997 0.7048752307891846 -0.7654346227645874
-0.4216955304145813 -0.1396408975124359 1.8865318298339844
-0.6636092662811279 0.749422013759613 0.13948914408683777
0.432763934135437 0.7260652184486389 1.655680775642395
0.9154893159866333 -0.275325208902359 -2.714261531829834
-0.5305202603340149 0.7679176330566406 -1.3992379903793335
-0.08992205560207367 0.747949481010437 0.07607286423444748
-0.289697527885437 0.41528192162513733 0.1764286458492279
0.38416171073913574 0.2542784810066223 -0.6245466470718384
-0.16850589215755463 0.48251795768737793 -0.8850324153900146
0.9290996193885803 0.010222464799880981 -1.3327699899673462
0.030832083895802498 1.2367249727249146 -2.619439125061035
-1.4990941286087036 1.1291351318359375 2.978604316711426
1.062355399131775 0.14615008234977722 1.1299980878829956
-0.760576605796814 0.28593799471855164 -0.257119357585907
0.27852463722229004 1.1850390434265137 1.682633399963379
0.36498892307281494 1.0004334449768066 0.5938877463340759
-0.11818645894527435 0.5988872051239014 1.881072759628296
1.0368609428405762 0.6002074480056763 -1.786411166191101
-0.44966819882392883 0.8411000370979309 -0.7302025556564331
-0.07234038412570953 1.1250169277191162 0.7573890089988708
-1.2381680011749268 1.0578478574752808 2.226203203201294
0.7198813557624817 0.12821756303310394 1.2950785160064697
-1.249287486076355 1.0600802898406982 0.07765507698059082
-0.6344259977340698 1.0327262878417969 0.08835357427597046
-0.04121775180101395 0.31876271963119507 1.252828598022461
-0.544816792011261 -0.07166966795921326 1.6293416023254395
-0.3218958377838135 0.07572729885578156 -1.8968982696533203
0.21669819951057434 0.3533099293708801 -0.10404761135578156
-0.8515295386314392 0.25291725993156433 0.7524214386940002
0.9074903130531311 0.13905452191829681 1.2029205560684204
-0.4365658164024353 0.6096722483634949 1.607008695602417
-0.3613293170928955 0.5364344120025635 -1.73812997341156
0.032806944102048874 1.2808619737625122 2.0155844688415527
0.9492915272712708 0.4821840226650238 -1.228097915649414
1.1158082485198975 0.8521450757980347 1.8920180797576904
0.30600011348724365 0.3570669889450073 -0.31038323044776917
0.26826462149620056 0.817234456539154 -1.4902254343032837
1.341972827911377 0.29500555992126465 -0.67654949426651
0.30001989006996155 0.7234175801277161 -0.8124243021011353
0.23917384445667267 -0.08772267401218414 -2.706723213195801
-0.0817645937204361 0.3136789798736572 -1.1721067428588867
-0.911882758140564 1.126814365386963 -1.1876178979873657
0.5709584951400757 -0.32523801922798157 -0.4766964018344879
-1.0888628959655762 1.1173166036605835 3.1225359439849854
0.47546055912971497 -0.4886992573738098 2.490363121032715
0.6150245070457458 0.8669863939285278 0.8457484245300293
-0.9985365867614746 1.0416460037231445 -0.729482114315033
1.4858167171478271 0.5991879105567932 -1.6884549856185913
-0.7176903486251831 -0.10081283748149872 2.281384229660034
-0.9186998605728149 0.21179677546024323 -1.2730270624160767
-0.12698082625865936 0.8934628963470459 2.969240427017212
-0.2634877860546112 0.4244876503944397 -0.03996250033378601
0.3879016935825348 1.140526294708252 -0.9205783605575562
0.7572516202926636 0.7926874160766602 -2.2933597564697266
1.1323188543319702 0.6520243287086487 -0.8757672309875488
-0.6219072937965393 0.8334375619888306 -0.3472032845020294
-0.5387268662452698 0.9698483347892761 -0.7701621651649475
0.05846055597066879 0.10739877820014954 0.6223064661026001
-0.6819504499435425 0.630861222743988 -1.3159154653549194
-0.6197103261947632 -0.053169071674346924 -0.763150155544281
1.411555528640747 -0.15648508071899414 -2.401820659637451
0.8477757573127747 0.15183211863040924 1.770567774772644
1.0150270462036133 -0.015611454844474792 -1.7816529273986816
1.4601545333862305 -0.12437860667705536 1.2540315389633179
0.6589135527610779 -0.030223891139030457 1.1678115129470825
-0.21510551869869232 0.5595241189002991 1.1858192682266235
0.3121848404407501 0.41843611001968384 1.1113131046295166
0.5741471648216248 -0.5702773928642273 -1.5137405395507812
1.28177011013031 0.1340986043214798 1.0116475820541382
-0.31026533246040344 0.7439237833023071 -0.6509032845497131
0.2523269057273865 0.6658081412315369 1.26189124584198
-0.45778968930244446 0.44624876976013184 -0.7547042369842529
-0.08823998272418976 0.4818340241909027 -2.6347873210906982
0.12574997544288635 0.3877406716346741 -0.08747027069330215
-0.4843507707118988 0.5143454670906067 0.7508434653282166
1.2528311014175415 0.08499893546104431 -0.6582071185112
0.47394800186157227 0.04220578074455261 1.084547758102417
-0.9513604640960693 0.5676651000976562 0.6242183446884155
-0.6314059495925903 -0.28087666630744934 2.7301886081695557
-1.280918002128601 0.9189459085464478 -0.3302212059497833
-0.9350119829177856 1.2320770025253296 2.200956106185913
-0.06687881052494049 0.8471142649650574 1.366018295288086
0.4072203040122986 0.4578979015350342 -1.958197832107544
-0.5401327610015869 0.08547180891036987 1.5283399820327759
0.9210287928581238 0.7171052694320679 -2.7866172790527344
-0.7732292413711548 -0.07597070932388306 -0.3126040995121002
-0.14572785794734955 1.1529558897018433 -1.089456558227539
-0.7578393220901489 0.5903677940368652 2.012775421142578
-1.1817171573638916 1.1477962732315063 0.17259985208511353
1.0887047052383423 0.14873500168323517 2.6702070236206055
0.08317115902900696 0.8752468824386597 0.3653258979320526
0.7896633148193359 0.11681491136550903 -0.5112003087997437
-0.06059000641107559 0.622628390789032 -0.18150107562541962
-0.01107192412018776 0.7815125584602356 2.2601356506347656
0.5045657753944397 0.7772111892700195 0.11522100865840912
0.13628557324409485 0.05003134906291962 2.6112287044525146
0.195137619972229 0.5229635238647461 0.33254730701446533
-0.46239787340164185 1.2723463773727417 -2.5818419456481934
-0.9972400069236755 1.2004936933517456 1.0874067544937134
-0.6562820672988892 0.6594720482826233 -2.242347240447998
-0.07246606051921844 0.8309712409973145 -0.419116348028183
-0.2520638108253479 0.9451873898506165 -0.6703205704689026
-0.3010399341583252 -0.13418728113174438 0.7365841865539551
-1.0569660663604736 0.7517059445381165 1.6022202968597412
-0.21751795709133148 1.394781470298767 -0.5032651424407959
0.8301548957824707 0.37742623686790466 2.006556987762451
0.7607751488685608 0.048039764165878296 -0.9049270749092102
0.8212513327598572 -0.25729307532310486 2.354113817214966
0.2191675901412964 -0.0030433833599090576 2.432417631149292
0.3170447051525116 0.9609311819076538 2.801652669906616
0.5980198383331299 0.4605884552001953 0.39496275782585144
0.36622685194015503 0.324431836605072 -0.7362752556800842
0.19153852760791779 0.6350071430206299 -1.2779953479766846
0.40048927068710327 -0.002245008945465088 -0.41326844692230225
0.4774412512779236 -0.09703776240348816 0.6647303700447083
-0.06238649785518646 1.1072548627853394 1.3406726121902466
-0.5251027345657349 0.6454361081123352 -2.156128168106079
-0.8761061429977417 1.3424928188323975 -1.1271554231643677
0.14487215876579285 -0.08414813876152039 -0.9856085181236267
0.6232849359512329 -0.538959264755249 -0.6895027160644531
0.6323733925819397 -0.077352374792099 -1.4986789226531982
0.8116669058799744 0.39443349838256836 1.7906006574630737
-0.1889447271823883 -0.3138926029205322 -1.7966909408569336
-0.13022685050964355 1.1177992820739746 -0.381146103143692
-0.7877122759819031 0.9017720222473145 -0.8518096208572388
-0.5126793384552002 1.3299224376678467 -1.984810471534729
2.0018277168273926 -0.5015964508056641 2.9244441986083984
-0.15755262970924377 0.441710889339447 1.0374081134796143
0.6955593228340149 0.1505095511674881 -0.12931936979293823
-0.6707769632339478 0.8172974586486816 0.28987938165664673
-0.3550644516944885 1.2048667669296265 -0.029738008975982666
-0.019831668585538864 0.7460881471633911 -1.687431812286377
0.06738659739494324 -0.49854397773742676 1.6190078258514404
-1.407484531402588 1.3466800451278687 0.8089796900749207
-0.13328149914741516 0.6615660786628723 -1.269624948501587
0.10089296102523804 0.23973679542541504 1.1364519596099854
0.08625142276287079 0.3114143908023834 -0.47409605979919434
-0.1362641155719757 -0.2098623365163803 1.9660160541534424
-0.4095085859298706 0.37000179290771484 -2.56994891166687
-0.07403268665075302 1.387389063835144 -1.5864052772521973
1.1860917806625366 -0.013146787881851196 1.2180472612380981
0.011513907462358475 0.8644174337387085 -1.060438871383667
-0.4526577293872833 1.1189302206039429 1.4881592988967896
0.754949688911438 -0.08785930275917053 1.1178261041641235
0.12664605677127838 0.11845272779464722 2.5367238521575928
-0.791178286075592 0.6198985576629639 0.6813623905181885
0.40702661871910095 0.3168817162513733 -1.0325313806533813
-0.2167045772075653 0.789598822593689 1.9350593090057373
-0.3405906558036804 0.6718950271606445 -0.4876004457473755
0.04473629593849182 0.6078251600265503 -0.015870222821831703
-0.08396656811237335 0.12417818605899811 1.5418816804885864
-0.19718873500823975 0.4201674461364746 -0.4147603213787079
0.6475156545639038 0.7476904392242432 -0.30799755454063416
-0.03931533545255661 0.04622127115726471 -0.5545616745948792
0.10583924502134323 -0.23418253660202026 2.0204179286956787
-0.028959307819604874 1.105918526649475 -1.8314344882965088
-0.34421873092651367 1.0686966180801392 -0.18353359401226044
0.04805734008550644 0.7871106863021851 -1.2359545230865479
-0.4809821546077728 1.0779247283935547 1.8405134677886963
0.29683831334114075 0.973789393901825 -0.7475960850715637
0.20514197647571564 0.886954665184021 0.6270593404769897
0.23779726028442383 0.37886419892311096 -2.10543155670166
-0.5653703212738037 0.7943131327629089 -0.19789659976959229
-0.055128924548625946 0.9053347706794739 3.191302537918091
0.26686108112335205 0.23360705375671387 0.3422904908657074
0.6246877908706665 0.025830447673797607 -0.9090377688407898
0.643471896648407 -0.5513151288032532 1.6202071905136108
0.23938238620758057 1.1069891452789307 -1.4116851091384888
-0.8474729061126709 1.2595603466033936 2.6570487022399902
-0.6428847312927246 0.7253021597862244 0.9048821330070496
-0.16216841340065002 1.2328952550888062 0.632317841053009
0.784480094909668 -0.06828488409519196 -0.7270140647888184
0.5531676411628723 0.7275679111480713 -0.9452317357063293
0.4998653531074524 0.9983479976654053 0.3351236581802368
0.32939767837524414 -0.290901243686676 -0.17234185338020325
0.06749636679887772 -0.25607019662857056 -1.8464829921722412
-0.7316698431968689 0.2129296362400055 -0.9413720369338989
0.9126486778259277 -0.1197219043970108 -0.57619708776474
0.7943562865257263 -0.31509289145469666 -0.9816968441009521
0.8033242225646973 -0.06996643543243408 -2.443279266357422
0.33476024866104126 -0.4385829567909241 -0.740951657295227
0.3163582682609558 -0.44956547021865845 1.2584218978881836
-0.8857295513153076 0.30574092268943787 0.9010111093521118
0.08022208511829376 1.096147060394287 -2.9414477348327637
1.374056100845337 0.10411863029003143 -2.100857734680176
-0.8319209814071655 1.1660810708999634 -0.9859828352928162
0.5573396682739258 -0.5605866312980652 2.396097421646118
1.0084749460220337 0.068867027759552 -2.7121033668518066
0.10971632599830627 0.324674129486084 -2.058410167694092
0.8417298197746277 0.7522724270820618 -1.1174566745758057
-0.18637749552726746 0.6083477735519409 0.03130343556404114
-0.9683808088302612 1.371065378189087 1.8714072704315186
0.20648978650569916 0.9561435580253601 1.793336272239685
0.7047553062438965 -0.017694666981697083 -2.1382219791412354
0.4547141194343567 0.08278268575668335 -2.091149091720581
0.31230127811431885 0.8448621034622192 -1.0985212326049805
-0.7398699522018433 0.517663836479187 1.1646913290023804
0.08994637429714203 0.9027706980705261 -1.3193258047103882
0.6846560835838318 1.2074859142303467 2.017404317855835
0.010251570492982864 1.1119849681854248 1.037559986114502
-0.05386845022439957 -0.8935549259185791 -2.201218605041504
0.6358963251113892 0.9090796709060669 2.089184284210205
-0.3519163131713867 0.8503714203834534 1.1204638481140137
0.4161027669906616 0.9252650737762451 1.388497233390808
0.03629010543227196 0.46971645951271057 -1.3166292905807495
0.4764646589756012 0.5202442407608032 -0.22498463094234467
0.9010449647903442 0.39887315034866333 0.31879550218582153
0.239411860704422 -0.32501083612442017 0.10919919610023499
0.4775693714618683 0.9535529613494873 0.4076836407184601
0.8309411406517029 0.22733959555625916 1.90673828125
-0.0771397203207016 0.44834470748901367 -0.4359569251537323
0.2265799343585968 0.646213948726654 -2.4193613529205322
0.5772092342376709 0.030191630125045776 2.942251205444336
-0.12182855606079102 -0.2817850112915039 0.4384438693523407
0.7505258917808533 0.12340140342712402 1.5484619140625
0.31318944692611694 0.35646599531173706 0.056521039456129074
0.48537054657936096 0.19124366343021393 -0.49721407890319824
-0.4435574412345886 0.9306102395057678 0.6582958698272705
-1.207314133644104 0.9087198972702026 -0.1771690547466278
0.11401446163654327 0.6548778414726257 -1.764704942703247
-0.5756930112838745 0.17282068729400635 2.3916611671447754
0.8110357522964478 -0.10279625654220581 -2.1363260746002197
0.19192984700202942 -0.13617181777954102 -0.4728240370750427
-0.25567275285720825 1.249458909034729 0.2561870217323303
-0.20722921192646027 1.1063653230667114 -2.938324213027954
1.1799999475479126 -0.03130976855754852 0.40859684348106384
1.3674290180206299 0.13392287492752075 -0.9032145738601685
-0.14263400435447693 1.117659091949463 -1.2885948419570923
-0.11702361702919006 1.2832248210906982 1.5011322498321533
-0.18649029731750488 -0.20403778553009033 -1.3372381925582886
0.2831810712814331 1.1035648584365845 1.7819699048995972
-0.21977725625038147 -0.40200287103652954 1.7835805416107178
-1.2960948944091797 1.172986388206482 0.23087576031684875
1.4804410934448242 -0.16142982244491577 0.8147109746932983
-0.028115514665842056 1.0737853050231934 0.3764137029647827
-0.1728605329990387 0.1432032436132431 -0.6808209419250488
0.7845116853713989 0.24236829578876495 1.4937654733657837
-0.3390321433544159 0.5763707160949707 -1.0059912204742432
0.472238689661026 1.225963830947876 1.3354445695877075
-0.8431212306022644 1.0901055335998535 1.771698236465454
0.47902506589889526 0.6813775300979614 -2.8247015476226807
-0.41938093304634094 1.2309588193893433 1.098008394241333
0.9150388240814209 0.3109167516231537 -0.7076274752616882
1.3294750452041626 -0.15636149048805237 -1.3752918243408203
-0.8490040302276611 1.5680902004241943 -2.67032790184021
0.8869439959526062 0.26090410351753235 2.1646738052368164
0.4125191271305084 0.23061159253120422 2.819082260131836
-0.22278404235839844 0.4457867741584778 0.7029991149902344
-0.6147823333740234 1.1275737285614014 2.198946237564087
-0.7873216271400452 1.2499291896820068 -2.165343761444092
0.2968533933162689 -0.24040791392326355 -0.08730702102184296
0.7141320705413818 0.33323365449905396 -1.1430145502090454
0.17978480458259583 -0.346769779920578 2.4797897338867188
0.7897669076919556 0.1499406099319458 1.1095768213272095
-0.49659597873687744 0.7362322807312012 0.02751009911298752
-0.2812936007976532 1.1250756978988647 -0.14399564266204834
-0.4004133343696594 1.2165184020996094 -2.0721304416656494
-0.14610989391803741 0.6939592957496643 -1.1857826709747314
-1.2817169427871704 1.013649344444275 -0.03169040381908417
-0.48502829670906067 0.8339552879333496 2.830548048019409
-0.4609836935997009 0.0588146448135376 1.519739031791687
-0.1267733871936798 1.102880835533142 1.8299837112426758
-0.9664080739021301 1.0435271263122559 -1.6188886165618896
-0.13152091205120087 0.3437929153442383 0.43723857402801514
-0.8557101488113403 1.2074395418167114 1.580217957496643
0.6350324153900146 0.26899683475494385 -1.0424325466156006
-1.4140633344650269 1.0046265125274658 -1.2546803951263428
0.03615470230579376 -0.2721133232116699 1.4727131128311157
-0.47795093059539795 0.014646157622337341 1.6668715476989746
-0.7855814695358276 0.27549275755882263 0.8200545310974121
0.3929838538169861 0.6354153752326965 -1.5350815057754517
-0.18792536854743958 -0.32235777378082275 -1.546230435371399
-0.1635301411151886 0.2478007972240448 -0.16604946553707123
0.909925103187561 0.7440334558486938 -1.1003636121749878
0.837316632270813 0.30063769221305847 2.2991273403167725
-0.22435840964317322 0.9663416743278503 2.1292338371276855
-0.44297873973846436 0.9660995006561279 2.133457660675049
1.16889488697052 0.02912624180316925 0.9824655652046204
0.9554807543754578 0.23625797033309937 -0.7787266373634338
-0.3042052984237671 1.0183264017105103 0.9674673080444336
0.25269562005996704 1.195739984512329 1.385715126991272
-0.5518126487731934 0.3794212341308594 2.400630474090576
0.40507739782333374 0.23520095646381378 -0.8885908126831055
0.8399298191070557 0.6955922842025757 -1.875412940979004
0.5962048172950745 0.2222360521554947 0.007051287218928337
0.55396968126297 0.048739463090896606 0.6545456051826477
-0.950872004032135 1.3351585865020752 2.120676279067993
-0.005157705396413803 1.2788348197937012 -2.094754219055176
-0.12781651318073273 1.4470462799072266 -1.384961485862732
-0.3072265386581421 0.9048111438751221 -0.5915106534957886
1.4286361932754517 -0.032195210456848145 -1.4223769903182983
0.7757626175880432 0.6338186264038086 -0.99690842628479
1.204106092453003 -0.2814027667045593 -2.007295846939087
-0.3596755862236023 0.32546383142471313 -0.9562848210334778
0.3234238624572754 0.9733074307441711 1.8237090110778809
-0.6521697044372559 0.4012840986251831 0.6676091551780701
-0.761486291885376 -0.1524653136730194 -1.0948870182037354
0.2838299870491028 0.30369430780410767 1.1340932846069336
-0.011669866740703583 -0.009632647037506104 0.5526443719863892
1.3440577983856201 0.4718970060348511 -2.188082695007324
-0.2730685770511627 0.8192233443260193 -0.7273220419883728
-0.554279088973999 0.06292587518692017 -0.39211970567703247
0.3571075201034546 0.7059150338172913 -1.7155330181121826
0.49840253591537476 1.1417676210403442 1.5411194562911987
-0.12185239046812057 0.3849107027053833 2.1370601654052734
-0.10883061587810516 0.7270328998565674 -2.074831247329712
-0.1674088090658188 0.7559703588485718 -0.3733104169368744
-0.5568733215332031 0.8634410500526428 0.330856055021286
-1.1633023023605347 1.2154008150100708 -2.9245846271514893
-0.016774389892816544 0.43943917751312256 -1.1983290910720825
-0.1457638442516327 0.2624552249908447 0.018701188266277313
-0.7998101711273193 0.014797776937484741 0.36402657628059387
-0.25637221336364746 0.35531124472618103 0.22025930881500244
0.6539627313613892 0.7352327108383179 -0.8363643884658813
0.9144894480705261 0.9508995413780212 1.6281521320343018
-0.5957741737365723 0.23172901570796967 -1.978108525276184
-0.28427654504776 0.7988927364349365 1.441419243812561
0.24914264678955078 0.08868445456027985 1.2369260787963867
0.012435384094715118 0.8756231069564819 0.6631142497062683
-0.08240234851837158 0.1447112113237381 -1.4265327453613281
0.8181440830230713 0.10603035986423492 -1.9521756172180176
0.7469022870063782 -0.035017549991607666 -1.69730806350708
0.8609508872032166 0.602853536605835 -1.0576462745666504
0.13963502645492554 -0.2538299262523651 0.37694358825683594
-0.9172836542129517 1.3285021781921387 -1.1917548179626465
-0.1252872347831726 0.33841145038604736 -0.21137064695358276
-0.8355985283851624 0.670889675617218 -2.5312130451202393
-0.9666061997413635 1.1370190382003784 -0.8761790990829468
-0.7459718585014343 0.8058735132217407 -0.04039546102285385
-0.4215524196624756 0.5599123239517212 -3.1098673343658447
0.01749524101614952 0.879688024520874 2.375589370727539
0.2547566890716553 0.26247602701187134 0.15469905734062195
0.526268720626831 0.34405332803726196 1.2077159881591797
0.12120480835437775 0.8855512142181396 -0.30045560002326965
0.3178565502166748 1.1041550636291504 -0.8036891222000122
-1.0160114765167236 0.9580004811286926 0.06705538183450699
0.749053418636322 0.32816195487976074 -0.3084545135498047
-0.3086027503013611 0.5982651710510254 0.5745946764945984
-0.08175231516361237 1.171737790107727 -0.02446754090487957
-0.07276450097560883 0.2540268301963806 1.8065032958984375
0.8354107141494751 0.520217776298523 0.12312840670347214
1.1167230606079102 0.3912006914615631 -1.3545488119125366
-0.05842409282922745 0.7665733695030212 1.1591582298278809
-0.12449835985898972 0.16203759610652924 -2.243983030319214
1.0346343517303467 0.4432603716850281 0.07243964076042175
0.5210921168327332 -0.1900044083595276 0.8006990551948547
-0.004802688956260681 1.0164369344711304 -2.9028844833374023
1.0713577270507812 -0.0881996750831604 0.20627297461032867
0.11851787567138672 -0.08431597054004669 -0.632296621799469
0.2832285761833191 1.1352282762527466 -2.871715545654297
-0.46145427227020264 0.048189565539360046 1.7505122423171997
0.25694745779037476 0.8343789577484131 1.2018898725509644
0.4849398732185364 0.04158313572406769 1.0716272592544556
-0.2678104043006897 0.6490187048912048 -2.303133249282837
-0.773204505443573 0.002131238579750061 1.5451099872589111
-0.6729769706726074 1.209226131439209 0.7656733989715576
0.8084532618522644 -0.39445027709007263 1.7551472187042236
0.40917065739631653 0.857088565826416 -2.2853236198425293
1.000199794769287 -0.025422468781471252 0.9109987020492554
-0.6678913831710815 1.1594887971878052 1.2096359729766846
0.08891093730926514 0.31229379773139954 -2.1875455379486084
-0.5071167945861816 0.6849747896194458 0.3971630334854126
-0.2741769552230835 1.1329293251037598 2.8271806240081787
0.11771002411842346 0.8141736388206482 -0.5306735038757324
0.06234985589981079 0.8243409395217896 0.2955676019191742
-1.1144369840621948 1.0476179122924805 0.6470913290977478
0.16031606495380402 0.27722007036209106 0.8677589297294617
-0.4698042869567871 0.2630549669265747 1.478816032409668
0.6219444274902344 -0.5259040594100952 1.1902192831039429
-1.2961053848266602 1.270232915878296 0.8963349461555481
-0.24103403091430664 1.1998682022094727 -1.5169463157653809
-0.4420560598373413 0.27925118803977966 -2.2764697074890137
-0.31368333101272583 0.32533973455429077 -0.06925613433122635
0.014457959681749344 1.2964468002319336 1.8028016090393066
-0.1910867989063263 0.5434565544128418 -1.2918494939804077
1.740259051322937 -0.4797826409339905 1.5098756551742554
0.4187329411506653 0.12369824945926666 1.83914315700531
1.596164584159851 0.6901370286941528 0.38342633843421936
-0.8038274049758911 1.2348830699920654 -3.0338854789733887
0.3018580377101898 0.047289296984672546 1.6906780004501343
0.1690489649772644 -0.03619462251663208 3.045473575592041
-0.598852813243866 -0.2207668125629425 -0.7893158197402954
-0.1131116971373558 0.16697856783866882 0.97166508436203
-0.7344722151756287 0.24099253118038177 0.03627929091453552
-0.22864750027656555 1.199638843536377 1.160993218421936
-0.3955342769622803 1.2295163869857788 0.6392379403114319
0.44898757338523865 0.01390102505683899 -0.22870074212551117
0.015773549675941467 1.0758830308914185 0.4788476824760437
0.15976127982139587 1.1530568599700928 -1.9830650091171265
0.7406706213951111 0.005616322159767151 1.051210880279541
-0.16746886074543 1.1797481775283813 -0.9252369403839111
0.14033053815364838 0.6851788759231567 1.905389666557312
0.9615235924720764 0.26899975538253784 2.914775848388672
-0.2933819890022278 0.9314802885055542 2.591524124145508
0.7848925590515137 1.0556544065475464 2.1342225074768066
0.5273219347000122 0.4573492109775543 -1.6666818857192993
0.39434176683425903 0.6123185753822327 -0.3467836081981659
-0.5223044157028198 -0.09397280216217041 -0.19241106510162354
-0.5469802618026733 0.3684611916542053 1.6996831893920898
0.9901821613311768 0.26123422384262085 -2.4512863159179688
1.2777928113937378 0.7192149758338928 0.9295463562011719
-0.3764589726924896 1.474237084388733 -1.7047579288482666
-0.5501791834831238 0.056023284792900085 1.9812911748886108
0.2084161341190338 -0.21309742331504822 -1.1575734615325928
-1.4093307256698608 1.1664173603057861 -0.6723059415817261
0.3761902153491974 -0.26050737500190735 -0.7145763635635376
0.6341739296913147 0.11228106915950775 -0.8669697046279907
0.41639214754104614 -1.170735478401184 1.5008459091186523
1.0522842407226562 -0.40009668469429016 -1.2040365934371948
0.10161308944225311 0.7432264089584351 0.9118273854255676
-0.6885456442832947 0.4281734824180603 -1.4557340145111084
1.161362648010254 -0.2977462112903595 -0.464481383562088
-0.14978253841400146 1.2006696462631226 -0.8376708030700684
-0.4959461987018585 0.6413775682449341 -1.291512131690979
-0.8323284387588501 0.40461480617523193 -0.8602155447006226
-1.0712478160858154 1.3730082511901855 -1.3489171266555786
-0.42704835534095764 0.23964828252792358 1.5887789726257324
0.41282761096954346 0.8575864434242249 -1.40119469165802
-0.0868152603507042 1.206336259841919 1.1498680114746094
0.912442684173584 0.7657638788223267 -1.4247157573699951
1.3733152151107788 0.049094751477241516 1.009078025817871
-0.2697955071926117 -0.018541276454925537 -0.9077781438827515
