ply
format ascii 1.0
element vertex 823
property float x
property float y
property float z
end_header
1.4203652143478394 0.9772583246231079 2.605756998062134
0.3411519527435303 1.033974051475525 2.7104179859161377
-1.0807383060455322 0.6951220035552979 1.1562694311141968
1.5781570672988892 0.6181649565696716 -2.694927453994751
-1.1325128078460693 0.186736062169075 2.0946576595306396
1.7042938470840454 0.5478584170341492 1.3032768964767456
0.2658672630786896 0.7679629325866699 -2.7660841941833496
0.6412177681922913 -0.10070835053920746 -1.6691393852233887
1.7990834712982178 -0.014260366559028625 1.2210408449172974
-0.8020457625389099 -0.06865280866622925 1.2504520416259766
-0.9657371044158936 1.0560237169265747 -2.029156446456909
-0.18735377490520477 1.028265357017517 -2.0634407997131348
-0.1384623646736145 1.0802122354507446 -0.2471390962600708
1.0124865770339966 1.0325019359588623 -2.5888500213623047
0.20948299765586853 -0.10777318477630615 -1.0673656463623047
0.31861957907676697 1.0650749206542969 -2.5467000007629395
1.716860055923462 0.41027742624282837 -1.4281519651412964
0.3684377074241638 0.6549907922744751 2.6283788681030273
0.14220330119132996 0.9704842567443848 2.634157419204712
-0.1527833640575409 0.8213127851486206 2.848832607269287
-1.2475473880767822 1.0941375494003296 -2.3750760555267334
0.4771263599395752 0.9856034517288208 1.2650514841079712
-0.7920101284980774 1.0421254634857178 0.833081066608429
1.7777221202850342 1.017008662223816 2.176290988922119
1.496893286705017 0.9774216413497925 0.4727969467639923
-1.0991142988204956 0.28955864906311035 1.5379139184951782
1.706681251525879 -0.03822118043899536 1.0385524034500122
-0.48814329504966736 1.024980068206787 1.9810338020324707
-1.0248078107833862 0.13759005069732666 2.4514882564544678
-0.0671444833278656 1.0133861303329468 -1.984681487083435
-0.5192012786865234 1.0727274417877197 -0.3252706825733185
-1.0643179416656494 0.5761112570762634 0.03093622252345085
-0.327102392911911 -0.11918026208877563 2.3338215351104736
-1.279591679573059 0.8877865672111511 1.3989489078521729
-1.3943012952804565 0.9341121912002563 1.6844007968902588
1.7349387407302856 0.8363272547721863 0.6446568369865417
0.5560668706893921 0.6417862176895142 -2.6340110301971436
-1.0561246871948242 0.6639907360076904 0.6981785893440247
-1.0073834657669067 -0.1637101173400879 -0.4522921144962311
1.626204013824463 1.0329737663269043 -0.8224256634712219
-0.5130701065063477 -0.08538240194320679 -0.29368507862091064
0.5107656121253967 1.0199333429336548 0.720729410648346
-1.0688095092773438 0.281217098236084 2.477193593978882
1.491264820098877 -0.20620232820510864 0.32916155457496643
-0.04280513525009155 0.9350678324699402 -2.9305241107940674
-1.0897977352142334 0.4635624289512634 1.084873080253601
-1.0532490015029907 0.7715954780578613 -0.47880101203918457
1.114639163017273 1.024069905281067 -2.173740863800049
1.6900237798690796 0.15013360977172852 0.09598053246736526
0.9271937012672424 -0.116367407143116 2.1451468467712402
-0.5513939261436462 1.0857877731323242 -0.40458551049232483
-1.0232712030410767 0.6664535403251648 2.5593950748443604
-0.853017270565033 -0.07832783460617065 2.0897676944732666
1.7300615310668945 0.8036444187164307 -2.4012598991394043
1.3024588823318481 -0.10024875402450562 -1.4916661977767944
0.10984361171722412 1.0177972316741943 -2.2858617305755615
1.7797931432724 0.7982258796691895 -2.063713550567627
1.713149905204773 0.4531550407409668 -1.0648186206817627
0.34680798649787903 -0.11110886931419373 -0.44016584753990173
0.4831322729587555 0.585590124130249 -2.621640682220459
1.8418735265731812 0.8981945514678955 0.08222762495279312
-1.11432683467865 0.4134258031845093 2.223045587539673
1.2828346490859985 -0.10320179164409637 1.618099570274353
0.3751387596130371 1.0749293565750122 -2.6676769256591797
-0.16309523582458496 1.045003890991211 1.928087830543518
-0.9250242114067078 0.1772068738937378 -2.5446994304656982
1.516530990600586 1.008672833442688 -1.3457574844360352
1.7006558179855347 0.26953399181365967 1.3456073999404907
-0.6378366947174072 -0.09324713051319122 0.6026417016983032
1.6622636318206787 0.7430827617645264 2.5341405868530273
-1.1101326942443848 -0.03729093074798584 -1.0528815984725952
-0.5769377946853638 1.0219286680221558 -0.12608495354652405
1.6848646402359009 0.3282930254936218 1.1238315105438232
1.5052663087844849 1.0062823295593262 1.6184699535369873
0.6029631495475769 0.3728911876678467 2.5666134357452393
1.0467939376831055 0.9432519674301147 2.049370050430298
-1.3278064727783203 0.880071759223938 -0.4902818500995636
0.7379750609397888 1.0992321968078613 -0.20869770646095276
-1.0253106355667114 1.0873967409133911 0.3420129120349884
1.4441070556640625 1.0475980043411255 -0.41444674134254456
-1.1651314496994019 0.8997240662574768 -0.43739083409309387
-1.0755805969238281 0.8211046457290649 -1.0212675333023071
-0.9654545783996582 0.9949725866317749 1.6207796335220337
-1.0731818675994873 0.2031458169221878 1.1238961219787598
-1.2528058290481567 0.8527899980545044 1.6462769508361816
0.7839530110359192 1.0443603992462158 0.04452124983072281
-0.5213212370872498 1.0036245584487915 2.454655170440674
1.3349578380584717 -0.06960970163345337 -1.8918622732162476
0.9845611453056335 0.03684861958026886 -2.5492870807647705
-0.560703694820404 -0.06464150547981262 0.22910019755363464
-1.2637553215026855 0.9187063574790955 2.6990139484405518
1.6689039468765259 0.2395869791507721 -1.9027339220046997
0.7506812214851379 -0.10132166743278503 -2.4169845581054688
1.4197555780410767 1.003650426864624 -1.054319977760315
-1.3528674840927124 1.035947322845459 -2.738980770111084
-0.187204971909523 -0.07080651819705963 -2.2099292278289795
-0.12467831373214722 -0.08946600556373596 -2.4324986934661865
-1.1396924257278442 -0.12416484951972961 1.5702654123306274
1.7400648593902588 0.9823509454727173 2.429157257080078
1.7647560834884644 0.8259478807449341 1.4937347173690796
1.705525517463684 0.5747356414794922 -0.07077185064554214
-0.7365009188652039 0.7507424354553223 -2.772864818572998
-0.9979581832885742 1.0361862182617188 0.9282922744750977
-0.9896270036697388 0.9839854836463928 2.918571710586548
-1.20992910861969 1.1212835311889648 2.7652080059051514
1.2261673212051392 1.007003664970398 1.6326217651367188
1.628910779953003 1.0634000301361084 -0.46279090642929077
-0.6797701120376587 -0.08616811037063599 -2.250570058822632
-0.4666907489299774 -0.09191001951694489 0.4317368268966675
-0.2824030816555023 1.0967198610305786 -0.33738547563552856
-0.2651066780090332 -0.11667782068252563 0.23469440639019012
1.8706499338150024 0.9628636240959167 1.314799427986145
-0.768097996711731 1.069917917251587 -0.3398137390613556
-1.0820071697235107 0.48390668630599976 0.7828800678253174
-0.05709182843565941 -0.05114293098449707 2.5086967945098877
1.710220456123352 1.038116216659546 0.17210040986537933
0.7562177181243896 0.9688124656677246 1.401663064956665
-1.1126902103424072 0.9006882905960083 -2.1813230514526367
0.4164072871208191 1.0595089197158813 -2.116856813430786
1.704519271850586 0.293967604637146 2.2595887184143066
0.5822268724441528 0.7413220405578613 2.595524787902832
1.057619571685791 -0.09952016174793243 -0.813330352306366
-1.3680871725082397 0.8588712215423584 -2.7765443325042725
-0.6467593312263489 1.0376522541046143 2.6976284980773926
0.45641863346099854 0.33784863352775574 2.565239667892456
-1.059301733970642 0.8106580972671509 -0.680322527885437
0.7857884764671326 1.0033057928085327 -1.225672960281372
1.1046741008758545 0.9241169691085815 2.903510570526123
-1.096152663230896 0.4133162796497345 1.7127740383148193
1.1680982112884521 0.9777512550354004 1.834891438484192
1.7010823488235474 -0.045450359582901 -0.8921285271644592
-0.724825918674469 0.6253906488418579 -2.592663526535034
0.7360485196113586 0.11042594164609909 2.505659580230713
1.6881659030914307 0.23481957614421844 -0.04684622213244438
-0.4870038628578186 -0.09311588853597641 1.014787197113037
1.1648454666137695 0.9470969438552856 2.366534948348999
-0.8334096670150757 0.9733322262763977 2.931203842163086
0.8969690799713135 1.0383398532867432 -1.9422193765640259
0.11211831867694855 1.1017249822616577 -0.41909629106521606
-1.2205817699432373 0.844173789024353 1.6228508949279785
1.4006142616271973 0.9615170955657959 2.0577573776245117
1.4071135520935059 0.9804943203926086 2.7817599773406982
-1.104475975036621 0.3773042559623718 1.8712886571884155
-1.0658652782440186 -0.21712642908096313 1.1012742519378662
0.07147026062011719 1.0337281227111816 0.8933314681053162
1.2299184799194336 -0.10351156443357468 -0.12686486542224884
-1.1322572231292725 -0.13532884418964386 2.3010730743408203
-1.1351239681243896 0.7882027626037598 1.1633156538009644
1.6791597604751587 0.5485199093818665 2.3589859008789062
1.8144474029541016 0.8429365158081055 2.1922600269317627
-0.6655845642089844 1.0782274007797241 -0.6907152533531189
1.8409031629562378 1.0345945358276367 -0.18507373332977295
1.6974194049835205 0.7301750183105469 2.578763723373413
0.35418128967285156 0.9534053802490234 1.8529072999954224
-0.7631036043167114 0.6166145205497742 -2.6561055183410645
1.1041401624679565 0.9368893504142761 1.5137640237808228
0.7860682606697083 1.0482782125473022 -1.0950576066970825
0.7497517466545105 1.04022216796875 -1.9950017929077148
-0.441629022359848 1.027597427368164 2.3063669204711914
0.6417948603630066 -0.1396600604057312 1.6995841264724731
0.17479844391345978 0.3826892673969269 2.5781443119049072
-0.5440587401390076 0.5070938467979431 -2.5954320430755615
0.9103664755821228 1.0876507759094238 -2.7466797828674316
0.9098125696182251 0.9899680614471436 -2.600771903991699
1.2637794017791748 0.9621424674987793 1.6608806848526
0.45506060123443604 1.0653834342956543 -2.68442964553833
1.7070789337158203 0.4500551223754883 2.3336968421936035
0.44877123832702637 0.9653510451316833 1.53658926486969
-1.0937602519989014 1.0910465717315674 -0.8449690937995911
0.1925879865884781 -0.09727999567985535 -0.6024426817893982
1.4155293703079224 -0.40886420011520386 -2.4700422286987305
1.3482478857040405 -0.1098707988858223 1.2682089805603027
-1.1043459177017212 0.33404630422592163 0.4038480818271637
-1.1976232528686523 0.9000365734100342 -1.9063324928283691
1.706889033317566 1.0236670970916748 -1.8004295825958252
-0.608555257320404 0.5055440068244934 1.291334629058838
0.8151450157165527 0.9923440217971802 0.9341320395469666
1.637505054473877 0.4612082540988922 -2.598921775817871
0.5806760787963867 0.5156480073928833 -2.6055400371551514
0.8931333422660828 1.0579185485839844 -2.582045316696167
-0.5215435028076172 -0.1025838553905487 -1.4864625930786133
-0.3025744557380676 0.7985994815826416 2.861835241317749
1.4130754470825195 -0.12016803026199341 -1.1726564168930054
1.887129306793213 0.9122573137283325 2.642974376678467
1.707975149154663 0.5281798243522644 -0.6750220060348511
0.7375090718269348 0.9188530445098877 2.354844331741333
-0.916829526424408 1.0545661449432373 -2.870603084564209
-1.0788979530334473 0.8724435567855835 0.6302137970924377
-1.1277002096176147 0.02974657714366913 -1.5093698501586914
-0.1371133029460907 -0.131783127784729 0.9729539752006531
1.0285478830337524 -0.1070391982793808 -1.7677026987075806
0.869678795337677 -0.1212388426065445 2.1780688762664795
0.8711318969726562 -0.11059093475341797 1.1970491409301758
0.49638015031814575 1.0507491827011108 -2.0926225185394287
1.1549893617630005 0.9455571174621582 2.219424247741699
0.5198196172714233 0.9694828987121582 -1.4347137212753296
1.1408681869506836 0.9441938400268555 1.1405513286590576
-0.2426874041557312 -0.07881398499011993 -0.36954107880592346
-0.8812719583511353 -0.09189672768115997 0.928341805934906
1.7280827760696411 0.8023006319999695 -2.7048792839050293
1.6130146980285645 1.0054470300674438 -2.917109251022339
0.5164168477058411 1.069417119026184 -2.645282030105591
1.8496564626693726 0.9314672946929932 0.6017547249794006
0.8035280108451843 1.0450791120529175 -2.1805028915405273
0.8445919752120972 0.9353585243225098 -2.8952527046203613
1.6773384809494019 0.791336715221405 2.769559383392334
-0.6342048645019531 0.9655064344406128 1.1066440343856812
-0.16785937547683716 -0.12823930382728577 2.2012698650360107
-1.1567052602767944 0.868349552154541 0.0021044143941253424
-0.9155114889144897 -0.07189557701349258 1.5453464984893799
1.6868376731872559 0.20903286337852478 0.11897098273038864
1.52580988407135 0.34664589166641235 2.5511746406555176
0.9702930450439453 1.0903375148773193 -0.3655768930912018
1.6135133504867554 -0.10965053737163544 -0.5302392244338989
0.34727564454078674 0.8327732682228088 2.776986837387085
-0.42568379640579224 0.3624538779258728 2.5080597400665283
-0.7510058283805847 -0.06342321634292603 0.004959152080118656
1.7224819660186768 0.48454466462135315 1.969143033027649
1.7377057075500488 0.8159785270690918 -0.6705383062362671
-0.43035373091697693 0.6320458054542542 -1.5361604690551758
0.688382089138031 -0.06045159697532654 -2.5302109718322754
1.7037296295166016 0.16875503957271576 2.350069522857666
-0.16671717166900635 1.0137120485305786 0.4812929332256317
0.2955493927001953 0.776637077331543 -2.799795389175415
-0.3414216637611389 1.0234360694885254 2.6195285320281982
-0.6642526388168335 1.0476021766662598 -1.8782618045806885
-0.4262419641017914 1.0141429901123047 1.0867432355880737
1.8022648096084595 0.8716667294502258 -0.5092950463294983
-0.9688706994056702 1.0322895050048828 0.8588767647743225
-1.1548190116882324 1.0165917873382568 -2.165573835372925
1.6000534296035767 1.004453182220459 -1.3157483339309692
-1.0854833126068115 0.3248678147792816 -0.4397178590297699
-0.3523259162902832 0.9985817670822144 1.332381010055542
1.781952142715454 0.8171250820159912 0.29726988077163696
-1.0933929681777954 0.3678551912307739 -0.7784838080406189
1.2365162372589111 -0.11226832866668701 0.3767077922821045
-0.5018535256385803 0.8012374639511108 2.8593056201934814
0.233080193400383 -0.09384475648403168 -0.4378432631492615
-0.6377699971199036 0.9668295383453369 -2.9044506549835205
1.3479108810424805 1.0129469633102417 -1.6575101613998413
0.8981244564056396 1.0261770486831665 -0.04253121465444565
1.4308080673217773 -0.09958159923553467 -1.815279245376587
-0.13967354595661163 -0.10130556672811508 -1.348192572593689
-0.9308795928955078 0.48704397678375244 2.5189883708953857
1.6984236240386963 0.6784266829490662 1.5180491209030151
1.7045966386795044 -0.12606827914714813 2.1841089725494385
0.6266201734542847 0.9866189360618591 0.5691707134246826
0.6643123030662537 -0.09631338715553284 -1.5330346822738647
1.7124837636947632 0.6155043840408325 -2.2244796752929688
1.6443803310394287 0.48953595757484436 2.6913883686065674
1.6967192888259888 0.4396207332611084 1.058230996131897
0.5684610605239868 1.0234003067016602 0.3452373743057251
-1.2508089542388916 1.0888787508010864 -2.02840518951416
1.3439561128616333 -0.11150763928890228 0.6910361051559448
-1.0051140785217285 -0.21289792656898499 1.9081164598464966
0.5976577997207642 0.8058418035507202 2.7274885177612305
-0.2576921582221985 0.035669758915901184 2.4877986907958984
0.5427051186561584 -0.1410362422466278 -0.14333638548851013
-1.1549664735794067 1.0831654071807861 0.4686487019062042
1.682518482208252 1.0236096382141113 -1.0590165853500366
0.5643407702445984 -0.09222075343132019 -1.1357423067092896
-0.25432369112968445 0.9918761253356934 1.9998360872268677
1.675455093383789 -0.03504741191864014 0.0558246485888958
-1.3416379690170288 0.8978756070137024 -0.43733933568000793
-0.345741868019104 1.067265272140503 -1.2577545642852783
-1.1363847255706787 1.0762320756912231 0.4849638044834137
-0.6380400657653809 0.6858863830566406 2.582566499710083
0.4222574830055237 -0.10377544164657593 -2.443476676940918
0.1160678118467331 1.0445501804351807 -1.808970332145691
-1.0320897102355957 1.0360631942749023 2.020453453063965
-1.045505166053772 1.055701732635498 0.22319059073925018
-1.163766860961914 0.9288110136985779 -2.9250106811523438
0.25400304794311523 -0.06689350306987762 2.5114667415618896
-1.1163917779922485 -0.06929321587085724 -1.3742135763168335
0.05350752919912338 0.9813291430473328 1.3969833850860596
1.6907292604446411 0.3985515832901001 0.24585139751434326
1.1922717094421387 0.4982985854148865 -2.6294219493865967
1.7119193077087402 0.011876076459884644 0.7208946943283081
0.07677032053470612 1.0916285514831543 -2.80570650100708
-1.1130656003952026 0.662040650844574 1.0842080116271973
1.61121666431427 -0.2020464837551117 -2.4171557426452637
-0.8178591728210449 -0.07249170541763306 1.6021510362625122
-0.6151244044303894 1.0279872417449951 -2.105877637863159
-3.0763447284698486e-05 1.0872231721878052 -0.6461248993873596
1.5728545188903809 1.0256013870239258 -1.140990972518921
1.698948621749878 0.6924654841423035 1.3076348304748535
-0.7660190463066101 -0.09862411022186279 -2.0314455032348633
0.08855807036161423 0.69122713804245 -2.7749767303466797
0.438610315322876 -0.09701979905366898 -1.7665719985961914
1.2727643251419067 -0.055250175297260284 -1.6114182472229004
1.6921087503433228 0.5425577163696289 -2.129291296005249
-1.0403399467468262 -0.2210005521774292 0.4133407771587372
-0.7735605835914612 1.0633342266082764 -2.8078417778015137
0.9115869998931885 1.083155870437622 0.008029831573367119
-1.1336846351623535 0.7708422541618347 2.221947193145752
-0.2601097822189331 1.019922137260437 -1.4301422834396362
0.4231405258178711 -0.10166190564632416 -0.4606498181819916
1.723355770111084 0.7711063027381897 1.40337336063385
1.7445119619369507 0.060784436762332916 0.5730135440826416
0.363446444272995 0.9856958389282227 1.2107844352722168
0.9997859001159668 0.9346086978912354 1.438554048538208
-0.6003296971321106 0.8784727454185486 2.548924207687378
1.2250181436538696 1.096627116203308 -0.2318364530801773
-0.3787917196750641 0.3575058877468109 -2.578444480895996
0.2576310336589813 0.13311515748500824 -2.540682315826416
-0.18876218795776367 -0.10682402551174164 -0.3440350890159607
1.5293372869491577 1.0778539180755615 -2.7754573822021484
-0.6482231616973877 -0.19263705611228943 2.1550028324127197
-0.3744143843650818 1.0402544736862183 -1.5489060878753662
1.7589490413665771 0.8206945657730103 -1.102609395980835
-0.2072874903678894 1.0758126974105835 -0.6192163228988647
1.4097599983215332 -0.11315974593162537 0.5201718211174011
0.3977019786834717 1.0663411617279053 0.2754003405570984
1.0510189533233643 -0.10360433906316757 0.04366544261574745
1.173926591873169 0.991100013256073 1.569458246231079
1.3978924751281738 1.0540337562561035 -0.3042832016944885
0.9605112671852112 0.8090890645980835 -2.844938039779663
0.7560122609138489 0.8211920261383057 2.6344118118286133
1.4008471965789795 1.0105140209197998 -1.3142998218536377
0.42537593841552734 -0.13114452362060547 2.042194128036499
1.621834397315979 -0.49811726808547974 2.4012036323547363
1.0602247714996338 0.557953953742981 -2.5757198333740234
1.340386152267456 -0.08635164797306061 -1.3910362720489502
1.7974859476089478 0.8708637952804565 2.908830404281616
0.07252974063158035 1.0382174253463745 -2.164156436920166
1.7613139152526855 0.762560248374939 -2.044672727584839
1.865222692489624 0.9891514778137207 -2.09413480758667
-0.26678505539894104 0.9854486584663391 1.2107027769088745
0.258703351020813 -0.09367948770523071 0.5207703709602356
-1.0571717023849487 -0.17500585317611694 -1.4487930536270142
1.4168195724487305 0.9715617299079895 0.8334332704544067
-0.033597566187381744 -0.09883014857769012 -1.1567994356155396
-0.4427397549152374 -0.08778978139162064 1.3950196504592896
-0.8018922209739685 -0.10312940180301666 -0.8722809553146362
-0.021066516637802124 -0.11368155479431152 0.8811537027359009
0.8686333298683167 -0.13799285888671875 1.1768192052841187
0.7781247496604919 -0.11235320568084717 1.5537452697753906
0.7413237690925598 0.4200785160064697 -2.594350814819336
0.32525843381881714 -0.11164627969264984 -0.0029051636811345816
0.5491094589233398 -0.09427496790885925 -0.0541359968483448
0.159966379404068 1.0996174812316895 -2.8539023399353027
0.934099555015564 -0.08885440230369568 1.6715737581253052
1.1565934419631958 0.9703167676925659 2.6951205730438232
1.7074846029281616 0.6566436290740967 -0.41897597908973694
-1.0137033462524414 0.7998731732368469 -2.2485620975494385
0.47269678115844727 -0.09497955441474915 -2.3689534664154053
1.2995675802230835 0.8805997371673584 -2.857056140899658
1.4521803855895996 1.02678644657135 -1.7163835763931274
0.18747805058956146 1.084519863128662 -0.5855047702789307
1.7805097103118896 0.8675694465637207 0.9629915356636047
0.9718309640884399 1.090278148651123 -0.3548946976661682
1.3830076456069946 1.0029933452606201 1.349198341369629
-0.7278152108192444 -0.07953555881977081 1.7011421918869019
1.7209960222244263 1.0390350818634033 1.3287632465362549
-0.4275643527507782 -0.07970413565635681 2.4602487087249756
0.6877378821372986 0.827769935131073 -2.8698766231536865
1.342587947845459 1.0153138637542725 -1.9251301288604736
1.0963263511657715 0.9744001626968384 1.3430538177490234
1.6824769973754883 1.0092366933822632 2.406735897064209
-1.0248936414718628 -0.20842045545578003 1.5879682302474976
-1.3355695009231567 1.0585273504257202 -2.7507951259613037
1.4414587020874023 -0.4367843270301819 -2.0612471103668213
-0.3742389678955078 1.0274221897125244 -2.8832616806030273
-1.075174331665039 -0.11596724390983582 -0.8811247944831848
1.3169825077056885 -0.4743182361125946 2.0760388374328613
0.992087185382843 -0.10061439871788025 -1.636755347251892
0.6919037103652954 1.0998218059539795 -0.21548068523406982
0.4371962547302246 0.9351902604103088 1.897660493850708
-1.1041953563690186 0.5713678598403931 -1.9907764196395874
-0.9325917959213257 0.4737030863761902 2.51318097114563
0.6227213144302368 0.9995863437652588 0.17059795558452606
1.6798983812332153 1.0558589696884155 -0.5728824138641357
0.8356329202651978 -0.1272478699684143 2.2633657455444336
-0.44695228338241577 1.0123112201690674 -1.448349952697754
0.13232329487800598 0.1803116500377655 -2.5266709327697754
1.5297272205352783 0.9907556772232056 1.2768386602401733
1.7020519971847534 0.2190600335597992 1.807294487953186
1.4089373350143433 -0.4301946759223938 -2.4145328998565674
1.693934679031372 0.43881505727767944 1.0830901861190796
-0.7001619935035706 -0.3395061492919922 2.180263042449951
0.13697057962417603 0.6509047150611877 2.6374781131744385
-0.002905808389186859 0.995579719543457 1.1693402528762817
-1.0770573616027832 0.5726785659790039 0.39741796255111694
-0.625868022441864 -0.08590754866600037 -0.7384840846061707
1.7994811534881592 0.4855928421020508 0.4894067645072937
0.5194198489189148 0.9622477293014526 2.027017831802368
1.8528493642807007 0.8364107012748718 2.287649154663086
-1.0995533466339111 0.7182995080947876 -1.8518157005310059
-0.5390011072158813 -0.09604085981845856 -1.179271936416626
1.6275449991226196 -0.1290249228477478 0.5390299558639526
0.9678270816802979 0.3632279634475708 2.551219940185547
0.11978547275066376 -0.10297839343547821 1.1845961809158325
1.7150049209594727 0.48702937364578247 -0.6020068526268005
1.3859672546386719 -0.1558550000190735 -1.9943841695785522
-0.402706503868103 1.0413382053375244 -0.7726255059242249
1.677939772605896 0.25945284962654114 2.4304802417755127
-0.8198710680007935 1.0108720064163208 1.0103418827056885
-1.0588363409042358 0.785466194152832 0.07127409428358078
1.5916424989700317 0.9993535280227661 1.0446991920471191
-0.45847249031066895 0.9959638118743896 1.3841787576675415
-0.18454807996749878 -0.09842101484537125 0.8332138061523438
0.033497121185064316 1.0771597623825073 2.773300886154175
1.650729775428772 0.6285176277160645 2.6432042121887207
0.6230258941650391 1.0119924545288086 2.8331007957458496
-0.468178391456604 1.0165741443634033 1.7055176496505737
1.4720195531845093 0.9704869985580444 2.2533745765686035
0.47726890444755554 0.9936192035675049 1.0635637044906616
-0.007901772856712341 -0.0846242904663086 1.144059419631958
0.978833794593811 1.0889889001846313 -0.09747502952814102
-0.7395848035812378 1.0200833082199097 2.1946582794189453
0.801367461681366 0.9517978429794312 2.9144465923309326
1.6636091470718384 1.025427222251892 1.9573760032653809
0.27918195724487305 -0.11908137798309326 -2.4325807094573975
1.5696665048599243 0.1227337121963501 -2.561161518096924
1.4256081581115723 1.054648756980896 -2.7448158264160156
-0.2134678065776825 1.0248440504074097 0.7380319237709045
0.7511955499649048 -0.09911283105611801 -0.281610369682312
-0.7217092514038086 1.0380275249481201 0.11119423061609268
-0.2734982669353485 1.0013787746429443 1.0645605325698853
1.2513444423675537 0.9419621825218201 2.244354724884033
0.891721785068512 0.9104605913162231 2.1866567134857178
-0.7790454626083374 0.9717257022857666 1.5118279457092285
1.1147606372833252 -0.04652661085128784 -1.887414813041687
-0.5376821160316467 1.0489706993103027 -2.229095458984375
-1.0717415809631348 0.8209216594696045 -2.404019594192505
1.619256854057312 0.7615616917610168 2.449773073196411
-1.4163684844970703 0.8799915313720703 2.308181047439575
1.7486653327941895 0.8393328785896301 1.4543371200561523
1.6247893571853638 0.9679389595985413 2.6210668087005615
-0.9120098352432251 -0.18305376172065735 0.3841541111469269
1.8502748012542725 0.9326457381248474 0.9709093570709229
-1.1047500371932983 0.6096238493919373 -1.2802371978759766
-0.4742749035358429 1.0025289058685303 -1.5895519256591797
1.1534819602966309 0.30129343271255493 -2.587589979171753
-1.0897189378738403 1.0971958637237549 -0.5596866011619568
1.1491862535476685 -0.11194847524166107 0.6789906024932861
-0.765651524066925 0.03329699486494064 1.0802793502807617
1.012968897819519 -0.11782453954219818 1.5804035663604736
0.34395450353622437 0.9535770416259766 1.7051993608474731
-0.2166154980659485 1.0141396522521973 0.8010687828063965
0.95779949426651 1.0526964664459229 -1.7041261196136475
-0.28010353446006775 1.0565643310546875 0.07986313104629517
1.6792281866073608 0.21597132086753845 2.0654592514038086
1.871626377105713 0.9449623227119446 -2.415564775466919
0.7005801200866699 -0.09976263344287872 -0.9769793748855591
-1.1055513620376587 0.27644550800323486 2.313729763031006
1.864288091659546 0.8491402864456177 -1.9146268367767334
1.6737217903137207 1.0124238729476929 0.46511760354042053
-1.3304909467697144 0.9350637197494507 1.0184180736541748
1.6562633514404297 0.14605337381362915 -2.2793121337890625
-1.0389158725738525 0.7625399827957153 0.22719641029834747
0.9034157991409302 -0.11722135543823242 0.5470221638679504
-1.204222559928894 1.0280342102050781 1.218371033668518
1.6848434209823608 1.0714499950408936 -2.586848735809326
-1.2301356792449951 1.0415650606155396 1.8708350658416748
1.5563582181930542 -0.15606990456581116 0.8996103405952454
1.7975660562515259 0.23250769078731537 0.372261106967926
-0.8152607679367065 0.43315327167510986 -2.5735321044921875
0.9821392297744751 0.9860508441925049 -0.5194290280342102
0.10125015676021576 1.0053763389587402 1.1346875429153442
-0.4693876802921295 0.7014433145523071 -2.794340133666992
0.7346034049987793 0.10660529881715775 -2.5523922443389893
-0.5270109176635742 0.7945995926856995 2.683136224746704
1.5095709562301636 -0.11916625499725342 -0.7047169804573059
-0.7755770683288574 -0.0839533656835556 0.7848280668258667
-0.9644269943237305 0.8030899167060852 2.8335518836975098
-1.1759499311447144 0.8240621089935303 1.0525596141815186
0.6736279726028442 -0.09870443493127823 0.7938039302825928
-1.0863386392593384 0.5572690963745117 0.9095228910446167
1.863492488861084 0.9807935953140259 2.537261962890625
-0.6860091686248779 -0.0947723463177681 -1.8661792278289795
1.8465266227722168 0.9738461971282959 -1.243342638015747
0.5994650721549988 0.9988619089126587 2.7932801246643066
-1.2950046062469482 1.0593490600585938 -1.6946632862091064
1.6847381591796875 0.0068237632513046265 -1.7945276498794556
1.1481473445892334 -0.08633330464363098 -2.129016160964966
0.6345429420471191 -0.10304386168718338 0.5675033330917358
-0.04611112177371979 -0.094648078083992 -0.5305607914924622
1.7274324893951416 0.7840920686721802 -2.0819156169891357
0.8145445585250854 1.0444563627243042 -0.8837010860443115
1.1106857061386108 1.0915234088897705 0.0602041594684124
1.7307950258255005 0.7375890016555786 -1.9853456020355225
-0.8392794132232666 -0.05409511923789978 0.32770973443984985
1.6259692907333374 -0.09121190011501312 -2.490277051925659
1.665616750717163 -0.051121100783348083 -2.414956569671631
0.7205721139907837 0.7570536732673645 -2.772721290588379
0.28990638256073 -0.09807181358337402 -1.7436378002166748
-0.600538432598114 1.0089969635009766 0.6792982220649719
-1.3525161743164062 0.9462931156158447 -2.4702866077423096
0.3477957546710968 0.7822493314743042 2.7328102588653564
1.6019445657730103 0.9609737396240234 2.906714677810669
-1.0892865657806396 -0.20607134699821472 1.5917530059814453
1.7074449062347412 0.18167553842067719 -0.8582826256752014
-0.19767512381076813 -0.1168433427810669 1.4091796875
0.2957957983016968 0.8749918937683105 2.8844869136810303
-0.12229834496974945 -0.10806125402450562 -0.36126407980918884
1.8200230598449707 1.04922616481781 -2.3110098838806152
1.8459646701812744 0.9904439449310303 -1.30232834815979
1.1060010194778442 -0.10338126122951508 -1.5088609457015991
-0.008845541626214981 -0.1332775056362152 0.4163254201412201
1.5020546913146973 -0.16326358914375305 0.5845438241958618
0.2699742019176483 1.0175212621688843 -0.9387235641479492
0.7611660957336426 -0.06869050860404968 -2.053452253341675
-0.010138645768165588 1.0226325988769531 -2.3082566261291504
0.6383346915245056 -0.11461389064788818 0.8977212905883789
0.3504314124584198 1.0969270467758179 -0.7067977786064148
1.058112382888794 0.27860957384109497 -2.583176374435425
-1.3498950004577637 1.0199732780456543 2.38179349899292
-1.0596389770507812 0.8443261981010437 1.0409327745437622
1.698065161705017 0.5257606506347656 0.26517409086227417
0.6291975975036621 1.0428109169006348 0.41898471117019653
-0.8797506093978882 0.5335693359375 2.5400025844573975
-0.2466520071029663 0.7853766083717346 2.585106611251831
1.8486248254776 0.848016083240509 -2.5122644901275635
1.372259497642517 0.7628867030143738 2.788097858428955
1.0701638460159302 1.0419447422027588 0.013955438509583473
-0.8732370138168335 0.8183733224868774 -2.892920732498169
0.3999536633491516 -0.07878527045249939 0.8371938467025757
-1.06620192527771 0.5797438025474548 -0.625706136226654
1.7891747951507568 1.0129401683807373 0.5129716396331787
0.4139820635318756 -0.05743668973445892 -2.1933233737945557
-0.7756856083869934 0.10331560671329498 -2.53912091255188
-1.120851993560791 0.3157166838645935 1.921172857284546
-1.1287330389022827 0.0823184922337532 1.7053403854370117
0.8940665125846863 1.055578589439392 -2.0574533939361572
0.8083867430686951 -0.10884007811546326 0.36206966638565063
-0.004003271460533142 -0.10414473712444305 1.6819422245025635
1.6914596557617188 0.3687622547149658 1.1829863786697388
-0.02518528699874878 -0.07472260296344757 -2.2167344093322754
0.8353763222694397 0.7639639377593994 2.8144891262054443
0.930334746837616 0.6434154510498047 2.6078948974609375
0.6106680035591125 1.0409812927246094 -2.87619686126709
1.701216220855713 0.21206511557102203 -1.2232673168182373
-1.1266601085662842 0.4810958206653595 -0.03105832077562809
-0.9341915845870972 -0.19681742787361145 0.7767531871795654
1.834348201751709 0.8376103639602661 -2.0203945636749268
0.6751445531845093 1.0071065425872803 -2.883317232131958
0.9126079678535461 -0.11084906756877899 -0.5529629588127136
-1.2487294673919678 0.8689804077148438 -1.6359578371047974
-1.1482397317886353 0.8600013852119446 2.550410032272339
1.0810110569000244 -0.10088926553726196 -0.963931679725647
1.8661054372787476 0.9409716129302979 2.624736785888672
-0.33788353204727173 -0.10669051110744476 -1.198913812637329
1.6648263931274414 0.16460151970386505 -2.2798988819122314
1.6967116594314575 0.7518529891967773 -1.2620614767074585
1.8765273094177246 0.8925638198852539 -2.38790225982666
0.3455921411514282 0.979567289352417 2.374688148498535
0.3383257985115051 1.0109891891479492 -2.8969032764434814
1.5883965492248535 1.0316826105117798 -0.006574172060936689
-0.497734934091568 0.9603187441825867 -2.909604787826538
0.32495003938674927 1.038537621498108 2.7293052673339844
0.11564108729362488 1.0795481204986572 -0.26995089650154114
1.8024271726608276 0.8965439796447754 -0.795329749584198
-1.08553946018219 0.40429383516311646 0.43887069821357727
0.5212916731834412 0.983455240726471 2.477924346923828
1.7819328308105469 1.0099289417266846 1.541981816291809
-0.8968828916549683 -0.34886595606803894 2.3923676013946533
-1.2775464057922363 1.0678480863571167 -1.8228909969329834
-1.124116063117981 0.7895721197128296 1.4216387271881104
0.5290850400924683 0.9413148760795593 1.5448163747787476
0.008049745112657547 1.0138856172561646 -1.6714693307876587
-1.2112975120544434 0.9262471199035645 -1.97550368309021
-1.328650712966919 1.0154508352279663 2.732481002807617
-1.1193959712982178 0.9047660827636719 -0.6686373353004456
-0.039012134075164795 -0.12617376446723938 2.283233642578125
-1.1322431564331055 0.8463342189788818 -1.8274668455123901
1.7543147802352905 0.692861795425415 1.9507986307144165
-0.9367805123329163 1.0514394044876099 0.7053454518318176
-1.1073957681655884 0.02690461277961731 -0.8492228388786316
0.7156418561935425 0.995405375957489 -1.5478894710540771
-1.1387776136398315 0.08294589817523956 1.9796339273452759
-0.6441831588745117 -0.09867720305919647 -1.6716810464859009
-0.726307213306427 1.1112085580825806 2.8860809803009033
-0.11380475759506226 -0.10639843344688416 -1.1847647428512573
-1.1701123714447021 0.023226439952850342 2.2813031673431396
1.6942905187606812 0.31520020961761475 1.5130680799484253
1.223797082901001 -0.13869167864322662 2.5131025314331055
-0.08763586729764938 -0.08510397374629974 -1.4963256120681763
0.5759513974189758 0.6991395354270935 2.6440396308898926
0.23408544063568115 -0.09367544949054718 -1.4001721143722534
1.8601654767990112 1.0291996002197266 -2.0373623371124268
-0.5762444138526917 -0.1021827980875969 0.4217292070388794
-0.7062592506408691 1.0721598863601685 -0.004561041481792927
1.2538172006607056 1.048545002937317 -0.4816349446773529
0.5901322364807129 -0.10827771574258804 1.7212716341018677
-0.9582215547561646 -0.1869485080242157 1.8019741773605347
-0.12249411642551422 0.3107203245162964 2.5272727012634277
-0.859303891658783 0.9997239708900452 1.1046783924102783
-0.6622370481491089 0.9736723899841309 1.1814959049224854
0.9968841075897217 -0.08401262015104294 0.0502423420548439
1.317673921585083 -0.11627687513828278 1.18888258934021
-0.6758801937103271 -0.03985042870044708 2.411885976791382
-1.0549670457839966 0.6573246717453003 -0.5100400447845459
1.8529319763183594 1.0298058986663818 -0.21941815316677094
1.772409200668335 0.8817206025123596 -0.641679584980011
0.7918399572372437 0.2618582844734192 -2.582728862762451
-1.302402138710022 0.8626862168312073 -1.6293390989303589
-1.1092677116394043 0.741896390914917 1.2027342319488525
0.05380520224571228 1.023658275604248 -1.9704604148864746
1.3090423345565796 -0.1298123151063919 -2.2781243324279785
0.7979017496109009 -0.1169198751449585 1.887736201286316
-1.03437077999115 0.6507939100265503 0.4186033606529236
1.691060185432434 -0.2075466364622116 2.324246406555176
1.2484996318817139 1.0686312913894653 0.00024880655109882355
-1.038738489151001 1.0775237083435059 -2.2643160820007324
-0.688339114189148 1.0187028646469116 2.2238569259643555
-1.1065361499786377 0.42892637848854065 -2.2472686767578125
-1.1168240308761597 -0.10996043682098389 -0.41423749923706055
0.606918454170227 -0.10855270177125931 1.289939284324646
-0.2815859317779541 0.15359795093536377 -2.548849582672119
-0.9514877200126648 0.9510877728462219 -2.4497151374816895
0.18169079720973969 1.0046948194503784 2.498168468475342
1.2753978967666626 0.07002818584442139 2.510157346725464
-0.46645551919937134 -0.10225021839141846 -1.4546890258789062
-0.8525930047035217 -0.4018487334251404 -2.12565541267395
1.3806029558181763 -0.09422169625759125 -0.8702971935272217
0.5303714871406555 0.827806293964386 2.751520872116089
1.8208304643630981 0.25406453013420105 1.0501893758773804
0.7454582452774048 -0.10533805191516876 -0.5126262903213501
0.874617338180542 1.0761635303497314 -0.7032414674758911
1.7070022821426392 0.16926653683185577 2.2369282245635986
1.7244702577590942 1.0565623044967651 2.0939347743988037
-0.9748180508613586 0.9954025745391846 1.2270551919937134
1.670139193534851 -0.030690252780914307 -0.2195574790239334
1.6592804193496704 0.1323433518409729 -2.3306527137756348
-0.42635756731033325 1.0330479145050049 -2.3637006282806396
1.8405582904815674 0.812645435333252 0.31944739818573
-0.9761451482772827 -0.4366499185562134 -2.3639256954193115
1.6093671321868896 0.01830640435218811 2.5199027061462402
0.5999835729598999 0.9895153641700745 -2.8981897830963135
1.2141388654708862 1.0463337898254395 -0.6859004497528076
-0.4604824483394623 0.9147714972496033 -2.884188175201416
0.7170409560203552 -0.10373470187187195 -0.9151259064674377
0.8566582798957825 1.007845401763916 0.2988819479942322
1.7027100324630737 0.4913790225982666 2.2619171142578125
1.3945159912109375 0.9887647032737732 2.8025436401367188
-0.4968760013580322 0.9982854723930359 1.2503677606582642
-1.3120810985565186 1.047426462173462 -1.813461422920227
1.1127203702926636 1.0799944400787354 -0.14122943580150604
-1.0560522079467773 0.7746065855026245 -0.5859183669090271
-0.16829341650009155 1.0471582412719727 -2.055110454559326
-0.8569349646568298 1.0014222860336304 1.7039027214050293
0.5424517393112183 0.4715498685836792 2.593536138534546
-0.541623055934906 1.0005791187286377 1.4300990104675293
-1.1086732149124146 0.8999943733215332 0.3595602214336395
0.08076456189155579 1.065642237663269 0.21816450357437134
-0.3737606704235077 1.0462576150894165 0.7843017578125
1.485576868057251 -0.12952208518981934 -1.298143982887268
0.8159186244010925 0.3943313658237457 2.553659200668335
1.7389360666275024 0.2287808358669281 -1.4015196561813354
0.23881730437278748 1.0847800970077515 -0.5973899364471436
-1.1935205459594727 1.0599415302276611 0.8578930497169495
1.6944788694381714 0.22790329158306122 -0.3179508447647095
-1.1549333333969116 0.8494494557380676 0.19707657396793365
-0.9062735438346863 1.0486676692962646 -2.7569918632507324
-1.107203722000122 0.08651313930749893 -0.9174166917800903
1.0332303047180176 1.1043469905853271 -0.2587358057498932
1.503438115119934 0.31616559624671936 -2.62146258354187
-1.2137610912322998 1.0930674076080322 -0.15791678428649902
-0.15466177463531494 -0.10431942343711853 -2.4296765327453613
-1.3444308042526245 0.9241054058074951 -0.46555784344673157
1.8341821432113647 0.9669023752212524 1.0930637121200562
1.5392078161239624 -0.12585893273353577 -0.5058092474937439
-0.3267400562763214 -0.08234378695487976 -1.2317701578140259
1.765917420387268 0.8180517554283142 -1.0301527976989746
0.3278735876083374 0.9955364465713501 -1.4049170017242432
-1.0932410955429077 0.5987740159034729 1.5073091983795166
1.6782407760620117 0.3558734655380249 -2.102698802947998
-1.0326308012008667 -0.21929460763931274 1.4264448881149292
-0.9204843044281006 -0.24165168404579163 -2.442786931991577
-1.3371988534927368 1.0474848747253418 -2.1099579334259033
1.375687837600708 -0.10340002179145813 -0.7863324284553528
-0.1342810094356537 1.0014369487762451 1.4429147243499756
-0.5813450813293457 1.0488662719726562 -1.9040452241897583
-0.4532344937324524 -0.12203255295753479 -0.2300373762845993
-1.2658352851867676 1.040165662765503 2.0725607872009277
-1.103798508644104 -0.0770072489976883 -0.0724080428481102
1.8577985763549805 0.8897997140884399 2.0368831157684326
-0.1730576902627945 1.0295414924621582 -2.024984359741211
1.6311964988708496 0.03074854612350464 -2.5220232009887695
1.8119330406188965 0.8726131319999695 0.5191875696182251
0.5840749144554138 0.9274585247039795 2.2536027431488037
0.44410067796707153 1.0643184185028076 0.010819286108016968
-0.5529422163963318 1.0151170492172241 -2.753622531890869
0.7116678357124329 -0.14245206117630005 2.462721824645996
1.7078453302383423 0.5530940890312195 1.8641729354858398
0.5122033357620239 -0.09804335981607437 -1.2543946504592896
1.0153244733810425 0.6206488609313965 -2.674809217453003
-0.4086683392524719 1.0257329940795898 1.6944392919540405
1.6406270265579224 -0.05345168709754944 -2.485565185546875
1.5798839330673218 1.0043516159057617 -2.9046154022216797
0.6342169642448425 0.13725432753562927 2.5250422954559326
-0.853331446647644 0.6920545101165771 2.5211708545684814
1.6462810039520264 0.9446919560432434 -0.20739075541496277
0.10637782514095306 1.0918703079223633 -0.35127830505371094
-0.47309884428977966 -0.10801072418689728 -0.1134415790438652
-1.0876858234405518 0.3434958755970001 2.1056721210479736
-1.2838609218597412 0.9215742349624634 0.9285101890563965
1.2038376331329346 -0.10667206346988678 -0.0677456334233284
-1.1092898845672607 0.12328653782606125 -1.67661714553833
1.6232144832611084 0.921513557434082 2.9319956302642822
0.9840417504310608 0.09589671343564987 2.515183448791504
1.0372005701065063 1.0087738037109375 0.1329539567232132
0.025736767798662186 -0.0553717166185379 -2.511509418487549
-0.4972597360610962 -0.0640638917684555 -1.573188066482544
-1.115735650062561 0.11873284727334976 1.3394043445587158
0.03178638219833374 1.006066083908081 2.368241786956787
1.7855570316314697 0.2774505019187927 0.34451499581336975
-0.36616092920303345 1.0090487003326416 -2.675126791000366
1.3521977663040161 -0.0885111391544342 2.5357348918914795
-0.13124489784240723 0.772259533405304 2.8071861267089844
1.7752152681350708 0.5267508625984192 0.31950733065605164
-1.1927080154418945 0.9114553928375244 -1.4703103303909302
-0.10429228842258453 -0.10305735468864441 -0.7340616583824158
1.7104042768478394 0.05728287249803543 -0.5349634289741516
0.5749930143356323 -0.10909918695688248 1.9978740215301514
-0.3664785921573639 -0.0655209869146347 1.7923322916030884
1.4835392236709595 0.29489830136299133 2.5313408374786377
0.1946192979812622 1.0150257349014282 -2.1529412269592285
0.1315789520740509 -0.11928248405456543 1.4264088869094849
1.6291838884353638 -0.10733161866664886 -2.239097833633423
0.028852682560682297 0.9890134334564209 -2.9152679443359375
1.6988180875778198 0.5942174196243286 -0.5380146503448486
-0.3235623836517334 -0.1044790968298912 0.5545235872268677
0.37352919578552246 -0.10693585872650146 1.9088187217712402
-1.4158966541290283 0.9252958297729492 -0.9349941611289978
1.7619236707687378 1.0309803485870361 1.2919710874557495
0.2857854962348938 -0.12009033560752869 0.9955316185951233
1.7691460847854614 0.18784525990486145 0.5194813013076782
1.691368579864502 0.019811198115348816 -0.48806408047676086
-1.2655013799667358 1.0303702354431152 2.0859928131103516
0.0573820024728775 0.12673133611679077 -2.5371134281158447
0.9004705548286438 -0.11087309569120407 1.6611765623092651
0.7245544195175171 1.0733270645141602 -2.2711126804351807
0.23696750402450562 1.050092101097107 -0.8954012393951416
0.8048595190048218 -0.04887905716896057 -2.537008762359619
0.7691497206687927 1.0000040531158447 0.6869257092475891
-0.9374778866767883 -0.17387911677360535 1.9288020133972168
0.4909181296825409 -0.10226709395647049 -0.030057381838560104
-1.069908618927002 0.497447669506073 -0.5299352407455444
0.9832774996757507 1.0116955041885376 -2.8763930797576904
-0.07047475874423981 -0.09557196497917175 -0.050787121057510376
-0.3456401526927948 0.9784239530563354 -0.8352800607681274
1.7156935930252075 0.482125461101532 2.048983573913574
0.7732719779014587 -0.11805407702922821 2.2866382598876953
-1.0350886583328247 -0.14365032315254211 -0.41442134976387024
-1.094111680984497 -0.10346922278404236 -0.7347638010978699
0.5628613829612732 -0.08722726255655289 0.8607300519943237
-0.7871803045272827 -0.09734056144952774 0.11475526541471481
-0.4707866311073303 1.1182339191436768 2.8833529949188232
-1.3447654247283936 1.0496861934661865 -2.0423364639282227
1.3350780010223389 0.9583767652511597 2.353466510772705
1.7294484376907349 0.20754913985729218 0.510096549987793
0.40001094341278076 0.9905924797058105 -1.732286810874939
-0.4228553771972656 0.9846458435058594 2.534423828125
1.6946561336517334 0.5465151071548462 -0.15722618997097015
-1.1120401620864868 -0.03131832182407379 1.0960233211517334
1.0665738582611084 0.9948659539222717 0.35682106018066406
0.21116432547569275 0.9974092245101929 2.5795068740844727
0.02881377749145031 -0.0830869972705841 -1.6910871267318726
-0.1728433221578598 -0.06960993260145187 -2.232961654663086
1.7706894874572754 1.0228058099746704 -1.2898037433624268
-1.0726382732391357 0.7870376110076904 0.5501201748847961
-1.0926258563995361 0.8391215205192566 -2.4475762844085693
-0.7432196140289307 1.0018850564956665 1.938955545425415
-0.24167566001415253 1.0427472591400146 2.860499382019043
0.3087308406829834 0.009714305400848389 2.442169427871704
0.25924861431121826 0.04665657877922058 -2.5284199714660645
-0.42157500982284546 -0.03681927174329758 2.0535593032836914
-0.8309431076049805 -0.17019352316856384 -2.416804075241089
0.6684660911560059 1.044728398323059 0.16976924240589142
-1.0902327299118042 0.6063613891601562 0.9980326294898987
1.3177865743637085 1.06179940700531 -0.5862374901771545
1.6025478839874268 0.9881994724273682 2.47454833984375
1.4180563688278198 -0.10240448266267776 -0.08623038232326508
0.797600269317627 1.0926192998886108 -0.149032860994339
0.26682475209236145 0.836532711982727 2.83559513092041
-0.18497902154922485 -0.06094369292259216 -2.2688448429107666
1.3055847883224487 -0.11179707944393158 0.7505982518196106
1.2949604988098145 0.9843926429748535 1.8982939720153809
-0.11746642738580704 0.036623552441596985 -2.529080390930176
-1.0988729000091553 0.4730636477470398 1.7083088159561157
1.7225465774536133 0.8175463676452637 -1.7261056900024414
-0.8151149153709412 -0.040891289710998535 1.8625596761703491
0.6487663984298706 1.0529510974884033 -1.6505112648010254
-0.8892462849617004 -0.11145511269569397 1.8042869567871094
1.4211885929107666 1.0600239038467407 -0.21796362102031708
1.3980220556259155 1.0114762783050537 -1.1280783414840698
1.5695648193359375 1.0020434856414795 2.2601399421691895
-0.02513539046049118 0.9997193217277527 2.371049642562866
1.7095797061920166 0.3111838400363922 2.1628494262695312
1.5824826955795288 1.0060070753097534 0.4404510259628296
1.232147216796875 -0.11882700026035309 0.9230745434761047
0.37996456027030945 -0.10513035953044891 -0.3224461078643799
-0.6449882984161377 0.8599368333816528 2.552436113357544
-1.4009594917297363 0.9085593223571777 -2.8957557678222656
1.0568586587905884 0.9471145868301392 2.050269842147827
1.6135296821594238 1.0066214799880981 2.7673213481903076
-0.37890636920928955 1.0007095336914062 1.096090316772461
-0.35908210277557373 1.0931494235992432 -0.401041179895401
0.11318501830101013 1.0769987106323242 -0.5825732350349426
-0.13731101155281067 -0.09680591523647308 -1.8332895040512085
1.1109017133712769 -0.11762687563896179 1.1195441484451294
-0.15874451398849487 1.0357662439346313 2.677659034729004
1.7038991451263428 -0.028928101062774658 -0.7796958684921265
1.682959794998169 1.0097440481185913 0.39353668689727783
1.0762054920196533 -0.08659584075212479 -1.4317158460617065
1.69446861743927 0.24933232367038727 0.21171876788139343
1.2535462379455566 -0.18292582035064697 1.9073578119277954
1.6942161321640015 0.2946419417858124 -0.31882455945014954
0.44263651967048645 -0.0689375102519989 -0.11510946601629257
1.5267949104309082 0.0093364417552948 2.4413695335388184
1.693956732749939 0.6893848180770874 -1.6103860139846802
1.8395674228668213 1.0471543073654175 -0.1375087946653366
-0.25015100836753845 1.0846726894378662 -0.5621585845947266
-0.4007183313369751 0.7087171077728271 -2.846656560897827
0.6371170878410339 0.938099205493927 1.3840726613998413
1.853023648262024 0.9977418780326843 -2.011934518814087
1.7090468406677246 0.036636367440223694 1.2317451238632202
1.514172911643982 0.04681582748889923 2.5344936847686768
-0.6592720746994019 -0.10042883455753326 0.907200038433075
-1.0420721769332886 0.794048547744751 -0.6434035301208496
-1.3726813793182373 1.0198687314987183 -0.3705327808856964
