ply
format ascii 1.0
element vertex 821
property float x
property float y
property float z
end_header
0.2310827672481537 0.7522517442703247 1.8812506198883057
0.19223110377788544 0.21324488520622253 -1.2180194854736328
-0.22996847331523895 1.1739122867584229 -0.3519745171070099
-0.4280640184879303 0.9964230060577393 -1.8101085424423218
0.1274612545967102 1.2863234281539917 -1.7187443971633911
-0.11711715906858444 -0.009014174342155457 2.0695993900299072
-0.5806179046630859 0.15133792161941528 -2.739009380340576
-0.3211573660373688 -0.09540696442127228 -2.4386515617370605
0.17015227675437927 0.20893973112106323 1.8519641160964966
1.7163056135177612 0.8718827962875366 2.1288273334503174
-1.3743934631347656 0.49339962005615234 2.9363644123077393
-0.5605669617652893 0.7880850434303284 2.843905210494995
0.18683896958827972 1.2433886528015137 2.3231887817382812
-1.0732059478759766 0.6025853753089905 -1.8949507474899292
-0.17209941148757935 0.8505318760871887 1.4334505796432495
0.380266398191452 0.5482147336006165 2.1706697940826416
0.6677001118659973 0.8067190051078796 -2.3893885612487793
-0.8963257074356079 1.2965527772903442 -0.18379971385002136
0.3798748254776001 0.5637072324752808 -1.6660957336425781
0.5241180062294006 0.23622910678386688 -1.075935959815979
-1.0474226474761963 1.2208112478256226 -1.0544613599777222
-0.8641780614852905 0.974707305431366 -1.084994912147522
-0.3351513147354126 0.9406195282936096 -3.2067208290100098
0.9473638534545898 1.3071479797363281 2.832810163497925
0.9488872289657593 0.1541454941034317 -1.5800817012786865
-0.9492159485816956 0.2956477403640747 1.832700490951538
-0.811636745929718 1.186615228652954 2.95894718170166
1.4907290935516357 0.7147243022918701 1.2713109254837036
-1.2902255058288574 -0.5331587791442871 -2.638406276702881
-1.001943588256836 -0.4449835419654846 -2.2480695247650146
-0.6288501024246216 0.5608812570571899 -2.517102003097534
0.6646109819412231 0.679317831993103 -0.4571055769920349
-1.3450485467910767 0.846811056137085 -0.6030187606811523
0.8883293867111206 -0.027145475149154663 0.38485923409461975
-0.5314362049102783 -0.029048621654510498 -3.0836429595947266
-0.7708516716957092 0.580329418182373 -1.4481639862060547
0.9439298510551453 0.8602527379989624 -3.061424493789673
-0.29200679063796997 1.1941230297088623 -2.348923921585083
1.5840880870819092 0.02902434766292572 1.2146546840667725
0.22440098226070404 1.4416769742965698 2.918825387954712
-0.3773801326751709 1.5269404649734497 -1.4661154747009277
-0.03519035875797272 1.2278001308441162 0.4203486144542694
-0.2414228618144989 1.4802478551864624 -3.308669328689575
0.7887835502624512 0.1652146428823471 -0.3663501441478729
0.44984227418899536 0.01644657552242279 0.19592750072479248
0.6484851241111755 0.9146239161491394 -1.8111318349838257
1.0576318502426147 0.8130658864974976 0.7286590337753296
0.2783631384372711 -0.3273431658744812 -1.7861273288726807
0.5565760135650635 -0.2847648859024048 1.9505547285079956
-0.5548003911972046 1.3025338649749756 -3.204524040222168
0.39951589703559875 -0.18256798386573792 -1.4622036218643188
0.1831691712141037 -0.36626604199409485 -2.477496385574341
0.3384284973144531 -0.4264776110649109 -3.2189078330993652
0.5033881068229675 0.2942546606063843 0.7850783467292786
-0.439581960439682 0.45246970653533936 0.8346521258354187
-0.30140021443367004 0.954595148563385 -1.6508574485778809
0.26291462779045105 1.387088418006897 2.5109143257141113
-0.9216252565383911 0.7114453911781311 -0.9676304459571838
0.7754810452461243 0.23628759384155273 -0.13537241518497467
-0.5333262085914612 -0.5609887838363647 2.371824026107788
-0.6391505599021912 1.0570672750473022 0.6946378946304321
-1.0665351152420044 0.6214540004730225 -2.166048765182495
1.6475327014923096 -0.12431506812572479 2.8385632038116455
-0.6590421199798584 0.40167853236198425 -2.4556524753570557
-0.03923778980970383 0.7665484547615051 -3.1632940769195557
0.2846229672431946 0.9909458756446838 -1.777831792831421
-0.37675613164901733 -0.27775052189826965 -1.6538596153259277
-0.4300616681575775 0.8873078227043152 -2.563023805618286
-0.7755031585693359 1.3363821506500244 -1.7892837524414062
-0.030373945832252502 1.3042320013046265 -1.9707272052764893
-0.8582586646080017 1.4581639766693115 -1.5341904163360596
-0.4232979714870453 0.728971004486084 -1.0951266288757324
-0.28689855337142944 0.18824492394924164 -2.490511655807495
-0.111423060297966 1.2514796257019043 -2.267335891723633
-0.5834351778030396 1.5325918197631836 2.5629143714904785
0.2968719005584717 1.1028236150741577 -3.056255578994751
-0.5686684846878052 0.9107948541641235 -0.6246042847633362
-0.12666001915931702 1.3430991172790527 0.57795250415802
-0.0522707998752594 0.8716865181922913 -1.3480216264724731
1.0566949844360352 0.5561315417289734 1.0621954202651978
0.7823066115379333 -0.1366497129201889 -2.7335500717163086
1.3404295444488525 0.2534438669681549 -2.46826171875
0.08172595500946045 0.21241909265518188 -0.49679070711135864
0.9545326828956604 0.5664380788803101 1.044804573059082
0.520758330821991 0.9530415534973145 3.0312845706939697
-0.7298968434333801 0.8435280323028564 -3.481455087661743
0.6667710542678833 0.15365110337734222 1.731133222579956
1.5652638673782349 -0.11758926510810852 -3.066690444946289
0.560201108455658 -0.11879044771194458 -2.0344655513763428
0.0753445252776146 -0.002152368426322937 2.0360958576202393
0.284606397151947 1.2610206604003906 -1.2860127687454224
0.07700243592262268 0.9411342144012451 -0.3737276494503021
1.0371901988983154 0.4284866154193878 -2.1720917224884033
-0.605545699596405 0.8248010873794556 0.960018515586853
0.9046701192855835 0.24275706708431244 0.2589201331138611
1.5683320760726929 0.16143780946731567 -2.2192609310150146
-0.38654208183288574 0.9979475140571594 -0.3138597011566162
-0.6866759657859802 0.034334465861320496 -2.764650344848633
0.38353025913238525 0.5695937871932983 -1.0455702543258667
0.4120534658432007 0.966893196105957 0.28978753089904785
1.508689045906067 0.1897333413362503 -1.1175882816314697
-0.6244333982467651 0.8193812370300293 1.6591695547103882
-0.3423318862915039 0.37513992190361023 -1.21262788772583
-0.5131964683532715 1.3448712825775146 0.34495848417282104
-0.16556769609451294 -0.26553869247436523 -2.876831293106079
0.6144540905952454 0.7326829433441162 0.6897566914558411
-0.46376046538352966 -0.6325079798698425 -2.6787867546081543
0.9104256629943848 0.044503405690193176 -2.454274892807007
0.15420937538146973 0.3693678379058838 0.0979023426771164
-0.24021358788013458 -0.19492459297180176 1.2153472900390625
0.18975038826465607 0.8277350664138794 -0.8866724371910095
-1.5027474164962769 0.5949422121047974 -1.189544677734375
0.7505769729614258 -0.29800888895988464 -1.6004658937454224
-1.0573022365570068 0.5292580723762512 -1.7143596410751343
-0.822416365146637 0.4396185576915741 -1.131792664527893
-1.3896703720092773 0.7566056847572327 -2.1845598220825195
0.2073671966791153 1.4661928415298462 1.5629924535751343
0.9118156433105469 -0.05293804407119751 -2.669029474258423
-0.027222804725170135 0.10932709276676178 0.5989687442779541
-0.481373131275177 -0.46561259031295776 1.5387715101242065
0.4106074273586273 1.2400935888290405 -2.446183681488037
-0.8547468185424805 0.5452622771263123 0.23011289536952972
-1.4038615226745605 0.5374952554702759 2.8047502040863037
-1.4692678451538086 0.8828137516975403 0.6924072504043579
-0.04013519734144211 0.46447327733039856 -2.9090354442596436
-0.5240115523338318 0.527093768119812 -1.6860846281051636
0.4410243630409241 0.5003809928894043 2.195873260498047
0.5254237055778503 1.3352081775665283 3.135303020477295
0.05832977592945099 0.9161795377731323 0.8757460713386536
0.5584090948104858 -0.1393088698387146 -0.8472341895103455
-0.35973408818244934 1.4132314920425415 -2.268749713897705
0.18337956070899963 1.5823124647140503 1.2824198007583618
0.6312118768692017 0.7189332246780396 -3.465568780899048
-0.7079899311065674 1.4640065431594849 -2.3487091064453125
1.3715263605117798 0.4792025089263916 1.2324298620224
0.045579273253679276 0.7067031860351562 1.173152208328247
0.5712680816650391 0.7005208730697632 -2.4259192943573
0.47285622358322144 -0.30600234866142273 -1.5972425937652588
0.745053768157959 0.270976185798645 1.4807499647140503
0.16205641627311707 0.6657602190971375 -0.25131747126579285
1.7475411891937256 0.435546338558197 -1.057539701461792
1.2672524452209473 0.9638392329216003 -1.5583833456039429
-0.06193075329065323 1.4557995796203613 -1.2075053453445435
-0.9163858294487 1.2750688791275024 -0.5572785139083862
-0.3938453495502472 0.3370650112628937 -2.4340100288391113
-0.5129593014717102 1.4216383695602417 -0.7593221068382263
-1.1969246864318848 0.5560857057571411 0.6612440347671509
0.596031665802002 0.6794983148574829 -1.7101502418518066
-0.5927131175994873 1.1604719161987305 0.905081570148468
1.277664065361023 -0.29698970913887024 -2.0817861557006836
0.1215541809797287 1.3524967432022095 3.2348198890686035
0.6657631993293762 -0.18405234813690186 0.5736563801765442
-0.1209402084350586 1.247527837753296 -0.9307076334953308
0.06965050846338272 0.5410547852516174 1.2561886310577393
0.8171719312667847 0.6368913650512695 2.2626545429229736
0.39928317070007324 -0.31297415494918823 2.7928738594055176
-0.9127276539802551 1.2649316787719727 1.861650824546814
1.1396632194519043 0.4902949333190918 -1.7998383045196533
0.613261342048645 -0.35632437467575073 -2.6459879875183105
-0.10832978785037994 1.3195149898529053 -3.057039737701416
0.45856794714927673 0.1860317587852478 2.218763589859009
0.7013111710548401 0.8872594237327576 -1.447162389755249
0.7320535778999329 0.3925158381462097 -1.054269790649414
-0.3086608350276947 1.1186928749084473 -2.6592626571655273
0.01885027438402176 -0.06909845769405365 2.063021421432495
-0.41972076892852783 0.3459937572479248 -2.1920273303985596
0.7074589133262634 0.7897905111312866 2.941577672958374
-0.5013490915298462 1.5158146619796753 -0.5454145073890686
0.08032955229282379 0.8571382164955139 2.1745314598083496
1.2640916109085083 -0.23263144493103027 -2.9283459186553955
0.9571865200996399 0.14010490477085114 1.9140183925628662
0.1647893786430359 0.35665321350097656 0.8980627655982971
0.011679578572511673 0.385775625705719 -2.364129066467285
0.41125136613845825 0.917988657951355 3.216660499572754
-0.3908044993877411 -0.3601715564727783 -3.0248966217041016
0.5791416764259338 0.04190567135810852 -0.230060413479805
-0.5749664306640625 1.3954787254333496 2.1696135997772217
1.0241663455963135 0.13116732239723206 2.809699535369873
-0.16284777224063873 1.5219072103500366 0.1616867482662201
-0.7647609114646912 0.8689685463905334 2.4384090900421143
0.2671006917953491 -0.43843355774879456 -2.6656837463378906
-1.1180002689361572 0.2946126461029053 2.3011906147003174
0.6220144033432007 0.7791185975074768 -3.118776321411133
-0.2946282625198364 0.07663960754871368 -0.0270834993571043
-0.09593480825424194 1.213063359260559 0.6576201319694519
-0.5593584775924683 1.1473793983459473 -0.12535317242145538
-0.04394017904996872 0.9755433201789856 -0.623498797416687
1.7170907258987427 0.08828622102737427 -0.30272379517555237
0.7529065608978271 0.11469286680221558 -1.0759848356246948
-0.5454760193824768 0.2872868776321411 2.8945631980895996
-1.1990864276885986 0.9759602546691895 -2.3068861961364746
0.5060234665870667 0.6036491394042969 -2.0261266231536865
-0.8082214593887329 0.6575790047645569 1.4827189445495605
0.580595076084137 0.683850884437561 1.6490076780319214
0.8564315438270569 1.3985445499420166 2.047067642211914
0.319950670003891 0.7253466248512268 -1.6397610902786255
-1.0266578197479248 1.0170044898986816 2.0291805267333984
-0.1926405280828476 0.9603716135025024 2.1613452434539795
-0.4521741271018982 1.137283444404602 -1.938778042793274
-0.6345873475074768 1.5066746473312378 2.5379726886749268
0.05355597287416458 0.42626458406448364 -0.9295855760574341
0.06962241232395172 0.6031461954116821 -0.7169603109359741
0.3876003921031952 0.09630346298217773 -2.402069568634033
1.2899689674377441 0.36912888288497925 -2.3694143295288086
0.9645633697509766 0.6908795237541199 1.023693561553955
1.002259612083435 0.7220072746276855 0.2681732475757599
1.1137757301330566 -0.3135990500450134 2.1703665256500244
-0.5420822501182556 0.5922249555587769 -0.2606968879699707
0.20018810033798218 0.6965041756629944 -0.9294824600219727
0.7225821018218994 0.9147415161132812 1.8541139364242554
-0.03754933178424835 0.5970877408981323 2.3617184162139893
-0.6647098660469055 0.8473929166793823 0.5135849714279175
0.040326498448848724 0.35008955001831055 2.3790104389190674
-0.5381345748901367 -0.3899361193180084 3.174572467803955
0.42946767807006836 0.08505444973707199 2.807995080947876
0.3353898227214813 0.3473312258720398 0.2275865375995636
-0.6045283079147339 1.1601959466934204 -2.1276371479034424
-1.1520285606384277 0.5848938226699829 1.8981910943984985
-0.6377589106559753 1.4654124975204468 2.697570562362671
0.41296663880348206 1.452167272567749 -2.4246585369110107
-0.8946513533592224 0.4785608649253845 3.184561252593994
0.2971900403499603 0.05478675663471222 -1.8587992191314697
0.8067379593849182 1.2240253686904907 2.9745419025421143
0.3876289129257202 0.5460450649261475 -3.0756309032440186
0.2144167721271515 0.7797533273696899 1.3108456134796143
-0.5710809230804443 1.6687990427017212 -2.442783832550049
-0.1848398596048355 0.4485474228858948 -2.1371309757232666
-0.16606071591377258 0.5759533643722534 -1.0489757061004639
-0.24936692416667938 0.44390982389450073 2.865356206893921
-0.15584638714790344 0.740761399269104 2.222155809402466
0.03563116490840912 1.3805137872695923 -1.421791434288025
1.6676634550094604 0.6599214673042297 0.594231128692627
0.06449779868125916 0.13420754671096802 -3.052302360534668
0.9064311385154724 0.9369382858276367 2.411365509033203
0.040012557059526443 0.3630182147026062 -1.9794752597808838
1.7905433177947998 0.213429257273674 -0.8743598461151123
-0.0364345908164978 1.5027464628219604 -2.067418336868286
-0.37119060754776 0.7925286293029785 0.133200541138649
0.26728248596191406 -0.5672755241394043 2.3513376712799072
-0.03385545313358307 1.6191691160202026 -2.5474061965942383
-0.9003150463104248 0.880266010761261 0.9071042537689209
-0.49374842643737793 -0.06770962476730347 0.9436793327331543
0.7820761799812317 0.538371205329895 0.32965660095214844
1.111670732498169 0.40964239835739136 1.0416079759597778
-0.6829627156257629 0.14259736239910126 -3.187652111053467
0.1356056034564972 1.2232767343521118 1.223821997642517
-0.09837377071380615 0.7018696665763855 0.03557998687028885
0.005582086741924286 0.6946012377738953 -0.36225607991218567
0.0944352075457573 0.563193678855896 -2.4023711681365967
-0.39683622121810913 -0.31455737352371216 -1.3322434425354004
-1.1427111625671387 0.9229499697685242 0.13957008719444275
0.5303974747657776 -0.1817367672920227 0.33785757422447205
1.4478998184204102 -0.1921491026878357 1.7221401929855347
0.8844302296638489 0.27008768916130066 2.583972454071045
-0.23491588234901428 0.7693924903869629 -2.5152995586395264
0.42422160506248474 0.08238101005554199 -2.7102739810943604
-0.3535116910934448 0.1490175426006317 2.5243937969207764
-0.240342378616333 0.8210893273353577 1.0033273696899414
-0.32440540194511414 0.5843918323516846 -1.768669605255127
0.6732879281044006 1.4548430442810059 2.041490316390991
0.59440678358078 1.06919264793396 2.8844337463378906
0.021472979336977005 -0.19376665353775024 1.5709148645401
-0.9734272956848145 1.4464774131774902 1.33150053024292
0.6854653358459473 0.24746228754520416 -2.0728180408477783
-1.1740639209747314 0.8973268270492554 -0.18919230997562408
0.07857775688171387 0.8397403955459595 -0.32305774092674255
0.548902690410614 0.8213258385658264 0.31180962920188904
0.898860514163971 -0.04585820436477661 0.15651680529117584
0.4727535843849182 0.6475458145141602 2.312469720840454
-0.2775063216686249 0.6367310285568237 1.4033812284469604
1.337454915046692 -0.2927594482898712 2.330019235610962
-0.7563284039497375 0.5157051086425781 -1.7061536312103271
-0.03206959739327431 0.42595767974853516 -2.6724960803985596
-0.17910104990005493 1.2687010765075684 -2.0070700645446777
1.4300382137298584 -0.11904901266098022 1.617688536643982
0.6179947257041931 0.29712051153182983 -1.130704402923584
-0.9381182193756104 0.43776941299438477 1.0217022895812988
0.09581535309553146 0.16329893469810486 0.373843252658844
0.19263604283332825 1.1123833656311035 -1.129255771636963
-0.3263409435749054 0.6885713934898376 2.5672733783721924
-0.7524149417877197 0.6670547723770142 2.572526693344116
0.00046373531222343445 1.1768054962158203 0.4557250738143921
0.1993480771780014 -0.19366157054901123 0.7125450372695923
-0.8733997941017151 1.2498613595962524 -0.3674592077732086
-0.11717383563518524 0.5253708362579346 -2.5735156536102295
0.08765940368175507 -0.26067405939102173 1.7042964696884155
-0.15327149629592896 0.5791363716125488 -2.3305983543395996
-0.26079821586608887 0.3809853196144104 -2.1964786052703857
0.8441361784934998 0.9051259160041809 1.3354543447494507
-0.9742538928985596 0.3636600077152252 0.8630244731903076
0.6151701807975769 -0.3263682723045349 -1.7316001653671265
0.24747219681739807 -0.20350655913352966 -2.611332654953003
-0.07640837877988815 0.21925272047519684 2.2938201427459717
-0.26088231801986694 1.5902540683746338 -3.1694183349609375
-0.4058348834514618 1.4326189756393433 1.6581679582595825
-0.5830598473548889 1.0289690494537354 0.053174398839473724
1.1283338069915771 0.20321024954319 2.3187639713287354
-0.38688358664512634 0.20799845457077026 1.7033579349517822
0.0983148068189621 1.0195118188858032 0.003304148791357875
1.0261790752410889 0.4605364203453064 -0.9370903968811035
-0.19532766938209534 0.2141740471124649 2.068951368331909
0.8634397387504578 0.588782548904419 1.038455843925476
0.3593738377094269 0.22142907977104187 -3.0346717834472656
0.23269975185394287 0.38454920053482056 -0.6967081427574158
-0.4304760694503784 -0.023442775011062622 -0.513400137424469
0.02456790581345558 0.20785300433635712 -0.5013357400894165
1.2852354049682617 0.5829234719276428 -0.15309414267539978
-1.5820927619934082 0.9593963027000427 1.8653379678726196
-0.8259345889091492 0.3284369111061096 1.2861731052398682
0.576498806476593 0.31023871898651123 -0.4911089837551117
0.7239207029342651 0.9955123066902161 -2.727135181427002
0.18201181292533875 0.4273082911968231 1.046379804611206
-0.6546193957328796 0.7205178141593933 -1.1072163581848145
-0.8335579037666321 1.1906583309173584 -3.4936978816986084
-0.6794377565383911 1.110606074333191 1.37743079662323
1.8561208248138428 0.3418513536453247 0.29954421520233154
0.8097611665725708 -0.03924354910850525 -3.3824574947357178
-0.1226239874958992 -0.03921014070510864 -0.32551833987236023
0.23379504680633545 -0.47507399320602417 3.1381168365478516
0.839338481426239 0.20051980018615723 -1.89295494556427
-0.6370800733566284 0.7281723022460938 0.4007704257965088
1.453535556793213 0.8730511665344238 1.6970038414001465
-0.27609241008758545 0.4369482100009918 -1.9082704782485962
-0.22627422213554382 0.5477613806724548 -0.24240341782569885
-0.3770182728767395 0.04117089509963989 -3.193223476409912
0.2648800015449524 1.4027161598205566 -1.8000892400741577
0.5782312750816345 0.5254831314086914 2.006218910217285
1.5160759687423706 0.7261476516723633 -0.10958752036094666
-0.743059515953064 0.7911108732223511 1.6169426441192627
-0.17800414562225342 -0.20361125469207764 -3.3512377738952637
0.1726210117340088 -0.010383069515228271 -1.2958340644836426
-0.470880389213562 0.9273195862770081 1.0472825765609741
0.9232729077339172 0.6408386826515198 -3.6648452281951904
1.5533725023269653 0.025455012917518616 1.8863340616226196
0.4839835464954376 -0.08517488837242126 -2.7290446758270264
0.3788306713104248 1.0645710229873657 1.8061563968658447
-0.4235134422779083 -0.4950180947780609 -2.601041793823242
-0.6299300789833069 0.35396063327789307 -0.7826279997825623
0.6268020868301392 -0.44854462146759033 2.7660441398620605
0.3646903336048126 0.6656060218811035 -1.361136794090271
0.404920369386673 0.05504171550273895 -1.6642895936965942
0.14840067923069 0.5540798902511597 2.478388786315918
-0.1731870174407959 -0.1808711588382721 1.2254983186721802
-0.2163664847612381 0.8596615791320801 -1.1541918516159058
0.6871341466903687 0.8336426615715027 0.5589222311973572
1.4856507778167725 -0.1413743644952774 -1.9557324647903442
0.5477412939071655 -0.17390036582946777 -0.6336219310760498
-0.6037487983703613 0.3004103899002075 2.835592269897461
0.003326255828142166 0.21515530347824097 2.8199219703674316
1.1640316247940063 -0.19128009676933289 -1.723770022392273
-0.8715649843215942 1.43401038646698 -0.6398146748542786
-0.40994131565093994 0.14796866476535797 0.5351893901824951
0.7836279273033142 1.1460930109024048 -2.727206230163574
0.5859937071800232 0.28902164101600647 -2.5703821182250977
0.19473865628242493 0.8708698749542236 -0.6043481826782227
0.46466365456581116 0.18760372698307037 -2.1074159145355225
-0.24877549707889557 1.4775333404541016 -0.6389088034629822
-0.171052485704422 1.4309669733047485 -1.3120956420898438
-0.11691596359014511 0.6463971138000488 0.08228806406259537
-0.8758556246757507 1.4717645645141602 0.872462272644043
-0.23600120842456818 0.08449234068393707 1.7802541255950928
0.20695307850837708 1.0737422704696655 -0.5692270398139954
0.3580884337425232 0.8267324566841125 1.3699283599853516
-0.3853558897972107 -0.29852813482284546 -1.3067713975906372
-0.31696537137031555 0.538652241230011 -0.7132415771484375
0.07035087794065475 -0.41737452149391174 1.5879712104797363
-0.21738144755363464 1.0701042413711548 -2.402660608291626
-0.07304490357637405 1.2092266082763672 1.3675134181976318
-0.5407640933990479 0.052451759576797485 2.924907684326172
0.5918731093406677 0.4748205542564392 1.0173413753509521
-0.3710246682167053 0.24307146668434143 -1.4386487007141113
-0.03150473162531853 0.9205819368362427 1.974971055984497
0.8089298009872437 0.6938652992248535 -1.3089289665222168
-0.07293642312288284 0.4887600839138031 0.6414975523948669
0.5197922587394714 -0.13844552636146545 3.071126937866211
-0.4843654930591583 0.31512388586997986 -2.1093740463256836
-0.323873370885849 0.9948220252990723 2.2539913654327393
-1.0305613279342651 1.4844766855239868 0.15894551575183868
0.26741498708724976 0.8977116346359253 0.021636709570884705
-0.8435958027839661 1.350867509841919 -3.038900375366211
0.5835444331169128 0.1573380082845688 1.0488886833190918
-0.6993280053138733 0.7952920794487 0.7888670563697815
-0.8722382187843323 0.43579962849617004 -0.6970776915550232
-0.2071278691291809 -0.4939400851726532 2.2005550861358643
0.26155877113342285 1.3572100400924683 -1.735991358757019
0.10462523251771927 0.07569751143455505 -1.2366243600845337
-1.0782643556594849 1.6542487144470215 1.053160309791565
-1.1378505229949951 1.0477553606033325 -0.814886212348938
1.045413851737976 1.0286977291107178 2.681535482406616
0.47844386100769043 0.5622481107711792 0.9915357828140259
0.8652068376541138 0.859009861946106 1.8371508121490479
0.3883930444717407 0.7438496351242065 -1.6258981227874756
0.6832758784294128 0.3503413498401642 -2.9515328407287598
1.0722525119781494 -0.2653738260269165 2.172466278076172
-0.3853728771209717 1.2214988470077515 2.5269649028778076
-0.9631503820419312 1.2764517068862915 1.4319897890090942
-0.32489514350891113 0.6514443755149841 -1.6315418481826782
-0.8521378040313721 0.5619735717773438 1.155205488204956
-1.1145811080932617 0.02674180269241333 0.3967583179473877
-1.6150901317596436 1.1619019508361816 -0.5606023669242859
0.20830149948596954 1.203403353691101 -0.4509586691856384
0.05050523206591606 0.270356684923172 1.5971622467041016
0.6496849060058594 0.23738522827625275 0.48972171545028687
0.5585067272186279 1.3444170951843262 2.5653600692749023
-0.3356334865093231 0.8124182224273682 -2.8348305225372314
0.7053852081298828 0.2956847548484802 -1.9910250902175903
0.8813600540161133 0.9622762799263 2.813654899597168
-0.20762130618095398 -0.5069917440414429 -2.890692710876465
-0.15030309557914734 0.10587218403816223 -2.205626964569092
-0.11939380317926407 0.3003998398780823 2.3058812618255615
-0.9105128049850464 -0.474573016166687 1.8785892724990845
0.5166242718696594 0.954074501991272 -2.0480780601501465
-0.7117112874984741 0.27788451313972473 -1.2355273962020874
0.18490386009216309 0.13580122590065002 -1.09778892993927
-0.3893106281757355 0.43079525232315063 0.497243195772171
-0.0961599051952362 0.6911181807518005 -1.2719491720199585
-0.076398566365242 0.799143373966217 2.857912302017212
0.09230377525091171 0.28064125776290894 0.4021647870540619
0.3525591194629669 -0.9700548648834229 2.5126214027404785
0.8295999765396118 1.0203869342803955 1.9086509943008423
-0.39995238184928894 1.6014432907104492 1.9504562616348267
-0.21320326626300812 0.23086541891098022 -0.587990939617157
-0.3103371262550354 0.8399225473403931 -1.4227185249328613
-1.0654200315475464 1.2390127182006836 -1.9927306175231934
1.3089566230773926 0.7562345862388611 2.0235767364501953
0.809546172618866 0.39976343512535095 0.01872452348470688
0.2253681719303131 -0.36521685123443604 -1.954228401184082
0.803009033203125 0.2877051830291748 2.747044563293457
1.5723975896835327 -0.24623367190361023 -2.474520444869995
0.07617650926113129 0.5335750579833984 1.9494969844818115
-0.4200558662414551 0.7803800702095032 0.8096690773963928
0.3633038401603699 -0.24388040602207184 -2.295304536819458
0.29653656482696533 1.1277093887329102 -0.011634506285190582
0.41584640741348267 -0.5232924818992615 -2.751689910888672
0.6486652493476868 0.551810622215271 1.4467300176620483
-0.6036694645881653 0.3399638533592224 -2.0502352714538574
0.7878203392028809 0.5993496775627136 0.9342954158782959
-0.4789733290672302 1.3715585470199585 -1.3897910118103027
0.8862611651420593 0.40961697697639465 -0.8366790413856506
0.3046873211860657 0.27172166109085083 -1.4055919647216797
0.42991429567337036 -0.18017429113388062 1.2714365720748901
-0.7170059084892273 1.2693288326263428 -0.2740611433982849
-0.5895553827285767 -0.026245296001434326 -0.777132511138916
0.7454373836517334 0.334268182516098 1.4047496318817139
0.3590679466724396 1.4435181617736816 -0.17321065068244934
-0.8708764314651489 1.5367544889450073 -0.23439638316631317
-0.2073611617088318 -0.5836268663406372 1.6409889459609985
0.10965055227279663 0.12081153690814972 -0.4775286912918091
-0.36827051639556885 0.6461995244026184 -2.139712333679199
-0.40254896879196167 -0.2712395489215851 -2.018364191055298
-1.1154916286468506 0.9681882858276367 -0.11786763370037079
0.08714497089385986 1.0138016939163208 -1.7513625621795654
0.49854356050491333 0.5532769560813904 -3.5358786582946777
0.14073896408081055 0.2635772228240967 -0.05772045999765396
-1.585410237312317 0.6295631527900696 1.9014450311660767
1.144391655921936 -0.21589970588684082 2.5566751956939697
0.8810559511184692 -0.44688835740089417 3.1088438034057617
0.08277560770511627 0.4016263484954834 -1.6958112716674805
-0.5259087085723877 1.5619373321533203 0.3281799852848053
0.9658480286598206 0.13165979087352753 1.5595735311508179
0.2455575317144394 1.2964730262756348 0.6824055910110474
-0.35620206594467163 1.6300128698349 -2.049933910369873
0.35073089599609375 -0.1735672950744629 3.262969493865967
0.6154458522796631 0.5671491622924805 1.7899653911590576
-0.3894413709640503 1.484352946281433 0.5405513644218445
0.15702420473098755 -0.03885093331336975 -0.6682640910148621
-0.18217244744300842 0.9183931946754456 0.33305448293685913
1.3784799575805664 1.3019905090332031 -2.4338085651397705
0.8071403503417969 0.20015190541744232 -2.695528745651245
0.8682518601417542 0.20790612697601318 1.2175053358078003
0.04821745306253433 0.4705579876899719 -2.4931228160858154
-0.456087589263916 0.23586587607860565 -1.050208568572998
0.08945197612047195 1.4377163648605347 1.9309287071228027
1.0959380865097046 1.0324857234954834 -2.5961756706237793
0.32166939973831177 0.3861711621284485 2.2371678352355957
0.11300764977931976 -0.29548192024230957 -1.2365403175354004
0.38084760308265686 0.2644888758659363 -0.34383857250213623
0.41251665353775024 0.5130374431610107 0.3444634675979614
-1.497397541999817 1.2403584718704224 -1.730507731437683
-0.30876749753952026 -0.2871760427951813 1.7415448427200317
-0.27695363759994507 0.3761201500892639 -1.1136473417282104
-0.36845269799232483 0.8832284212112427 -1.3381750583648682
0.3247832655906677 0.6257032752037048 -2.611985683441162
-0.06220857799053192 0.7054091691970825 -1.504362940788269
0.6807178258895874 0.8774304389953613 1.3229225873947144
-0.08816838264465332 1.4960306882858276 2.302442789077759
0.20698338747024536 -0.0771598368883133 0.8028727769851685
-1.0701934099197388 0.9236965775489807 -2.2825655937194824
0.7219232320785522 -0.08038221299648285 2.2205398082733154
-0.314720094203949 0.9175052642822266 -0.22955916821956635
-0.14210516214370728 1.5858303308486938 1.8868932723999023
-0.3574976623058319 1.0091195106506348 -1.644027590751648
0.4752395451068878 1.3691197633743286 2.140484094619751
0.10497024655342102 -0.08530008792877197 -0.2158077508211136
0.16283243894577026 0.26429104804992676 0.22305002808570862
-0.4708811044692993 1.263010025024414 0.45465826988220215
-0.3388906717300415 0.3678141236305237 -1.4892213344573975
-0.18164141476154327 0.7913684844970703 -0.055846042931079865
0.4501754641532898 0.7349416017532349 -0.626237154006958
-0.05819866061210632 -0.2061145305633545 2.786616086959839
-0.8220617175102234 1.2547438144683838 -2.7821922302246094
-0.844702422618866 1.4376715421676636 -2.571617841720581
-0.40768691897392273 0.9347264766693115 -2.10437273979187
-1.1016253232955933 1.337542176246643 -1.756553053855896
0.3316768407821655 1.017491102218628 0.8923668265342712
-0.45955049991607666 1.2099039554595947 -0.14272895455360413
-0.7801211476325989 0.49227654933929443 0.9624271392822266
0.19860760867595673 0.7266839742660522 -1.6379376649856567
-0.5688487887382507 0.8699132800102234 0.1383616328239441
-0.9597541689872742 0.2558012008666992 2.282383441925049
-0.6349751949310303 -0.24856404960155487 -1.6223108768463135
-0.11142347753047943 0.8571956157684326 -1.9831773042678833
-1.204641342163086 1.1479196548461914 -1.032094120979309
0.34357187151908875 0.6309142112731934 2.762406349182129
-0.4822132885456085 0.9535627365112305 2.4729092121124268
-0.05661429092288017 1.1058419942855835 0.11426052451133728
0.9717617034912109 0.38800495862960815 -0.09559077024459839
0.12843948602676392 0.8485778570175171 0.13398443162441254
-0.7636547684669495 0.8988078236579895 1.9182428121566772
1.402732491493225 0.6933580040931702 0.7253563404083252
0.6988391280174255 0.11650475859642029 -1.9078744649887085
-0.030797377228736877 -0.016041666269302368 -1.221519947052002
-1.0198841094970703 1.1790575981140137 -0.7843977808952332
-0.3714997172355652 0.7468135356903076 -0.8761635422706604
-0.3317241370677948 1.2599958181381226 -0.4395444691181183
0.6916307210922241 -0.27708327770233154 -2.791132688522339
0.10180482268333435 -0.14101776480674744 0.674895703792572
0.060783691704273224 -0.2507690191268921 1.0896480083465576
0.11741545051336288 1.200804352760315 0.5693820714950562
0.7967268824577332 0.22020697593688965 1.8517262935638428
-0.661311149597168 1.1863784790039062 1.294532060623169
0.9174553751945496 1.141887903213501 -2.930420160293579
1.479057788848877 0.5224639773368835 0.9666970372200012
0.647881031036377 0.2629908323287964 0.6344614624977112
0.5002427697181702 0.4638576805591583 0.6518446207046509
-1.5550440549850464 1.3150336742401123 -0.8718770742416382
1.3334776163101196 0.8048751354217529 0.7992641925811768
0.5073233842849731 0.6098360419273376 1.350003957748413
1.2675113677978516 0.6117027997970581 0.6240851283073425
-0.13384205102920532 1.4629766941070557 -1.9826663732528687
0.0020296983420848846 0.7686246037483215 -2.9300689697265625
0.536014974117279 1.0381486415863037 1.1276006698608398
-0.5915012955665588 -0.26850926876068115 1.191511631011963
-0.6365393400192261 0.2879161238670349 3.1515133380889893
1.0594602823257446 0.5781527757644653 0.6454719305038452
-0.04173810034990311 1.4351321458816528 0.9224340915679932
-0.8662787675857544 0.3118136525154114 -0.3874526619911194
0.674527645111084 -0.2368355244398117 1.7455928325653076
0.2356145679950714 -0.3122742772102356 2.0292837619781494
0.6614491939544678 0.6356188058853149 1.4849342107772827
-0.4326624572277069 0.7274946570396423 2.9416122436523438
0.28280696272850037 0.35642606019973755 -0.5923255085945129
0.6322605013847351 1.2067744731903076 3.0161848068237305
1.557253122329712 -0.012350261211395264 1.2728289365768433
-0.665696918964386 1.130237340927124 1.4504274129867554
0.23715661466121674 0.8986569046974182 -0.5462125539779663
-0.2853475511074066 -0.2915581464767456 1.6151810884475708
0.4159381687641144 0.8400079011917114 -3.6525392532348633
-0.6466858386993408 0.255609393119812 2.7978131771087646
-0.49253061413764954 0.228030726313591 -0.4920806586742401
-1.5317457914352417 1.0659632682800293 -1.1846200227737427
1.2908480167388916 -0.11175204813480377 2.84230899810791
-0.11174212396144867 0.5737177133560181 -1.6998611688613892
-0.8480717539787292 0.7933155298233032 -1.2385926246643066
-0.4725072979927063 0.6659461855888367 2.727972984313965
0.3500199317932129 1.288847804069519 -0.4064106047153473
0.5879326462745667 -0.22532515227794647 3.0546135902404785
0.7059355974197388 -0.32561713457107544 -2.412464141845703
0.6659528613090515 0.7820761203765869 1.1326817274093628
-0.08180159330368042 0.7797839641571045 1.871238112449646
0.6727645993232727 -0.0474715381860733 -2.049985647201538
-0.6300269365310669 -0.10410332679748535 -1.4460359811782837
0.13216032087802887 -0.3385978043079376 -2.0377230644226074
0.5939363241195679 0.6327865123748779 -1.2011373043060303
0.12881416082382202 0.11708883941173553 -0.8515477180480957
0.2605538070201874 -0.2411998212337494 -2.006765127182007
1.1601440906524658 0.4092666506767273 1.855494737625122
1.2568721771240234 0.23857758939266205 1.7426615953445435
-0.2334320843219757 -0.5059231519699097 2.6862308979034424
1.1204414367675781 0.18301670253276825 -3.183525323867798
-0.06242424249649048 0.8213304877281189 -2.2240493297576904
-1.4246928691864014 0.8924188613891602 -0.9715193510055542
-0.06870979070663452 1.406657099723816 0.0716189369559288
-0.3737609386444092 0.5485410690307617 1.8746726512908936
-0.5786649584770203 0.8539109230041504 1.2260419130325317
-0.23479893803596497 0.6856746673583984 -2.976513147354126
-0.6081291437149048 1.1389133930206299 0.174455463886261
-0.6481553912162781 0.2843182682991028 -0.41714462637901306
0.1803707331418991 1.1492401361465454 -1.6663365364074707
1.0807474851608276 0.27697592973709106 0.15058501064777374
-0.1877516508102417 0.5942429900169373 -0.13722649216651917
-1.0104817152023315 1.042527437210083 -1.3276441097259521
-1.544062614440918 0.9355650544166565 -1.991341233253479
-0.983862042427063 1.053480625152588 2.0092501640319824
-0.5261296033859253 0.0591677725315094 -1.5758857727050781
0.11668536812067032 0.2175632268190384 2.407609701156616
1.0473947525024414 1.0654805898666382 -2.2462236881256104
-0.344074010848999 1.179043173789978 -2.416290760040283
-0.6853718757629395 0.12328769266605377 2.552107572555542
-0.3720933496952057 0.7379201054573059 -1.6875675916671753
0.34578144550323486 1.1374653577804565 1.8580589294433594
0.894956111907959 0.7195967435836792 0.9214804768562317
0.413094162940979 0.4914093613624573 -0.31240421533584595
-0.5026640892028809 0.7242255806922913 1.5369364023208618
-1.5596319437026978 1.300203561782837 -0.9911718964576721
-0.8072261810302734 -0.465965211391449 2.4121763706207275
-0.39429306983947754 1.1976081132888794 2.324233293533325
-0.12607833743095398 1.4886513948440552 3.2784876823425293
1.1237852573394775 0.6285476684570312 -0.8597962260246277
0.6486506462097168 1.2870169878005981 2.842329740524292
1.115979790687561 0.4478335976600647 -1.794340968132019
-0.3355315923690796 1.4538943767547607 1.622108817100525
0.7183586359024048 0.6875272989273071 -2.1693618297576904
0.56322181224823 0.6593019962310791 1.6659417152404785
-0.6292086839675903 0.4388858377933502 1.685829997062683
0.3588384985923767 1.4213247299194336 -1.632723093032837
0.1742485612630844 -0.21234141290187836 -2.4955458641052246
-0.20015870034694672 1.3173046112060547 -0.5523208975791931
-0.29984140396118164 0.3097800016403198 1.6941595077514648
0.8149743676185608 0.35349804162979126 -0.9225491881370544
1.85991370677948 0.18347027897834778 -0.2586511969566345
0.874860942363739 0.1227935403585434 -0.4876168668270111
-0.6712638735771179 1.087575078010559 -1.0003924369812012
-1.0448459386825562 0.8492159843444824 -0.5678731203079224
0.5065599083900452 0.1325293779373169 2.4103636741638184
-0.6132023334503174 1.1893755197525024 -2.148923397064209
-1.6174378395080566 0.9563719630241394 0.8958085775375366
0.3913648724555969 0.1596337854862213 -0.48987483978271484
0.6734833717346191 0.24874289333820343 0.24358965456485748
0.17090702056884766 0.8601353168487549 0.34783434867858887
1.1715095043182373 0.3903249204158783 1.4539976119995117
-0.2420179545879364 1.4846620559692383 -3.1835458278656006
0.5440419316291809 1.086127519607544 1.5768647193908691
1.2117962837219238 1.0891534090042114 -1.8827356100082397
0.0806044489145279 0.6215226054191589 -0.4629402160644531
-0.5904138684272766 0.9923334121704102 0.05353369191288948
0.6590067744255066 -0.3547796308994293 1.7344605922698975
-0.0967840924859047 0.03212593495845795 -0.866348147392273
0.6618772149085999 0.4363994598388672 0.4531577527523041
0.2595377564430237 0.632930338382721 0.5031445622444153
-0.23971137404441833 0.4501679539680481 -0.3863779604434967
0.48415040969848633 0.6037502288818359 -0.2584846615791321
0.13900916278362274 0.722234845161438 0.7274535894393921
-0.15812522172927856 0.4425739049911499 -0.7920103073120117
0.24785754084587097 -0.43527472019195557 -2.292147636413574
1.0300648212432861 1.3350650072097778 3.0013582706451416
0.5703444480895996 1.2704707384109497 -2.3010313510894775
0.922333300113678 -0.3987220525741577 1.9218610525131226
0.20425911247730255 1.0233246088027954 1.8697869777679443
0.44921866059303284 0.15964767336845398 -3.1802003383636475
0.2501630187034607 1.1473922729492188 -0.24253714084625244
-0.4660695493221283 1.5297316312789917 -1.0804476737976074
0.28948304057121277 0.576539158821106 -0.8803238868713379
0.4195864200592041 0.695590615272522 -2.297524929046631
-1.1862976551055908 1.5011779069900513 3.1974663734436035
-0.9202462434768677 1.1601849794387817 1.3755096197128296
0.24645793437957764 0.04232938587665558 -1.7883166074752808
0.4639017581939697 0.9266459941864014 -1.1595808267593384
-0.38933125138282776 0.6053584218025208 1.8157318830490112
0.32372570037841797 0.28996649384498596 0.5812045931816101
1.2331441640853882 0.2700279653072357 -0.1919974684715271
0.4374416172504425 0.5087724924087524 -0.7818416953086853
-0.7463394999504089 0.37358754873275757 0.46235284209251404
0.6966012716293335 0.43516242504119873 -1.90080988407135
0.18676266074180603 0.41038233041763306 -2.123938798904419
0.0006879419088363647 1.3953545093536377 0.5457042455673218
-0.2395763397216797 1.395625114440918 1.7163758277893066
-0.18013545870780945 1.4264029264450073 -1.962748408317566
-0.7516515254974365 1.276982069015503 -0.7023462653160095
-0.1631251871585846 0.45546460151672363 0.9508883953094482
0.12264139950275421 0.2575523257255554 2.3243019580841064
-0.5804533362388611 -0.46752697229385376 -2.579984664916992
0.056992895901203156 0.8703709840774536 -0.22620035707950592
-0.741192638874054 0.46267008781433105 3.060668468475342
0.319499135017395 0.7752389311790466 0.05653094872832298
0.6834710240364075 0.8691203594207764 -0.5068746209144592
0.6660389304161072 0.9394402503967285 -0.5547694563865662
1.6658612489700317 0.9243372678756714 1.2429630756378174
1.2621583938598633 0.09269164502620697 -2.779339075088501
0.19032356142997742 1.2015067338943481 -2.2944860458374023
-0.8351684212684631 1.309852123260498 -0.6223769783973694
0.29074034094810486 0.4233570098876953 -1.3733700513839722
-0.5236449241638184 1.2414629459381104 -0.854107677936554
0.3991912603378296 -0.029488280415534973 0.3546554744243622
0.05073423683643341 1.2067145109176636 1.011623501777649
-0.22678875923156738 0.029543757438659668 1.4452600479125977
0.3475438356399536 0.009039625525474548 2.419023036956787
0.15146315097808838 -0.14364361763000488 -1.5034356117248535
-0.6702710390090942 1.2586060762405396 2.6693994998931885
0.8615871667861938 1.10494065284729 -2.4772398471832275
0.2707757353782654 1.1203508377075195 -2.906582832336426
0.23692883551120758 0.6313658952713013 0.8393191695213318
-0.4722062349319458 0.7514334321022034 -0.5961824655532837
-0.09246280789375305 1.109498143196106 -2.7964870929718018
-0.5874855518341064 1.0031448602676392 -2.472309112548828
0.11023196578025818 0.799559473991394 0.9556782841682434
-0.18903613090515137 1.0777833461761475 1.3533973693847656
-0.31786373257637024 1.61991286277771 -0.5572693347930908
0.4052039384841919 0.3971655070781708 -0.6688668727874756
0.8349502682685852 0.7020835876464844 -0.8241993188858032
-0.045673925429582596 0.9866762757301331 0.739578366279602
1.1615943908691406 0.4252239465713501 -1.9992965459823608
-0.7407509088516235 0.8819210529327393 1.75444757938385
-0.48533526062965393 0.17050659656524658 -1.8693755865097046
0.5027219653129578 -0.5322571992874146 2.0123300552368164
-0.0002083815634250641 1.3172166347503662 3.2979815006256104
0.4140576124191284 0.20104803144931793 -2.7294394969940186
-0.5065317749977112 0.4565441906452179 1.5418678522109985
-1.4455976486206055 1.2876641750335693 1.0935848951339722
-0.07186160981655121 1.1802406311035156 2.8555331230163574
-1.034674882888794 0.9889956712722778 0.718684732913971
1.1816091537475586 0.823607861995697 0.3199199140071869
-1.30169677734375 0.655080258846283 0.019160108640789986
-0.045927345752716064 0.23560497164726257 -1.6084532737731934
-1.0354433059692383 1.521087646484375 2.553149461746216
-0.3777967095375061 1.1860445737838745 3.6813602447509766
-0.8698070049285889 0.13010931015014648 0.40559306740760803
-0.6352551579475403 1.6257847547531128 0.9737456440925598
1.1209640502929688 0.9007784724235535 2.588914155960083
0.19159038364887238 1.3261454105377197 0.394574910402298
0.030710037797689438 0.5398286581039429 -2.0760183334350586
-0.8486326336860657 0.5044976472854614 -1.3920453786849976
0.12876538932323456 0.2441897988319397 -1.0633723735809326
-0.17707455158233643 0.16409413516521454 0.3647514879703522
-0.20192721486091614 -0.04313468933105469 -0.5345977544784546
1.3285167217254639 0.4305570125579834 1.4513657093048096
0.7655126452445984 0.8313373327255249 -0.19499830901622772
0.2778410315513611 0.016671881079673767 -0.3878477215766907
-0.222170889377594 0.78560870885849 1.7568721771240234
0.18513263761997223 0.5734045505523682 -1.6329923868179321
-0.37083226442337036 1.0866422653198242 1.229062795639038
1.8444621562957764 0.1912544071674347 2.993319511413574
-0.7607498168945312 0.6223767995834351 1.9596521854400635
-0.33536064624786377 0.4800748825073242 -2.408071279525757
0.7698559165000916 0.0922427624464035 -1.3144383430480957
-0.8087307810783386 0.5419581532478333 2.7450156211853027
0.256570965051651 0.08684182167053223 2.040897846221924
1.347071886062622 -0.06390233337879181 2.4773354530334473
0.4127596318721771 1.1646236181259155 -2.288250207901001
-1.419493556022644 1.4884064197540283 -0.6451616883277893
-0.435443639755249 0.9342544674873352 2.0914762020111084
0.3267529606819153 -0.2762143313884735 -2.591921091079712
-0.48280787467956543 0.9910878539085388 0.6039287447929382
-0.9366635680198669 0.6625046133995056 -0.985103189945221
0.8664697408676147 0.2704901099205017 1.9341564178466797
2.637404441833496 0.24607685208320618 -1.5211682319641113
-0.6431219577789307 0.5207454562187195 0.9700487852096558
-1.0302830934524536 0.5550756454467773 2.184182643890381
0.3390986919403076 -0.05259636044502258 0.9637638330459595
-0.09593051671981812 -0.20920363068580627 -0.9857845306396484
-0.17050224542617798 0.6417836546897888 -3.037656307220459
-0.4012335240840912 1.0228654146194458 0.4961893558502197
1.0122432708740234 0.8505995273590088 3.119309425354004
1.0996564626693726 0.38821345567703247 0.9623379111289978
-0.05537757650017738 0.10453782975673676 -2.0704784393310547
0.25336703658103943 1.2775160074234009 2.547492265701294
0.6729217767715454 1.4645990133285522 1.6778868436813354
0.7598853707313538 0.8308263421058655 1.4358524084091187
0.5480998158454895 1.1643996238708496 3.19862961769104
-0.9581021070480347 1.3776721954345703 -0.7978703379631042
0.8452167510986328 0.45953139662742615 -0.6952552795410156
-0.45693427324295044 0.027283787727355957 1.0579249858856201
-0.15734493732452393 0.5370007753372192 -1.8456287384033203
-0.22802983224391937 0.36309972405433655 -2.24310302734375
-0.19067060947418213 0.20734894275665283 -0.25585630536079407
-0.4249279797077179 0.18227609992027283 2.0118608474731445
-0.2563610374927521 0.7702356576919556 -0.21969880163669586
-0.493283212184906 1.6307379007339478 -1.3745938539505005
-0.055676791816949844 0.9567315578460693 -3.2693822383880615
0.8201743960380554 0.7921086549758911 -3.1418097019195557
0.21832136809825897 1.2335786819458008 2.5906331539154053
-0.3224821984767914 0.11742393672466278 2.234894037246704
0.3768962621688843 0.38158106803894043 1.9516148567199707
0.7396624684333801 1.3248008489608765 -1.559712529182434
0.4370962083339691 0.8424304723739624 -2.8789303302764893
-0.8513009548187256 0.6190496683120728 1.499973177909851
0.5234007835388184 0.3717702627182007 1.8771123886108398
0.6575046181678772 0.9392231702804565 3.098464250564575
-0.5290458798408508 0.70003342628479 -1.1201552152633667
0.338007390499115 0.36406534910202026 -1.639015555381775
0.5727499723434448 0.049526363611221313 -2.0109286308288574
0.2285066545009613 0.6143366098403931 0.7316905856132507
1.290326476097107 -0.0002765357494354248 0.7219463586807251
-0.26586011052131653 0.1201162189245224 -0.8235743641853333
-0.6091241836547852 0.905446469783783 1.3002222776412964
-0.5426451563835144 0.9007234573364258 -2.425729513168335
0.535805881023407 0.11775469779968262 -1.2007226943969727
-0.10427148640155792 1.112131953239441 1.123429298400879
0.6448004245758057 -0.3185688257217407 2.601362943649292
0.11132434010505676 0.3302310109138489 -1.739527702331543
0.3831498920917511 0.3611299395561218 -0.9444624781608582
-1.2930898666381836 0.6854448318481445 -0.41048142313957214
0.34415513277053833 1.2197328805923462 -1.8128427267074585
0.21278096735477448 0.7888387441635132 1.8661783933639526
0.04137151315808296 1.2507679462432861 -2.144209623336792
-0.41200345754623413 1.0858761072158813 -2.2675087451934814
1.6152801513671875 0.7547445893287659 0.8081637620925903
-0.5609737038612366 0.7632595896720886 2.8515465259552
-0.5045226216316223 0.51405268907547 0.12449095398187637
0.14255636930465698 1.3492368459701538 -0.9377177953720093
-0.20820723474025726 -0.8058866262435913 1.7314181327819824
0.7177197337150574 0.7477325797080994 1.7319070100784302
0.5603777170181274 -0.22965824604034424 0.5435722470283508
1.6198420524597168 0.11975942552089691 1.1896355152130127
0.4338756799697876 -0.06974717974662781 -2.8859121799468994
0.4887324571609497 0.5534265637397766 2.4574289321899414
-0.6685471534729004 1.1529111862182617 -1.3945112228393555
0.4766499996185303 0.7160348892211914 2.163088321685791
1.4480087757110596 -0.00031948089599609375 0.6525511741638184
0.6543583273887634 0.019961729645729065 -2.5229063034057617
0.24994251132011414 0.9400718212127686 2.1283695697784424
-0.4567049741744995 1.5330044031143188 -2.9620707035064697
-0.16923779249191284 1.0368542671203613 -0.09316238760948181
0.20429080724716187 0.3261776864528656 1.9288030862808228
-0.28156042098999023 0.2695509195327759 2.6778619289398193
-0.24971680343151093 0.5635830163955688 -0.929224967956543
1.053400993347168 -0.021418482065200806 1.3893026113510132
-0.1192716434597969 1.1133449077606201 0.3432546555995941
-0.41600432991981506 -0.4626353979110718 -2.5686492919921875
0.794009804725647 0.02327728271484375 1.3467413187026978
-0.7029983401298523 0.698635458946228 -2.529545545578003
