ply
format ascii 1.0
element vertex 809
property float x
property float y
property float z
end_header
-0.5374767184257507 -0.16417789459228516 -0.8574296832084656
1.0158371925354004 0.404269814491272 -0.43799182772636414
-0.01704566925764084 0.7593908309936523 0.0881374329328537
0.9042193293571472 -0.18794715404510498 1.2948262691497803
-1.5139195919036865 0.560226559638977 -0.8351719379425049
-0.20927274227142334 0.09521465003490448 0.6917592287063599
-0.8161932826042175 0.8083456158638 1.212531328201294
0.7721351981163025 0.24930250644683838 1.098573088645935
-0.6817033886909485 -0.1901729702949524 0.09706570953130722
-1.0350264310836792 -0.31771910190582275 0.8733747601509094
1.6302485466003418 0.537861704826355 0.3270082175731659
-0.1839609295129776 0.5469017028808594 -0.314130038022995
0.48931416869163513 -0.35026946663856506 0.9536597728729248
0.44221198558807373 0.4531755745410919 0.3805324137210846
-0.9282073974609375 -0.10064688324928284 0.3758331835269928
-0.8028724193572998 0.469188928604126 -0.6324736475944519
0.013811305165290833 -0.34769681096076965 0.7108771800994873
-1.0263185501098633 0.02455325424671173 0.34433743357658386
0.555982768535614 0.29823267459869385 -0.4409153461456299
1.139933466911316 0.03671629726886749 -0.621478796005249
0.05751434713602066 -0.3568825423717499 -0.41378504037857056
-1.3065050840377808 0.7795392870903015 0.8124179840087891
1.0758328437805176 0.10839696228504181 -0.43943119049072266
0.7809798717498779 -0.061251670122146606 0.052472617477178574
-1.9862624406814575 0.20962758362293243 -0.2250668704509735
0.992318868637085 0.45588845014572144 0.29452893137931824
0.8177939057350159 -0.12509261071681976 1.2367280721664429
0.8625278472900391 -0.16108587384223938 -0.33827319741249084
1.2026042938232422 0.3037707805633545 -0.7674405574798584
-0.4488988518714905 0.9259387850761414 0.5767348408699036
-1.1002448797225952 0.13436472415924072 0.380659818649292
0.047006748616695404 -0.3437434732913971 0.8115251064300537
2.150468587875366 0.11693179607391357 1.1760318279266357
0.08336825668811798 0.5453388690948486 0.1293228566646576
1.907774806022644 0.4762572944164276 0.27319979667663574
-0.6077632904052734 0.7549881339073181 -0.3391056954860687
-1.029137372970581 0.6157342195510864 -0.1448730081319809
-0.9942115545272827 0.09836429357528687 -0.245973601937294
-0.5618425607681274 0.504975438117981 0.396039754152298
-1.2746367454528809 -0.3064112067222595 0.8067131638526917
1.5757542848587036 0.28412720561027527 -1.7457376718521118
1.8120778799057007 -0.3080664575099945 -0.7088866829872131
-0.6049898862838745 0.42043089866638184 -0.2566255033016205
-0.5954970121383667 0.8806086182594299 -1.1538596153259277
1.6139872074127197 -0.34949368238449097 -0.185369074344635
1.5003151893615723 -0.26830631494522095 0.6065618395805359
-0.9952241778373718 0.7959936261177063 -0.9379399418830872
-0.05627024546265602 0.12167100608348846 0.9750221967697144
2.251593828201294 0.37680134177207947 0.5990923643112183
-0.19755464792251587 0.8004247546195984 1.1587402820587158
1.7401918172836304 0.5249345302581787 -0.11861050128936768
-0.4400694966316223 -0.31536149978637695 0.153579443693161
2.170135736465454 0.08402970433235168 0.057868752628564835
0.34380602836608887 0.842479407787323 0.5127091407775879
-0.5406533479690552 -0.36069852113723755 -0.5201447606086731
1.2357664108276367 -0.3281177282333374 1.3040649890899658
-1.3873943090438843 0.44995006918907166 -0.5184206962585449
2.3905253410339355 0.22631341218948364 -0.47148606181144714
-0.8367569446563721 -0.40007174015045166 -0.4938553273677826
-1.0441399812698364 0.16169995069503784 -1.1178146600723267
2.2465524673461914 -0.08450871706008911 -0.8620098233222961
-0.9758637547492981 0.2515791058540344 -0.139365091919899
0.14083603024482727 0.30743324756622314 -1.0849721431732178
1.4802782535552979 -0.21095885336399078 0.6477183103561401
-0.06997013092041016 -0.3548257350921631 -0.47204694151878357
-0.31188058853149414 -0.047507405281066895 -0.30985063314437866
1.9559872150421143 -0.310890793800354 -0.1638924777507782
0.9122099876403809 0.4034101366996765 0.11725638061761856
-0.972052276134491 0.40985262393951416 0.45498204231262207
0.6203776001930237 0.5242131948471069 -0.40566766262054443
2.2320966720581055 -0.3198009431362152 -0.23232531547546387
-0.2786344885826111 -0.03451430797576904 -0.9175580739974976
-0.8380842804908752 -0.12090711295604706 -0.42234039306640625
-0.2202432006597519 0.46342355012893677 -0.3380391001701355
1.1006945371627808 0.4330444037914276 -0.796720564365387
0.6635187268257141 0.19514089822769165 -0.1890430450439453
1.1078007221221924 -0.31119394302368164 0.6233919858932495
-1.265669345855713 0.8100200891494751 1.2591723203659058
-0.17997393012046814 0.2981429100036621 -0.8540087938308716
-1.1801397800445557 0.5705920457839966 -0.23753318190574646
-0.9565085768699646 0.034173473715782166 0.7158634066581726
-0.3463914096355438 -0.3658710718154907 -0.2419801503419876
-0.28758567571640015 0.9457070231437683 0.30085489153862
0.19284313917160034 0.8587599992752075 -0.6585282683372498
-0.6864181160926819 0.518528401851654 -0.9786360859870911
0.5097858905792236 -0.35296207666397095 -0.2557605803012848
0.8368028402328491 0.8104593753814697 0.07899750769138336
-0.3823392987251282 -0.17514896392822266 -0.2778373658657074
2.1053967475891113 0.45219099521636963 -0.30551624298095703
-1.9324586391448975 0.21297520399093628 -0.22509613633155823
-0.10184270888566971 -0.1553623080253601 -0.48998045921325684
-2.343132257461548 0.19987374544143677 -0.12383993715047836
1.3118928670883179 -0.12583321332931519 -0.24424885213375092
0.25363633036613464 0.7551683187484741 0.8264016509056091
-0.3969312012195587 -0.337846577167511 0.14161406457424164
-1.096652865409851 0.31461942195892334 -0.11587941646575928
2.116299867630005 0.13072670996189117 0.705088198184967
-0.8752335906028748 0.8120733499526978 0.5870168209075928
-0.870972752571106 0.17904841899871826 -0.6052179932594299
1.492586374282837 0.6099830269813538 -0.03238309547305107
-0.7060734033584595 -0.3897569179534912 -0.2811024487018585
-1.229793906211853 0.3416031002998352 -0.24029701948165894
-0.10470223426818848 0.8136791586875916 -0.8220921754837036
1.7113099098205566 0.5148673057556152 0.08740323036909103
1.5790139436721802 0.5413057208061218 0.384598970413208
0.26283594965934753 0.7882920503616333 0.2945568859577179
0.13777896761894226 0.8171131610870361 0.3736906945705414
0.11418682336807251 0.2976687550544739 -0.3578685522079468
0.8146899342536926 -0.35222190618515015 -0.721585750579834
1.5829296112060547 -0.3394065797328949 1.001084804534912
-1.370552897453308 0.6284774541854858 -0.5251437425613403
-0.7295950651168823 -0.3329694867134094 0.3605656623840332
0.48584336042404175 -0.1510034054517746 0.4771539866924286
2.3910272121429443 -0.30461975932121277 0.7922330498695374
1.1645933389663696 -0.210188090801239 0.5340653657913208
0.9479888677597046 0.7742037177085876 -0.22467394173145294
-1.1405669450759888 -0.06790374219417572 0.2779040038585663
0.975168764591217 0.19759656488895416 -0.6193242073059082
0.6688810586929321 0.7711971998214722 -0.029505310580134392
-0.4755591154098511 0.4872169494628906 -1.1696970462799072
-0.6580163240432739 0.9024083018302917 -0.4476722478866577
1.9981173276901245 0.07180348038673401 0.24889400601387024
-0.9764499664306641 0.9288075566291809 0.9586706161499023
1.4646296501159668 -0.3375729024410248 0.5850145816802979
-0.40289995074272156 -0.0734131783246994 -0.014371681958436966
-0.394811749458313 -0.24411363899707794 0.29090625047683716
1.172734022140503 0.5402964949607849 -0.6112104058265686
1.6816298961639404 0.5206571817398071 0.28370141983032227
1.807877779006958 -0.33789679408073425 0.2706086039543152
0.8098418116569519 -0.018271446228027344 0.2897176742553711
-0.7552621364593506 -0.047703295946121216 -0.5647563934326172
-1.223440408706665 -0.3328981101512909 0.08088136464357376
-1.2848247289657593 0.4798618257045746 0.6292607188224792
0.3977583646774292 -0.35522741079330444 0.7868134379386902
0.7900791764259338 -0.3562328815460205 -0.601546049118042
-0.6341125965118408 -0.1469329297542572 -0.33326655626296997
3.4637556076049805 -0.18149417638778687 0.06147216260433197
0.14722618460655212 0.5698682069778442 -0.5228092074394226
-0.30212098360061646 0.7604935169219971 -0.520304262638092
-0.6253730654716492 0.6115890741348267 -1.276261329650879
-1.0293656587600708 0.7429864406585693 1.0302679538726807
1.3526408672332764 0.15177948772907257 -1.24030601978302
2.2065491676330566 -0.2767813801765442 -0.8340834379196167
-2.2959344387054443 -0.23093509674072266 0.4517999589443207
0.8580307364463806 0.2612900137901306 -0.24334260821342468
-1.4322757720947266 0.14749085903167725 -0.4778021275997162
-0.5931084156036377 -0.07168497145175934 -0.2936076521873474
-0.752006471157074 0.5997700095176697 0.072346530854702
0.6094898581504822 0.8552792072296143 0.5477829575538635
2.0246834754943848 0.26097458600997925 1.113196611404419
-0.9789343476295471 0.26890861988067627 0.8943010568618774
1.6347492933273315 0.03157950937747955 -0.32943689823150635
0.6969876885414124 0.4171537756919861 -0.2529391348361969
0.22385022044181824 0.697034478187561 0.2900705337524414
0.3816072344779968 -0.054588884115219116 -0.34411484003067017
-1.3719875812530518 0.5840014219284058 0.2734971344470978
1.091942310333252 0.7223836779594421 0.5023900866508484
0.06996448338031769 0.35583049058914185 0.841114342212677
0.08429024368524551 0.30930590629577637 -0.8821390867233276
0.3313896656036377 -0.35283178091049194 0.9691169857978821
0.9070141315460205 0.689017117023468 -1.028586506843567
-0.3202176094055176 -0.24892637133598328 -1.289525032043457
1.4790986776351929 0.05252721905708313 -0.3662635087966919
-0.5090135335922241 0.7338383793830872 0.7172540426254272
0.8750624060630798 -0.019809767603874207 -0.43442395329475403
1.9993788003921509 -0.32877466082572937 -0.5091760754585266
-1.5890405178070068 0.2950313687324524 -0.8579424619674683
1.7126063108444214 0.1711772382259369 1.2411441802978516
-1.63417387008667 0.14616897702217102 1.1287367343902588
1.846118450164795 -0.24098367989063263 -0.9814172387123108
1.1206711530685425 -0.1353987455368042 -0.47428736090660095
2.0651774406433105 -0.3253059685230255 -0.476336270570755
-0.8960779905319214 0.47517573833465576 0.6410996913909912
-0.2649281919002533 -0.16469351947307587 1.0751826763153076
-1.5046279430389404 -0.2077326476573944 -0.8692528009414673
0.11503178626298904 -0.33905401825904846 1.0034458637237549
1.2401422262191772 0.11337009072303772 0.5160926580429077
-1.0472948551177979 -0.05659371614456177 -0.1657831072807312
-0.603363037109375 0.6282392740249634 -0.6968196034431458
0.5065563917160034 -0.3571012616157532 -0.9214625358581543
-0.13324102759361267 0.8590118288993835 -0.6971483826637268
0.7462810277938843 -0.25868991017341614 -1.2646079063415527
1.9365243911743164 -0.19481228291988373 0.9532523155212402
-1.213366985321045 0.10122214257717133 -0.38665539026260376
0.8958725333213806 0.2784295082092285 -0.6581634879112244
0.8439112901687622 0.5271481275558472 -0.8770870566368103
-1.1040232181549072 0.8234942555427551 0.1743679642677307
-0.6767703890800476 0.8749946355819702 -0.13194961845874786
1.0356690883636475 -0.20490460097789764 0.3706575930118561
-1.4256677627563477 -0.28367936611175537 0.0048681097105145454
-1.3484069108963013 -0.3038703501224518 0.48388680815696716
-1.029101848602295 0.19258908927440643 0.06245686858892441
1.5998280048370361 0.3124053478240967 -0.9920059442520142
-2.5229837894439697 0.5690422654151917 -0.2599056363105774
1.5741652250289917 -0.10680174827575684 -0.43022578954696655
1.5134623050689697 0.5618382096290588 -0.6411003470420837
-0.8436263799667358 0.43383467197418213 -0.724830687046051
-1.6225309371948242 0.43764638900756836 0.572708010673523
-1.6879007816314697 0.6139571666717529 -1.1569234132766724
1.4098951816558838 0.14602728188037872 -0.15930761396884918
-1.0709502696990967 -0.10706952214241028 -0.12709857523441315
-0.929372251033783 0.9209048748016357 -0.4429630935192108
1.093863844871521 0.26683878898620605 0.4288500249385834
0.28273117542266846 -0.12239962816238403 0.03851642832159996
-0.13080620765686035 0.36929792165756226 -0.773960530757904
-0.25490522384643555 -0.16515952348709106 -0.10861489176750183
0.03793095052242279 -0.34888559579849243 -0.8618288040161133
1.1030629873275757 0.5562576651573181 1.0966053009033203
1.4252700805664062 -0.08432330191135406 -1.0344492197036743
1.9266351461410522 -0.08172942698001862 0.13605783879756927
-0.058098603039979935 -0.07337521016597748 -0.8138545751571655
0.28942421078681946 0.6380075812339783 0.6352168321609497
1.159799337387085 -0.35204291343688965 -0.521354615688324
1.453904390335083 0.01586836576461792 -0.09558174759149551
0.0667564868927002 0.36060458421707153 -1.2952238321304321
-0.5558030605316162 0.3619310259819031 0.9070430397987366
0.607525646686554 0.8037375211715698 0.11237034946680069
0.8368554711341858 -0.3452273905277252 -0.5433753728866577
-0.5393812656402588 0.4131448268890381 -0.6437585949897766
-0.6639016270637512 -0.031120091676712036 -0.8087420463562012
0.36410436034202576 0.736711323261261 0.8065196871757507
-1.5059051513671875 0.6355009078979492 1.1811988353729248
2.4700560569763184 0.2254466414451599 0.5310575366020203
0.7430720925331116 0.20590806007385254 0.11273318529129028
-2.1603293418884277 -0.14378538727760315 -0.2877286970615387
0.41653597354888916 -0.35207316279411316 0.46997812390327454
-1.2246991395950317 -0.31735455989837646 0.13880158960819244
2.0891432762145996 -0.01350414752960205 -0.13329337537288666
0.7708154320716858 0.4085230827331543 0.12532222270965576
-1.7340009212493896 0.7571173310279846 0.39553239941596985
-0.08259645104408264 0.9377316832542419 -0.3989233076572418
-0.494330495595932 0.12580320239067078 -0.5688989758491516
1.3992888927459717 0.2640450596809387 -0.4351644814014435
1.6627029180526733 0.06108744442462921 -0.3094923794269562
-0.35199981927871704 0.32017797231674194 -0.8941879272460938
1.0209393501281738 0.12006025016307831 -1.3004626035690308
-1.7540031671524048 -0.14296503365039825 0.7923951148986816
-1.0453137159347534 0.4421117305755615 -0.6341016292572021
1.159691572189331 -0.20782119035720825 -1.0219193696975708
-0.8630416989326477 0.8548066020011902 0.7926535606384277
1.2927954196929932 0.24377495050430298 0.7183329463005066
-1.6101160049438477 -0.3241042494773865 0.5880835056304932
1.3829584121704102 0.6361119151115417 0.2146410048007965
-1.5040100812911987 0.7931106686592102 -0.763646125793457
-0.87380051612854 -0.31605064868927 0.6793417930603027
-1.2947098016738892 0.033335208892822266 -1.193268060684204
0.20663200318813324 -0.3507411479949951 0.9177212715148926
-1.097941517829895 0.02039813995361328 -1.129693865776062
0.30969250202178955 -0.357694536447525 -0.5251686573028564
1.92050039768219 0.15780217945575714 -0.3983452320098877
0.26691868901252747 0.5035358667373657 -0.39803847670555115
0.32413312792778015 0.00523810088634491 0.2125377655029297
-1.2863401174545288 -0.4115043878555298 -1.1701624393463135
-1.2942131757736206 0.26666536927223206 -0.051269982010126114
-0.8951289057731628 -0.27521681785583496 -1.062343955039978
-1.4699538946151733 0.652860164642334 -0.6642151474952698
-1.122735857963562 -0.22684744000434875 -0.9221686720848083
-1.102123737335205 -0.34026968479156494 -0.14257407188415527
0.7001903653144836 0.21515260636806488 -0.9306795597076416
-0.19682258367538452 0.5105013251304626 -0.9528802037239075
1.73295259475708 -0.10552875697612762 -1.2760050296783447
2.0836808681488037 0.4943215250968933 0.07162979245185852
0.572418749332428 -0.3494083881378174 0.9014649391174316
-0.8230798244476318 0.7373456954956055 -1.2223892211914062
-1.0514936447143555 0.8562166094779968 0.03233112767338753
-1.905470848083496 -0.23258614540100098 0.5527143478393555
0.4099510610103607 -0.35980308055877686 -0.29043272137641907
-0.9579781293869019 0.5332016944885254 -0.8586806654930115
-1.9265897274017334 0.3376408815383911 -0.3403787314891815
1.3420578241348267 0.6241687536239624 0.4927937090396881
-0.5045769214630127 0.5275090932846069 -1.33324134349823
0.29715704917907715 -0.36119070649147034 -0.2486811727285385
1.7669438123703003 0.1619650423526764 0.1867920160293579
0.0888974666595459 0.02150779962539673 -0.8737519979476929
-0.8554056286811829 0.5242756009101868 1.1513476371765137
-0.6125756502151489 0.05471475422382355 0.10442943125963211
-0.5109468102455139 0.23681406676769257 -0.7687208652496338
0.38860949873924255 -0.35707199573516846 -0.48569729924201965
2.2486584186553955 -0.2893984317779541 0.48717671632766724
-0.18790118396282196 0.9168088436126709 0.5377185344696045
-0.08111247420310974 0.5022338628768921 -0.19367505609989166
-0.9107449054718018 -0.12134987115859985 -1.1399043798446655
1.0634355545043945 0.4074052572250366 -0.5757933259010315
0.5599529147148132 -0.3235739469528198 -1.3640975952148438
-1.2950260639190674 0.20721332728862762 -0.7021676898002625
0.8766646981239319 -0.11193488538265228 0.8252741098403931
-1.6118953227996826 0.10358926653862 0.23229451477527618
-0.38292843103408813 0.20941215753555298 -0.2967512905597687
1.248905062675476 -0.10161623358726501 -0.6535831093788147
1.659639596939087 -0.32523030042648315 -0.0010098274797201157
-1.3846461772918701 0.05972990393638611 -0.04799453541636467
1.032020092010498 -0.3411916196346283 0.24265693128108978
0.666229784488678 0.04883727431297302 0.2636905014514923
1.5544347763061523 -0.05039292573928833 -1.2707321643829346
1.7378700971603394 0.07183277606964111 0.33237209916114807
-1.1227878332138062 0.5072026252746582 -0.8942191004753113
-0.8891298770904541 0.865962564945221 -0.3023582696914673
-1.7480305433273315 0.33778586983680725 0.12119793146848679
-0.9159514307975769 0.3426629602909088 0.6268892288208008
-0.7804831266403198 -0.17547094821929932 -0.7262193560600281
-0.02207557111978531 -0.3554963767528534 -0.2627461850643158
-0.33710071444511414 0.940898597240448 0.43882837891578674
2.2366182804107666 0.2779139280319214 0.3035967946052551
0.7790994644165039 0.76165771484375 -0.6485221982002258
1.5036723613739014 -0.116961270570755 1.2679871320724487
0.5117993950843811 -0.37773019075393677 -0.7780457139015198
1.8092586994171143 -0.3405728340148926 0.2622377276420593
1.0954034328460693 -0.2762167155742645 -1.2917063236236572
2.196085214614868 -0.1236155778169632 0.28255048394203186
0.8076868057250977 -0.41187673807144165 -1.0420567989349365
0.5827335119247437 -0.14031557738780975 -0.18297705054283142
0.2852415442466736 0.16547352075576782 0.34290868043899536
-0.22274941205978394 0.19901275634765625 -0.024888094514608383
-1.4316623210906982 0.7898547053337097 -0.5560300350189209
1.0865824222564697 -0.07923868298530579 0.04718087241053581
1.254972219467163 0.2958630919456482 -0.8078809380531311
0.5194308757781982 0.16496706008911133 0.15414856374263763
0.8527803421020508 -0.32722994685173035 -1.279358148574829
-0.0974331945180893 0.22079317271709442 0.679931104183197
2.1762020587921143 0.1576734185218811 0.5620677471160889
-1.978413701057434 -0.14047862589359283 0.08515682071447372
0.7104949355125427 0.02449098229408264 -0.5969009399414062
-1.0848886966705322 0.635027289390564 -0.27453863620758057
1.2963900566101074 -0.14694294333457947 -0.7462332248687744
1.111565113067627 0.7386467456817627 0.30457890033721924
-0.10449574887752533 0.8930842876434326 -0.5576579570770264
-0.1278514564037323 0.4346216917037964 0.06482632458209991
-0.35163062810897827 0.4376925230026245 0.6764741539955139
-0.28078407049179077 -0.3496098518371582 -0.6906546950340271
-0.02339022606611252 0.9009816646575928 0.19817465543746948
0.13316066563129425 0.9076604843139648 0.29259681701660156
1.9460145235061646 0.10431276261806488 0.3979385495185852
-0.6252726316452026 0.5655069351196289 -1.239542007446289
2.1646525859832764 -0.32729849219322205 -0.09061264991760254
1.3793028593063354 0.5445762276649475 -0.7874805927276611
-0.6768041849136353 0.5657345056533813 0.7992035150527954
-0.9579052925109863 -0.34026312828063965 -0.10852891206741333
1.5742855072021484 0.00839357078075409 -0.6381931304931641
1.1135008335113525 -0.10452412068843842 -0.24394644796848297
0.8120139837265015 -0.1832222044467926 -0.544907808303833
1.2096869945526123 0.30730506777763367 0.5469673871994019
0.7349834442138672 0.40690749883651733 -0.18096370995044708
0.5189341902732849 0.3377971649169922 -0.5893425345420837
-1.1802915334701538 0.08929291367530823 -0.5583280324935913
-0.872783899307251 -0.09711459279060364 -0.24649740755558014
-0.6897608637809753 -0.40780359506607056 -0.28791797161102295
0.15383008122444153 0.9546911716461182 0.6368638277053833
2.399716377258301 -0.10395140945911407 0.2853368818759918
-0.04701928049325943 0.09494635462760925 0.8836918473243713
2.5427911281585693 -0.30366677045822144 -0.6796693205833435
-0.8081175088882446 0.30037930607795715 -0.1691489964723587
1.3021939992904663 0.5909261107444763 -0.769630491733551
-0.39318835735321045 -0.2528493404388428 0.05569221079349518
1.1092122793197632 0.556876003742218 0.10706382244825363
0.14619585871696472 0.6025190949440002 1.0690349340438843
0.13958512246608734 0.9125399589538574 0.4663254916667938
-0.6610735058784485 -0.31898847222328186 1.1368803977966309
0.9456709027290344 0.4829268157482147 0.7569143176078796
1.9287618398666382 -0.12722371518611908 -0.07074792683124542
0.12253601849079132 -0.14686566591262817 0.24010802805423737
-0.284903883934021 -0.35915982723236084 -0.41972246766090393
-0.7501481175422668 -0.1359555721282959 0.6294845342636108
-1.540342092514038 -0.2014904022216797 -0.5049643516540527
2.074164867401123 0.43779826164245605 -0.040987156331539154
-0.26551687717437744 -0.3486213684082031 0.42664575576782227
1.3186302185058594 0.2505089044570923 -0.15519289672374725
0.536069393157959 0.6932755708694458 -0.28548210859298706
-2.500485897064209 -0.08093574643135071 -0.5992814302444458
-0.05045827105641365 0.7944018840789795 0.21242880821228027
0.7330588102340698 0.6144288778305054 0.3050939738750458
1.7218633890151978 0.5106680393218994 0.46351781487464905
-0.3464081883430481 0.8042949438095093 0.22838954627513885
-1.0776166915893555 -0.04102545976638794 0.7200115323066711
0.44921594858169556 -0.15585480630397797 -0.48808667063713074
2.1151347160339355 0.2999108135700226 0.7379268407821655
1.1214985847473145 0.13955247402191162 -0.7830020785331726
-2.1637725830078125 0.7376530170440674 -0.006339496001601219
-0.43810272216796875 0.0020253360271453857 0.4118008017539978
1.8305109739303589 0.010024681687355042 -0.6130298972129822
0.3904397189617157 0.6950157880783081 0.09847070276737213
-1.3603373765945435 0.5061159133911133 -0.22160103917121887
-0.4851066470146179 0.17482894659042358 -0.2518848478794098
0.24742786586284637 -0.03728726506233215 -0.9960548877716064
-1.0437170267105103 -0.329227089881897 -0.21259553730487823
1.2646042108535767 -0.1482877880334854 0.24596206843852997
-0.14767003059387207 0.9207401275634766 0.09250333905220032
-0.3515584468841553 -0.2280714064836502 0.4089067280292511
1.2918657064437866 -0.15202942490577698 -0.11766684055328369
-0.8841338157653809 0.7075279355049133 0.9238632321357727
-0.5290509462356567 0.901485025882721 -0.4346961975097656
-0.5469852685928345 -0.0534062385559082 0.5376147031784058
-0.7410606741905212 0.5304287672042847 -0.5727007985115051
-0.44095927476882935 -0.2942171096801758 0.16701364517211914
0.29025688767433167 0.8387476205825806 -0.13965891301631927
0.8596907258033752 0.11344942450523376 0.35535693168640137
2.585434675216675 -0.08153535425662994 -0.0964110866189003
-1.151218056678772 -0.1431606411933899 -0.06592558324337006
1.3305349349975586 -0.027104690670967102 -0.3153693974018097
-1.1665148735046387 -0.001930832862854004 -0.5757409334182739
-0.5798477530479431 0.4496931731700897 -0.15692657232284546
-0.743127703666687 -0.3412056267261505 -0.797760009765625
-1.7465500831604004 0.5653266906738281 0.7045261859893799
-0.6966084241867065 0.8994596004486084 0.9163102507591248
-1.0843114852905273 -0.280818372964859 -1.0093508958816528
0.5173671245574951 0.8557080626487732 0.738324761390686
-0.6118062138557434 0.5420626997947693 -1.033477783203125
-0.07821917533874512 0.321696937084198 -1.115159034729004
2.1394898891448975 0.41461509466171265 0.2504085600376129
-0.03321126848459244 0.02168259024620056 -0.8670112490653992
1.6624644994735718 -0.3441689908504486 0.5378386378288269
-0.2532753348350525 -0.35235053300857544 -0.3537413775920868
-1.2938456535339355 0.3989558815956116 -0.6984249353408813
-1.3558791875839233 -0.031163424253463745 0.3770768642425537
-0.3099653720855713 0.7014332413673401 1.165830373764038
1.3361830711364746 -0.1998104453086853 0.5169569253921509
1.224302053451538 -0.29423412680625916 0.8623443245887756
1.1434659957885742 0.1220245212316513 -0.24948634207248688
-1.2709332704544067 0.033815011382102966 -0.8128352165222168
-0.29008954763412476 0.3078438639640808 -1.20220947265625
-2.287747621536255 0.7322608828544617 0.661596417427063
0.1660010814666748 0.12135936319828033 -0.1534215807914734
1.991189956665039 0.5100933909416199 -0.438397079706192
1.2278496026992798 -0.3334004878997803 -0.9150524735450745
0.9182472229003906 -0.3363863229751587 -1.0505189895629883
0.2905762493610382 0.7917338013648987 -0.8190388083457947
-2.372549533843994 0.533604085445404 0.027174385264515877
0.8086441159248352 -0.3651083707809448 0.3154589533805847
0.3335227072238922 0.25612741708755493 1.2776288986206055
-2.0462417602539062 -0.09110128879547119 0.5315201878547668
0.8580211997032166 -0.14058049023151398 0.5684090852737427
0.6460574269294739 0.2512391209602356 -0.2588862180709839
-1.2176939249038696 0.3359566330909729 -0.44994401931762695
0.4398174285888672 0.554373025894165 -0.20966202020645142
0.6384064555168152 -0.36508825421333313 -1.0922733545303345
0.6531397104263306 -0.3480634093284607 0.47302961349487305
0.48303383588790894 0.826436460018158 0.9870600700378418
-0.5789451599121094 0.6470810770988464 -0.27984824776649475
-0.89476478099823 0.8149815201759338 0.6863487362861633
-1.0110816955566406 -0.3516499400138855 0.6159859895706177
0.8174326419830322 -0.08337008953094482 -0.8634196519851685
-0.6776465177536011 -0.03358808159828186 1.1762537956237793
-0.797612190246582 0.8479820489883423 -0.060760706663131714
1.9549239873886108 0.16784539818763733 0.7639425992965698
-0.4126940369606018 -0.3364351689815521 0.2952951490879059
-0.21100187301635742 0.03889144957065582 -0.10236714035272598
-0.9006435871124268 -0.33199334144592285 -0.9290869235992432
-0.24011865258216858 -0.15844926238059998 0.35139188170433044
-1.138441562652588 -0.28133833408355713 0.9387355446815491
-1.3801065683364868 0.5069286227226257 -0.14018157124519348
0.12987805902957916 0.2767888903617859 -0.8495818376541138
1.7029411792755127 0.0014964640140533447 0.7469589114189148
1.1380594968795776 0.7195447683334351 0.0629194900393486
-0.7583897113800049 0.9090360999107361 -0.2505902051925659
0.5383261442184448 0.2376575618982315 0.09096787124872208
-0.6780756711959839 0.6530743837356567 0.25554659962654114
-1.2513542175292969 -0.11000674962997437 0.3082200288772583
0.47086435556411743 -0.3542286455631256 0.1727004051208496
0.95737224817276 0.14356151223182678 -0.2398935854434967
1.873656988143921 0.4823908805847168 0.28245308995246887
0.5895084142684937 -0.3615318834781647 0.21934901177883148
1.31137216091156 0.6572455763816833 -0.40398332476615906
-0.9209235906600952 -0.2598208487033844 1.2077521085739136
0.27639588713645935 0.3938834071159363 0.7522978186607361
1.971604347229004 -0.01734989881515503 0.8078462481498718
-2.4699196815490723 0.6986436247825623 0.22120323777198792
-0.7376999855041504 -0.18934111297130585 1.2006572484970093
0.8131058216094971 -0.3583526313304901 -0.7331107258796692
1.2601057291030884 0.16074392199516296 0.27264538407325745
0.14921939373016357 0.47287482023239136 0.6495156288146973
-1.3763927221298218 0.820969820022583 -0.04178256914019585
-0.774556577205658 -0.16666580736637115 -0.8264017701148987
-0.9532473087310791 0.5256814956665039 1.0023366212844849
-1.2493581771850586 -0.2512502372264862 0.5264518857002258
1.5854358673095703 0.5715975761413574 -0.08998998254537582
0.9635010361671448 -0.055799439549446106 -1.2694646120071411
-0.29416435956954956 0.2772999405860901 -1.1642343997955322
-0.6159335374832153 0.46480292081832886 0.866073727607727
-0.9057633876800537 0.6161418557167053 -0.22965885698795319
-0.06656968593597412 0.29434776306152344 -0.9246701002120972
-0.10212062299251556 -0.37130942940711975 -0.28391915559768677
1.9184404611587524 0.015842556953430176 -0.102825827896595
-1.7210975885391235 0.6079930067062378 -1.2385345697402954
-1.4344829320907593 0.8130336403846741 -0.37645137310028076
1.487611174583435 -0.33838900923728943 -0.16369564831256866
-1.4876642227172852 0.20433127880096436 0.16269081830978394
-1.4980721473693848 -0.19661344587802887 0.03921070322394371
-0.12449660897254944 0.93076092004776 0.2838253676891327
-2.4111900329589844 -0.12489813566207886 -0.030627626925706863
-0.7477409839630127 0.44322264194488525 -0.5571861267089844
-1.4434312582015991 -0.2805856764316559 -0.42482537031173706
0.4040048122406006 0.13337326049804688 -1.3214662075042725
1.4248340129852295 0.25649207830429077 -0.5968942046165466
-1.5534923076629639 0.46857208013534546 0.002099858596920967
0.5107337236404419 0.047034770250320435 -0.5023772120475769
1.4460843801498413 0.058220624923706055 -0.11908575147390366
1.0221295356750488 -0.17984402179718018 -0.8300368785858154
-1.9292036294937134 0.15523262321949005 -0.5232797265052795
1.0840094089508057 0.3984220027923584 -0.591870129108429
-0.5088045001029968 -0.05129106342792511 -0.13595886528491974
1.2876497507095337 0.5660098791122437 -0.47601956129074097
0.6044864654541016 0.11649534106254578 0.6134847402572632
0.5556698441505432 0.8805038928985596 0.40249520540237427
-1.0201914310455322 0.6205087304115295 -0.6064901351928711
-1.1949138641357422 0.31300896406173706 -0.48246222734451294
1.2483166456222534 0.6529121994972229 -0.6960615515708923
1.902297854423523 -0.3343876600265503 0.2807452082633972
-0.7856400609016418 0.513579249382019 0.10100287944078445
1.3339523077011108 -0.11708150804042816 0.5486604571342468
0.07205977290868759 0.9096350073814392 -0.21113881468772888
-0.5846518278121948 0.15886659920215607 -0.7300196886062622
-2.2312819957733154 0.06620512902736664 0.413894921541214
-1.7280924320220947 -0.14271016418933868 0.7301893830299377
1.5528241395950317 -0.33377161622047424 1.2277461290359497
-0.44531893730163574 -0.08837386965751648 0.5256273746490479
0.053141094744205475 -0.35891979932785034 0.32480141520500183
-0.5275054574012756 0.6934065818786621 0.32692810893058777
0.6577621102333069 0.27389103174209595 -0.6724128127098083
1.0352916717529297 -0.311320960521698 -0.9662743806838989
-0.18191936612129211 0.39408332109451294 -1.261361837387085
1.4717459678649902 -0.12194947898387909 0.06693645566701889
0.5703681707382202 0.11885684728622437 1.020283818244934
1.185565710067749 0.3325915038585663 0.504490852355957
-0.08852909505367279 0.45121362805366516 0.1951882541179657
-2.6430130004882812 0.5734407305717468 0.9743427038192749
-1.787180781364441 -0.25166335701942444 -0.02011498436331749
1.4350792169570923 -0.34082090854644775 0.10483988374471664
0.21121495962142944 0.4694322943687439 1.0176188945770264
2.753389358520508 0.05745358392596245 -1.2526257038116455
1.5817463397979736 0.17247770726680756 0.17291365563869476
0.7488834261894226 0.1901049017906189 -0.6175822019577026
0.23693113029003143 0.5443994998931885 1.29281747341156
-1.5889018774032593 0.6451447010040283 0.05277067422866821
-1.911911964416504 0.2554502487182617 0.00885664764791727
0.310444176197052 0.5165697336196899 0.4486130177974701
1.1640475988388062 0.017086148262023926 -0.08133799582719803
-1.1441768407821655 0.8315348029136658 -0.051887597888708115
0.37593114376068115 0.3039040267467499 -0.20073044300079346
1.4370754957199097 -0.3485557436943054 -0.0006278925575315952
-1.2436954975128174 0.7774620056152344 -0.6592645049095154
-1.9691869020462036 -0.2217879295349121 0.8061390519142151
1.2945188283920288 -0.3433976173400879 0.5071923732757568
0.38077419996261597 -0.056810155510902405 -0.03283765912055969
-1.9415934085845947 0.33540916442871094 0.6929223537445068
1.4550023078918457 0.6036562919616699 1.1250357627868652
1.7639089822769165 0.4850805401802063 0.618314266204834
-0.019824765622615814 -0.374031126499176 -0.9388154745101929
1.5344034433364868 -0.35766083002090454 -0.3621467351913452
1.7388570308685303 0.40101122856140137 1.2236026525497437
0.4893880784511566 -0.061595022678375244 -0.28642258048057556
-1.4778918027877808 0.5188855528831482 -0.18859080970287323
-0.03790390118956566 0.1797175407409668 0.8072969913482666
-0.36301684379577637 -0.05603340268135071 -0.23311863839626312
-2.3622679710388184 -0.063993901014328 -0.5843947529792786
-0.44574594497680664 -0.3157738447189331 0.9214759469032288
0.11188667267560959 0.8927994966506958 0.03724437952041626
0.9970542788505554 -0.16621547937393188 0.6355183720588684
0.024449151009321213 0.6556230783462524 -0.820864200592041
1.1591265201568604 0.7175166606903076 0.12950655817985535
0.18689462542533875 0.312383770942688 -0.34726911783218384
-0.433979868888855 -0.12381631135940552 1.226245403289795
0.8358532786369324 0.4783700704574585 0.026360997930169106
-1.6306970119476318 -0.007764652371406555 0.11317011713981628
-0.22332444787025452 0.4092937707901001 0.11192280799150467
-0.8410008549690247 0.5352336168289185 0.0720740407705307
0.9839110374450684 -0.35607749223709106 0.02391189895570278
-1.1271997690200806 0.4446168541908264 -0.6095920205116272
-0.856540858745575 0.7434781789779663 -0.6996842622756958
-0.7417179346084595 0.5456452369689941 0.9398643374443054
-0.493070125579834 -0.25017470121383667 -0.36802172660827637
1.320582389831543 0.38200613856315613 1.0246068239212036
1.0729506015777588 0.30641984939575195 -0.11175394803285599
-1.5901262760162354 0.13060510158538818 1.1376837491989136
0.1337566375732422 0.23597067594528198 0.4908513128757477
1.4897867441177368 -0.3491452634334564 0.9875807166099548
-2.1055970191955566 0.3768343925476074 1.0519976615905762
-1.8904629945755005 -0.022275149822235107 0.9744275808334351
2.6591336727142334 -0.284978985786438 0.21869651973247528
0.7452938556671143 -0.02845516800880432 1.3621989488601685
0.39933112263679504 0.696550726890564 -0.4608171284198761
-0.14413277804851532 0.6263846158981323 0.6823464632034302
0.6768004298210144 -0.05055026710033417 1.0418319702148438
-2.202536106109619 0.6755631566047668 0.7588228583335876
0.47888678312301636 -0.09533856809139252 1.3205186128616333
-1.7458158731460571 0.36289674043655396 -0.6168187856674194
0.11971312016248703 0.8965151906013489 -0.6038077473640442
1.5032131671905518 0.12665493786334991 -0.6904792189598083
1.3118727207183838 0.5410788655281067 -0.22663897275924683
1.648625373840332 0.2082015722990036 0.8666256070137024
1.598726511001587 -0.11958219110965729 0.2454064041376114
1.5264874696731567 -0.4443659782409668 1.102683424949646
-0.6857105493545532 -0.35419392585754395 -0.5157933235168457
-1.5815426111221313 -0.16323545575141907 0.7609117031097412
-0.5980944037437439 -0.19521954655647278 -0.33282509446144104
1.2380019426345825 -0.3731098175048828 0.14873170852661133
-1.5184539556503296 0.8078793883323669 -0.26520103216171265
-0.2739381194114685 -0.14003054797649384 -0.25710800290107727
1.9656931161880493 0.24899893999099731 -0.07661475241184235
1.3662021160125732 0.44963282346725464 0.7456350326538086
1.0019818544387817 0.23477956652641296 -0.2809326648712158
0.12374162673950195 0.545763373374939 0.18146757781505585
-0.9137359857559204 0.14153988659381866 0.3054662048816681
1.2386130094528198 -0.34201452136039734 0.034094855189323425
-0.5417011976242065 0.5618224143981934 -0.8368831872940063
-0.5714461207389832 -0.11153371632099152 -0.1685066819190979
0.267327219247818 0.18720895051956177 1.0167064666748047
0.31027135252952576 -0.177211731672287 -0.7269255518913269
-0.6794846653938293 0.4790939688682556 -0.8558049201965332
-1.0661494731903076 -0.3159143030643463 0.7366779446601868
0.5152493715286255 -0.08439736068248749 1.0093337297439575
0.6826512813568115 0.8493658304214478 0.3797248601913452
1.925323247909546 -0.29971081018447876 -0.4206201136112213
0.9771355986595154 0.7851607799530029 -1.0385181903839111
1.8513493537902832 -0.33068591356277466 -0.33818677067756653
0.11729592084884644 0.6189119815826416 -0.774647057056427
1.2048025131225586 0.41220998764038086 0.717684805393219
-2.5896072387695312 0.2057315707206726 -0.8383234739303589
0.8155792951583862 0.3646451532840729 1.001785397529602
0.9859335422515869 0.15104706585407257 -1.2509422302246094
-0.08227072656154633 0.9016357660293579 -0.3593604564666748
-0.9454078078269958 -0.34198927879333496 -0.4745027422904968
0.8242263793945312 -0.15596604347229004 0.29362952709198
1.9891438484191895 0.2585454285144806 -0.00852152332663536
-2.1363463401794434 0.4665205180644989 -0.3706073760986328
-0.6193526387214661 -0.08340814709663391 0.39534392952919006
-0.415392130613327 0.18305446207523346 -0.615821361541748
-0.780387818813324 0.06149566173553467 -0.5110357999801636
-0.294487863779068 0.014787048101425171 -0.5560692548751831
-1.1127151250839233 0.6710343956947327 -0.19610540568828583
-1.8075884580612183 -0.11604538559913635 -0.8187562823295593
1.1530816555023193 0.4412241280078888 -0.1964704543352127
1.6700890064239502 -0.34010475873947144 -0.5788388848304749
-1.3696839809417725 0.08676263689994812 0.2819107174873352
-1.1045938730239868 0.7020781636238098 0.8798033595085144
2.1855292320251465 0.4454021155834198 -0.20050716400146484
1.2456135749816895 0.5570393204689026 0.9498236179351807
1.4566088914871216 0.1675110012292862 0.9369990825653076
1.0989277362823486 -0.070203498005867 0.7064698934555054
0.9697665572166443 0.29748621582984924 -0.7180535793304443
-1.6476984024047852 -0.15004919469356537 -0.1083480715751648
-0.8959041237831116 0.5881118774414062 -0.05709565058350563
-0.5468271970748901 -0.06487438082695007 0.6727181077003479
1.9960813522338867 -0.3519148826599121 0.1719949096441269
-0.6934843063354492 0.6723991632461548 -0.9747251272201538
1.1973206996917725 -0.06215910613536835 -0.041722074151039124
1.9177100658416748 0.46428626775741577 0.3681081235408783
-0.15925778448581696 0.9551493525505066 0.15827816724777222
-1.1446678638458252 -0.029511690139770508 -0.40260133147239685
-0.6580783724784851 0.8100343942642212 -1.478744626045227
-1.6624010801315308 -0.1753862500190735 -0.30983299016952515
-2.547426223754883 -0.07565319538116455 -0.805722713470459
1.0039254426956177 0.26927450299263 0.7715895175933838
-1.2739466428756714 -0.28598305583000183 -0.6224678158760071
0.09903020411729813 -0.1726589798927307 -0.3616635799407959
-1.8715007305145264 0.41088253259658813 0.6657439470291138
1.1566758155822754 0.2529999911785126 -0.0357019267976284
-0.47962120175361633 0.7006587982177734 0.8305999636650085
-0.7600323557853699 0.8855516910552979 0.5341745018959045
1.0601906776428223 0.12597694993019104 0.16706636548042297
0.9941861033439636 -0.35548749566078186 -1.1480997800827026
2.1790430545806885 0.23762761056423187 0.6704890131950378
0.8490980267524719 -0.36533939838409424 0.5746418237686157
-1.626914143562317 0.15865057706832886 -0.8230209350585938
-0.6784236431121826 -0.16334986686706543 1.143782377243042
-1.335671305656433 -0.08265934884548187 -0.6567525863647461
-1.3394705057144165 -0.11681589484214783 0.1906483918428421
-1.1005765199661255 -0.19774918258190155 0.9359878301620483
0.11538416147232056 -0.16351118683815002 -1.102677583694458
0.6490670442581177 -0.07886554300785065 0.0748424082994461
-1.318121075630188 0.5960595607757568 0.340029239654541
-1.5102245807647705 -0.29378053545951843 0.08580458164215088
1.3906553983688354 -0.25216996669769287 0.6146490573883057
0.6658139824867249 -0.3599857687950134 -1.2097439765930176
-1.9655795097351074 0.24539238214492798 0.5039770007133484
1.821270227432251 -0.3387413024902344 0.18821245431900024
0.464478999376297 0.19451163709163666 -0.01568584330379963
-1.0828883647918701 0.33951327204704285 0.2039315104484558
-0.15248551964759827 0.3607299029827118 0.4495927691459656
-0.18907220661640167 -0.35212674736976624 0.52910315990448
-0.9019713997840881 0.755912721157074 -0.7080745100975037
-1.7074565887451172 0.1728157252073288 0.3861531615257263
-0.6490994691848755 0.22591422498226166 0.3681207597255707
-0.9637906551361084 0.8682483434677124 0.4822755455970764
0.9850380420684814 0.5772272944450378 1.0883424282073975
-0.7019258141517639 -0.1628139168024063 -0.014207890257239342
-2.1812267303466797 0.20210352540016174 -1.1134834289550781
-0.9077473878860474 0.8974288105964661 -0.24059711396694183
-0.6115176677703857 0.4542046785354614 -0.7859394550323486
1.9075807332992554 -0.31769484281539917 -0.6382908821105957
1.5494327545166016 -0.13413818180561066 -0.4221305549144745
-1.349179983139038 0.020551174879074097 0.30369043350219727
1.476900577545166 0.09742571413516998 -0.2520490884780884
1.5838439464569092 0.2390734851360321 -0.670566976070404
1.4183032512664795 -0.22276796400547028 1.315048098564148
1.1298415660858154 0.3936246335506439 -0.3022896647453308
-0.45796093344688416 -0.27945590019226074 -1.3036636114120483
-0.4127305746078491 0.39613521099090576 0.6048181056976318
-0.13794468343257904 0.8749215602874756 -0.37011829018592834
-0.8901103138923645 0.16379116475582123 0.4094887971878052
1.4327220916748047 -0.06651204824447632 -0.4587719440460205
1.8157483339309692 -0.15141354501247406 1.1956892013549805
2.046269416809082 0.32360363006591797 0.45791882276535034
-0.07265680283308029 -0.05315375328063965 0.8419834971427917
0.06780404597520828 0.45374035835266113 -0.30693140625953674
-1.0247455835342407 0.6529716849327087 0.020175684243440628
0.09681086987257004 -0.1620575338602066 1.2431230545043945
-0.6206378936767578 -0.04248151183128357 -1.0065456628799438
-0.38110050559043884 0.3152904510498047 -0.4978832006454468
-1.7607425451278687 0.5141977667808533 1.008870244026184
1.7335460186004639 -0.004453375935554504 0.12726286053657532
2.0807926654815674 -0.31416016817092896 -0.45918625593185425
-1.517534852027893 0.03231795132160187 0.12281873822212219
-1.7023924589157104 -0.02739788591861725 -0.8375981450080872
-1.3414605855941772 -0.008118823170661926 0.5218104124069214
1.4915679693222046 0.5879614949226379 -0.3283658027648926
1.3154455423355103 -0.2032390683889389 0.8445839881896973
-1.0654467344284058 0.3376518487930298 0.08687737584114075
-1.58843994140625 0.5722059607505798 1.0716552734375
0.6794741153717041 -0.34926730394363403 0.48014670610427856
-1.3902738094329834 0.6522508859634399 -1.2115119695663452
0.617461621761322 0.7617374062538147 0.6625096797943115
-1.3936395645141602 0.2443273961544037 0.2339947372674942
0.9540900588035583 -0.344207763671875 -0.42589375376701355
0.10336852073669434 -0.013082116842269897 -0.8214442729949951
-0.7333112955093384 -0.1095207929611206 1.2222096920013428
-0.5555380582809448 0.7573385834693909 -0.5898688435554504
0.8668831586837769 0.5379278063774109 0.10666900128126144
1.4538718461990356 -0.030411705374717712 -0.5214768648147583
1.2631220817565918 -0.34986305236816406 0.5653440952301025
0.45306921005249023 -0.36206334829330444 -0.7158999443054199
1.8749452829360962 0.48718905448913574 0.23881417512893677
-0.6397465467453003 -0.1629306823015213 0.280029833316803
0.6941414475440979 0.5087110996246338 -0.34696581959724426
-0.9487051963806152 -0.11404311656951904 -0.6965212225914001
0.3951645791530609 0.8228610754013062 -0.6469870805740356
2.5535295009613037 -0.333719402551651 -0.4396652281284332
1.3694392442703247 -0.14390765130519867 -0.13988149166107178
0.8582147359848022 0.7828972339630127 0.46699193120002747
-2.1872737407684326 0.40874412655830383 1.0911943912506104
0.35446837544441223 -0.3551098108291626 -0.8891794681549072
-1.3465838432312012 0.28822481632232666 0.8494740724563599
0.031034007668495178 -0.06455036997795105 -0.38067254424095154
-1.5072792768478394 0.25616878271102905 1.1466789245605469
-0.40937602519989014 -0.3298347592353821 0.8446982502937317
-1.5431392192840576 0.15548166632652283 -0.01354430615901947
-1.004235029220581 -0.31219884753227234 1.035394310951233
0.8597403168678284 -0.16140860319137573 0.0671273022890091
-1.5887151956558228 0.7231684327125549 0.8546602129936218
1.8637776374816895 0.18639416992664337 1.2212644815444946
1.7113250494003296 0.047930002212524414 -0.07802597433328629
1.7262954711914062 -0.33043015003204346 0.35234254598617554
0.7435950636863708 -0.3600229322910309 0.07278922200202942
0.13887497782707214 0.18137170374393463 0.8146820068359375
0.41168487071990967 -0.35439616441726685 -0.09188389778137207
0.14213155210018158 0.716067910194397 -0.6474657654762268
0.6866363286972046 0.539914608001709 -0.16900530457496643
-0.11758801341056824 -0.08602170646190643 -0.17530377209186554
0.3101126253604889 0.7528823614120483 0.11023961007595062
-1.5447301864624023 -0.188923642039299 0.9377607703208923
0.03740878403186798 0.4852484464645386 0.7395716309547424
-0.74068284034729 -0.1129150390625 -0.19863557815551758
0.978196382522583 -0.3554830551147461 -0.5751327276229858
1.416918396949768 0.26645928621292114 -0.7075620889663696
-1.0628986358642578 -0.33159109950065613 -0.010465211234986782
1.2190511226654053 -0.07537244260311127 0.009863065555691719
-0.9182857275009155 0.4061960279941559 0.954748809337616
-2.0270891189575195 -0.09203368425369263 -0.6506182551383972
-1.0526676177978516 0.1473848968744278 0.4127456247806549
0.24782924354076385 0.8784792423248291 -0.12738926708698273
1.0561439990997314 0.39704376459121704 -1.0692578554153442
-1.1488322019577026 0.4324597716331482 0.5051911473274231
2.036118984222412 -0.1533505916595459 0.7164745330810547
-1.5232211351394653 0.24939118325710297 -0.22481967508792877
0.6988957524299622 -0.0164288729429245 -1.054524540901184
2.313215732574463 -0.04640205204486847 -0.8699015378952026
-0.9886094927787781 0.26033568382263184 -0.5399243831634521
-1.1529170274734497 0.10994619131088257 0.004313061945140362
0.5072163343429565 0.011481493711471558 -0.06672155112028122
0.3359740674495697 0.6960608959197998 0.713646650314331
0.3678978681564331 -0.03647680580615997 0.13837489485740662
-0.9675994515419006 -0.21260036528110504 -0.6874538660049438
-1.1071969270706177 0.4469691514968872 -0.701286256313324
-1.7375396490097046 0.7623598575592041 -0.7621486783027649
-1.3165735006332397 0.20983991026878357 -0.8005208373069763
0.4555788040161133 -0.06879942119121552 -0.9239025712013245
-2.3172736167907715 0.5834837555885315 1.0079474449157715
1.2185544967651367 0.30438268184661865 -0.6254815459251404
-0.6352173686027527 -0.13291914761066437 0.5291275978088379
0.35635775327682495 0.7932449579238892 -0.6834561228752136
-0.013711176812648773 -0.08344078063964844 0.7235351204872131
-1.6353729963302612 -0.15431079268455505 0.6986708045005798
-0.42496824264526367 0.3106025457382202 0.18179115653038025
1.216562271118164 0.06903041899204254 0.18898682296276093
-0.09060733020305634 0.22250184416770935 0.9064587354660034
-0.1392839252948761 -0.3460642397403717 0.169387087225914
1.157430648803711 0.3116331100463867 -1.2616262435913086
3.230638265609741 0.17005199193954468 -0.16482768952846527
1.0483330488204956 0.5663653612136841 -0.8148271441459656
0.08672165125608444 -0.1316726952791214 0.46785223484039307
-0.1436288207769394 0.6456145644187927 -0.46685707569122314
-0.43685638904571533 -0.35402947664260864 -0.6110947728157043
-2.0312211513519287 -0.11357733607292175 0.16307540237903595
2.008554458618164 -0.30711305141448975 0.5566853880882263
-1.0889626741409302 0.7610673308372498 0.5942142605781555
-1.534571886062622 0.5406678318977356 -0.8130308389663696
1.5324907302856445 -0.12362946569919586 0.05735466629266739
1.9254924058914185 0.4712309241294861 0.4987657070159912
-0.9017752408981323 0.1365019679069519 -0.7755865454673767
0.22510692477226257 -0.2939208447933197 -1.343845009803772
0.5770974159240723 -0.15402838587760925 0.14034290611743927
