ply
format ascii 1.0
element vertex 824
property float x
property float y
property float z
end_header
-0.6878958940505981 0.7888460755348206 2.7585794925689697
1.6242743730545044 1.3728822469711304 -2.989443302154541
0.09298558533191681 0.13099689781665802 -2.419400453567505
0.09924827516078949 -0.07555092871189117 2.6377627849578857
-0.6512141823768616 0.5396673083305359 1.6748745441436768
-1.0935989618301392 0.8977991938591003 -0.739458441734314
0.4791197180747986 0.6052523255348206 -0.9183144569396973
1.370368242263794 -0.46228742599487305 1.8137692213058472
0.4518006443977356 -0.5242747068405151 -1.106689691543579
1.2003848552703857 0.5408341884613037 -2.099963426589966
0.5920921564102173 1.1613131761550903 -0.4507584571838379
-0.98446124792099 0.37351736426353455 1.300755262374878
-0.8538426160812378 -0.07802441716194153 -1.4345803260803223
0.5360933542251587 0.4003446698188782 -1.2309919595718384
-0.2700440287590027 0.08255475759506226 -1.223744511604309
-0.469524621963501 1.1576670408248901 1.1971523761749268
-0.7294642925262451 -0.7811598777770996 2.3336970806121826
0.08848902583122253 0.22084678709506989 1.161655306816101
-0.12859883904457092 1.17002272605896 -1.209958553314209
-0.9210752248764038 0.0192766934633255 1.5239125490188599
1.3461979627609253 1.332885503768921 -2.7941501140594482
-0.7721099853515625 1.2277674674987793 0.7032882571220398
0.15830329060554504 -0.17979516088962555 0.9628196358680725
0.14066509902477264 0.61093670129776 -0.9262076616287231
1.1116520166397095 -0.7895900011062622 2.2400732040405273
1.4259753227233887 1.373677134513855 -2.403841495513916
1.0962727069854736 -0.7521847486495972 -1.339873194694519
-0.571594774723053 0.8482370972633362 -2.843564748764038
1.6736643314361572 1.276444911956787 -0.10150957107543945
1.107144832611084 0.6422255039215088 0.4988445043563843
-0.7963032126426697 1.325898289680481 -2.9751970767974854
-0.8838983774185181 -0.7065547108650208 -1.9521689414978027
-0.056539349257946014 0.8275219202041626 2.6475744247436523
0.5372578501701355 1.1749507188796997 -1.4150488376617432
1.6278715133666992 1.3704564571380615 -2.7851507663726807
-0.9110732078552246 1.2727127075195312 -0.9176019430160522
-0.8592286705970764 1.2602221965789795 -2.4932374954223633
1.2483185529708862 0.904651939868927 2.761990547180176
1.3201571702957153 0.3339148163795471 -1.0862443447113037
-0.26349446177482605 -0.7499423027038574 -1.0938774347305298
-0.9294072389602661 1.2511916160583496 -2.259758472442627
-1.0470013618469238 1.4441150426864624 2.281838893890381
-0.4948197603225708 -0.7686097025871277 -1.297046184539795
1.5463159084320068 0.7871675491333008 -0.4339030385017395
1.5434904098510742 1.3257383108139038 0.7466543316841125
1.4996254444122314 1.385270357131958 -2.781283378601074
0.15517565608024597 1.1429498195648193 0.18967175483703613
-1.2492905855178833 1.076483130455017 0.094129279255867
0.5036696791648865 0.6283735632896423 -0.7902587056159973
0.47838935256004333 0.6416722536087036 2.079914093017578
1.4855543375015259 0.9004921317100525 1.6013438701629639
0.829526424407959 1.2587724924087524 -1.541170597076416
0.2681087255477905 -0.6444307565689087 -2.5875937938690186
1.306581974029541 -0.7640573382377625 -1.3850345611572266
1.0638978481292725 -0.0034492313861846924 -1.9428993463516235
-0.14036813378334045 -0.5094861388206482 2.4499194622039795
-0.898194432258606 1.2203896045684814 -2.1032791137695312
1.6949867010116577 1.31459379196167 -1.3774079084396362
1.2212390899658203 1.1848410367965698 -0.02323848567903042
-1.2461413145065308 1.4050922393798828 2.329709529876709
0.7167533040046692 0.6683673858642578 0.16272492706775665
1.2523013353347778 0.6102961301803589 -0.9025835394859314
1.595818042755127 1.426269292831421 2.4633171558380127
-0.4088061451911926 1.1685277223587036 0.02986249141395092
1.356473684310913 0.7021578550338745 1.7796391248703003
-0.1714012324810028 0.6271294355392456 0.36274516582489014
-0.22850094735622406 0.7962892651557922 2.523649215698242
-1.115443468093872 1.4021248817443848 -2.642249584197998
0.9756163358688354 1.1585795879364014 1.6327265501022339
-0.6977072954177856 1.1954045295715332 2.91864275932312
0.4752178490161896 -0.778002142906189 2.2561185359954834
1.6048719882965088 1.264108657836914 1.69085693359375
1.6772538423538208 1.3173052072525024 -1.1455498933792114
0.37280386686325073 -0.14135093986988068 0.9557257890701294
1.3236397504806519 0.493008017539978 1.3422515392303467
0.431278258562088 0.11446307599544525 0.9488325715065002
-0.9552987813949585 0.7897399663925171 1.4031213521957397
-1.1212255954742432 1.4548605680465698 2.5460879802703857
-0.0007592961192131042 0.4740075469017029 -2.4004485607147217
0.7931562662124634 1.3083748817443848 -2.919217348098755
1.1119635105133057 0.6341073513031006 0.33860084414482117
-0.9894804954528809 0.44585686922073364 0.9878256916999817
1.3582117557525635 0.7864830493927002 -2.1819047927856445
1.1274610757827759 -0.46426069736480713 -2.5806405544281006
0.21255207061767578 -0.32975250482559204 1.032889723777771
1.3003756999969482 0.8251062035560608 1.7177194356918335
0.8290802240371704 1.1784244775772095 1.6925914287567139
0.684618353843689 0.6802334785461426 0.20455387234687805
1.1085176467895508 -0.7119376063346863 -1.5445952415466309
-0.2617855668067932 0.6140555739402771 0.9420412182807922
1.5464035272598267 0.7898446321487427 -0.24866297841072083
0.15895682573318481 -0.10610824823379517 -2.4495279788970947
-0.18781962990760803 0.6349329352378845 -0.5882930159568787
0.6023855209350586 0.22486433386802673 -2.5163090229034424
0.4958159029483795 1.1560460329055786 -0.2300473302602768
1.1484993696212769 -0.6886505484580994 2.590320587158203
1.647497296333313 1.0521489381790161 1.8462564945220947
1.1558252573013306 1.0593849420547485 2.3305368423461914
-0.6702215671539307 1.1921595335006714 -1.7435988187789917
0.7370830774307251 -0.7192604541778564 -2.5782620906829834
1.5980172157287598 1.3999477624893188 -2.423719644546509
-0.39185693860054016 0.648989200592041 -0.7361041903495789
0.9551326632499695 0.638525128364563 -0.509534478187561
1.5789495706558228 0.9791655540466309 -1.7821730375289917
-0.5098479986190796 0.8830161094665527 -2.9458632469177246
1.3081709146499634 0.2309761643409729 1.359820008277893
-0.7362070083618164 0.67359459400177 -0.5531625747680664
0.4505169689655304 0.5923993587493896 -1.3085578680038452
-1.0077279806137085 1.0800608396530151 2.93758487701416
0.40038853883743286 1.1817253828048706 -1.584271788597107
-0.97011399269104 1.42914617061615 2.8893027305603027
0.7669131755828857 -0.7719706296920776 2.1905202865600586
-0.2800801694393158 0.16454583406448364 -2.391324281692505
-1.266893982887268 1.3095345497131348 -0.6463178396224976
-0.21374644339084625 0.20862242579460144 1.259958028793335
1.5534553527832031 0.7450136542320251 1.7284107208251953
0.4662756621837616 -0.7822403907775879 2.3642959594726562
-0.8697959184646606 -0.48675721883773804 0.9460631608963013
0.32752519845962524 0.5781461596488953 -1.1457446813583374
0.704837441444397 0.6137712597846985 0.12076402455568314
0.8646312355995178 -0.16279760003089905 2.5108089447021484
1.4303969144821167 1.3496818542480469 2.2134273052215576
1.657834529876709 1.3728525638580322 -1.809652328491211
0.9369559288024902 1.1599135398864746 2.391422986984253
1.5512224435806274 0.7940783500671387 -0.17372244596481323
0.40039312839508057 0.8977600336074829 2.7975029945373535
1.292853593826294 1.2483797073364258 -2.6252315044403076
1.3398823738098145 1.3273494243621826 -2.278540849685669
-1.2434818744659424 1.3563300371170044 -1.835925579071045
1.3691997528076172 1.3067626953125 -2.130581855773926
1.356906771659851 -0.11614160239696503 -2.3744454383850098
-1.25710129737854 1.1577308177947998 0.20793813467025757
0.44479554891586304 0.3075050115585327 2.1266984939575195
1.4888007640838623 0.8885686993598938 2.0058999061584473
-0.875074028968811 0.29691770672798157 2.1530401706695557
-0.9794290065765381 0.8837658166885376 -2.855523109436035
-0.7719482779502869 1.1772243976593018 -1.6488115787506104
1.3968786001205444 1.2634810209274292 1.7741303443908691
-0.7289845943450928 0.4018877148628235 -2.564359664916992
-0.669245183467865 0.7771115899085999 -2.6341006755828857
-0.47407296299934387 1.1554136276245117 -0.2989872694015503
-1.338051676750183 1.218484878540039 -1.3667091131210327
-0.4421619176864624 -0.40564191341400146 0.9498758912086487
0.6757568120956421 -0.7736542224884033 1.4223390817642212
0.9513851404190063 -0.7421563863754272 -2.0852982997894287
0.9311698079109192 0.017490774393081665 -2.090991735458374
-0.2990027666091919 1.2089260816574097 2.511636972427368
-1.2753180265426636 1.256654143333435 2.5287928581237793
-0.24781665205955505 1.1560859680175781 -2.143765926361084
-0.8191649317741394 1.1954222917556763 1.4728577136993408
0.9031797647476196 1.1570050716400146 1.5034372806549072
-1.0288528203964233 0.8703683614730835 -2.294656991958618
-0.4014933109283447 0.630078136920929 -0.8863744139671326
0.27729713916778564 -0.041405752301216125 2.6337127685546875
-0.09500063955783844 0.8123897314071655 -2.8793842792510986
0.7085715532302856 -0.34594959020614624 0.9626259803771973
-1.2303577661514282 1.3748518228530884 -0.4361600875854492
1.3407171964645386 0.19443118572235107 -1.2966198921203613
-0.3276960253715515 0.8272342085838318 -2.823791265487671
-0.2405470609664917 -0.7742900848388672 1.380367636680603
-0.9680941104888916 0.8479830026626587 -0.701775074005127
-0.38915351033210754 -0.051859140396118164 -1.1725833415985107
0.5773932337760925 -0.28699514269828796 2.4523251056671143
1.0390267372131348 -0.46423524618148804 -2.5654098987579346
-0.3134987950325012 -0.7674652338027954 -1.148145079612732
1.2795485258102417 -0.45313215255737305 -2.028787612915039
-0.16237926483154297 0.7939850091934204 -2.5904669761657715
-0.8262273669242859 0.8577629923820496 -2.6752254962921143
1.2924937009811401 0.6049546599388123 0.47081923484802246
-0.9987411499023438 1.3806169033050537 0.06621198356151581
-0.7591938972473145 0.3251548409461975 -1.8662470579147339
0.24396012723445892 1.3412419557571411 2.684016704559326
-0.19607631862163544 0.6544345617294312 2.3413305282592773
1.32906973361969 -0.4528810977935791 -1.955132246017456
1.588577389717102 0.9988161325454712 0.9582164287567139
-0.5086944103240967 1.175408124923706 -1.6159553527832031
-0.18237996101379395 0.9004672169685364 -2.661418914794922
-1.015799880027771 1.3505905866622925 -0.744963526725769
-0.23513031005859375 0.2705807387828827 -2.39821720123291
-0.26008614897727966 1.1531351804733276 1.2602838277816772
1.176854133605957 -0.7946627140045166 -1.8454720973968506
1.5557739734649658 0.8865153789520264 2.374988317489624
1.1556422710418701 1.2123221158981323 -2.373302936553955
0.9554851055145264 -0.783951461315155 1.9975109100341797
0.07667262852191925 -0.6433206796646118 2.511852502822876
-1.3006983995437622 0.9695614576339722 -2.722649335861206
0.27850914001464844 0.11458074301481247 -1.3731756210327148
1.122861385345459 0.6502509713172913 1.3273392915725708
0.9894267916679382 0.07521865516901016 -1.7606441974639893
1.5572248697280884 0.8634748458862305 -2.8105063438415527
1.0654871463775635 -0.6846577525138855 -1.4361822605133057
1.3422940969467163 0.4125256836414337 -1.821521520614624
-0.12318916618824005 0.5474535226821899 -1.1318210363388062
0.5832812786102295 1.168347954750061 0.5535048842430115
1.2715086936950684 -0.773281455039978 1.440401315689087
1.3890812397003174 0.8919464945793152 2.6712756156921387
0.2224217802286148 -0.7802560329437256 2.3282947540283203
-0.6640061140060425 0.652978777885437 -2.5813276767730713
-0.5637070536613464 1.1609611511230469 0.40345314145088196
-0.81734299659729 0.10913687944412231 -1.4242626428604126
1.099292516708374 0.6107732653617859 -0.7611543536186218
0.3373609483242035 -0.08158214390277863 -2.484421730041504
1.6897615194320679 1.213178038597107 -1.7262170314788818
0.1647401750087738 0.7041791081428528 -2.054964303970337
1.4851776361465454 1.3634312152862549 -2.706610918045044
0.602526068687439 0.6769834756851196 0.3609071671962738
-0.16487999260425568 -0.6560124158859253 -2.5928192138671875
0.9510504007339478 1.344059705734253 -2.884874105453491
1.11390221118927 0.7491127252578735 1.4649420976638794
0.5925568342208862 0.6081243753433228 -0.947443962097168
1.3428055047988892 -0.6343379616737366 -2.1185295581817627
-0.45596814155578613 -0.7179789543151855 -1.8724842071533203
1.005467414855957 -0.7942631244659424 1.7921139001846313
1.507980465888977 1.3931556940078735 -1.9836241006851196
-1.2046409845352173 0.8640486001968384 -1.0519963502883911
0.6233010292053223 0.6571753025054932 -0.017449283972382545
1.0012085437774658 0.4213410019874573 2.4249634742736816
1.32053804397583 -0.739793062210083 -1.7840224504470825
-0.8691574335098267 0.9520750641822815 2.565356969833374
0.7471498250961304 0.5382834076881409 1.9957118034362793
0.4571571946144104 0.4228130578994751 -1.2754874229431152
-0.025389958173036575 1.1763503551483154 -2.591383218765259
-0.15099655091762543 1.1465721130371094 0.0401374027132988
1.339561104774475 0.3118503987789154 -1.7034884691238403
1.3739399909973145 -0.4583471715450287 1.3184993267059326
1.062894582748413 1.186723232269287 0.5227788090705872
1.6082879304885864 1.1263678073883057 1.3332229852676392
-1.0462061166763306 0.973790168762207 2.0360498428344727
0.5383808612823486 0.9016957879066467 -2.1573619842529297
0.43616583943367004 0.1261378675699234 2.4675467014312744
-1.2210134267807007 1.1035507917404175 1.9185954332351685
0.2904425859451294 -0.15504659712314606 -1.1725174188613892
-0.47168150544166565 -0.7749658823013306 2.009934663772583
1.2143728733062744 0.5811021327972412 -2.6562137603759766
-0.4037436842918396 0.2886405289173126 1.120375394821167
-1.2089146375656128 0.964902400970459 2.5485153198242188
-0.2825396656990051 0.6691851615905762 -0.9017358422279358
1.615665316581726 0.9760127663612366 -0.8851410746574402
-0.9028976559638977 1.3368127346038818 -0.21297141909599304
-1.0034706592559814 0.8570257425308228 1.3619543313980103
1.4795013666152954 1.3900444507598877 -1.5837783813476562
0.7285481691360474 1.1753742694854736 -1.1124745607376099
0.5054969191551208 1.1514122486114502 1.6954799890518188
0.8844606280326843 -0.7397063970565796 -2.1231329441070557
-0.32183799147605896 -0.7569299340248108 -2.3325467109680176
1.120004653930664 -0.5092245936393738 2.5598366260528564
-0.5607144236564636 -0.46258270740509033 2.518138885498047
1.1623374223709106 1.2934167385101318 -2.7742929458618164
1.67307710647583 1.1365571022033691 -0.26208987832069397
-0.09094283729791641 0.7696760892868042 2.4637317657470703
-0.7839179635047913 -0.6199755668640137 0.9436842203140259
-0.9377977848052979 -0.7208093404769897 1.9465339183807373
1.075171709060669 -0.26503849029541016 0.967301607131958
-0.8675059080123901 -0.7255150079727173 -1.9588685035705566
1.3826611042022705 -0.2615939676761627 1.189538836479187
1.5531580448150635 0.772231936454773 0.27429521083831787
0.1797315776348114 1.1398344039916992 0.005552457645535469
0.4548510015010834 -0.4641483426094055 -2.5653460025787354
0.6260002255439758 -0.19506224989891052 -2.5401129722595215
0.11975469440221786 -0.7878804206848145 1.975653052330017
0.44885337352752686 -0.65167236328125 0.9439737200737
1.3666913509368896 -0.20229610800743103 1.9491996765136719
-0.6795690059661865 0.41598284244537354 2.4223952293395996
-0.6178086400032043 1.1854097843170166 -1.3620420694351196
0.20205894112586975 -0.6604630947113037 -2.589308261871338
1.4612139463424683 0.9631431698799133 1.0465773344039917
-0.7140330076217651 1.3629112243652344 -2.7045373916625977
1.3825806379318237 -0.2607573866844177 1.3916387557983398
1.61600661277771 1.4011304378509521 2.5778298377990723
-1.08170747756958 0.8029579520225525 -1.7086892127990723
0.35877540707588196 1.1692301034927368 0.3512849509716034
1.2964131832122803 0.5328856706619263 2.0984044075012207
0.14584136009216309 -0.08156706392765045 2.4597556591033936
1.0523076057434082 1.166385531425476 -2.6224327087402344
1.5033317804336548 0.97214674949646 -1.6942126750946045
0.9494003057479858 -0.7171125411987305 -1.7706817388534546
1.212586760520935 -0.21416178345680237 -2.5916571617126465
0.02114354446530342 0.647975504398346 -0.3535340130329132
-0.7508611679077148 0.6275227069854736 -0.3744225800037384
0.4040178060531616 0.14966364204883575 1.1972309350967407
1.3068517446517944 -0.7568955421447754 1.9601534605026245
1.5705610513687134 0.9125995635986328 1.1174172163009644
-0.804625928401947 1.1818009614944458 -1.4292702674865723
1.3486014604568481 -0.5749927759170532 -1.2155250310897827
1.12843918800354 0.8754628896713257 -3.015798330307007
-0.29576346278190613 1.235094428062439 -2.7327945232391357
1.5206366777420044 1.291519045829773 -3.025812864303589
1.3440412282943726 0.6309864521026611 1.9278682470321655
-0.8629525899887085 -0.08080549538135529 -1.2169073820114136
1.30853271484375 0.5997673273086548 1.9372559785842896
0.8847835063934326 0.6691207885742188 1.4196751117706299
-0.14636211097240448 1.166732907295227 -1.1206912994384766
1.6515601873397827 1.4123133420944214 -1.5039926767349243
1.049936056137085 0.35438114404678345 1.569637656211853
-0.45659351348876953 0.1720975637435913 -2.449204444885254
-1.0519535541534424 1.3760614395141602 0.07412678003311157
0.6071004271507263 1.15879487991333 -0.08687026053667068
-0.8389061689376831 0.32201653718948364 1.2109516859054565
0.024714551866054535 1.1864482164382935 0.03203371539711952
0.4512856602668762 -0.6775409579277039 -1.3716822862625122
-0.21792873740196228 -0.4457179307937622 2.458662986755371
0.16233396530151367 1.1665477752685547 -0.7292309999465942
0.23983028531074524 0.6255563497543335 1.1189780235290527
-1.2386670112609863 1.0294736623764038 0.26514914631843567
1.0547422170639038 -0.7463213801383972 -2.3479089736938477
1.3505759239196777 0.02498471736907959 -1.5914483070373535
1.1817309856414795 0.6449119448661804 0.4546933174133301
1.5263705253601074 1.3311501741409302 -3.010237216949463
0.6636909246444702 -0.6978041529655457 -1.3037649393081665
-0.8264042139053345 0.06090473383665085 -1.597881555557251
-0.2755390703678131 0.6453321576118469 0.3165161907672882
1.4166187047958374 0.9017306566238403 2.7621419429779053
0.8895022869110107 0.6003872156143188 -0.9106371402740479
1.3628997802734375 -0.6686494946479797 1.8661597967147827
0.6953287124633789 1.1603232622146606 1.8283872604370117
-0.9821122288703918 0.5520353317260742 1.2707749605178833
1.3688817024230957 0.7166378498077393 -1.1218855381011963
-0.920025110244751 0.15008780360221863 1.5078920125961304
1.140728235244751 0.14415869116783142 -2.282413959503174
1.4967617988586426 1.3685051202774048 -2.491222381591797
-0.7595392465591431 1.4012727737426758 -2.8243308067321777
0.5949670672416687 1.2114276885986328 0.8196324706077576
0.8043848276138306 -0.4246324896812439 2.470468282699585
-0.13921894133090973 1.1730632781982422 -0.7952001690864563
1.1468192338943481 0.1444128006696701 1.8340308666229248
1.2895129919052124 0.8789095282554626 -1.655310869216919
-0.935767412185669 -0.7414594292640686 1.3084615468978882
0.13813118636608124 -0.628822922706604 -2.595149517059326
-0.8564735054969788 -0.5231325626373291 -1.5588233470916748
0.6339369416236877 1.1665197610855103 1.2914749383926392
0.28457051515579224 0.8509404063224792 -2.7655091285705566
-1.158542513847351 1.0525485277175903 1.111245036125183
-0.06150805950164795 1.1845465898513794 -3.0204105377197266
1.3687429428100586 -0.5862748622894287 1.680327296257019
1.3391095399856567 -0.45898082852363586 -1.1646318435668945
0.2809237837791443 0.17938533425331116 -1.3522576093673706
1.4700407981872559 1.3638489246368408 2.2525973320007324
-0.7043992280960083 0.40770620107650757 0.9304105639457703
-0.7859673500061035 -0.774587094783783 -2.1858105659484863
0.04406610131263733 -0.26970717310905457 -2.568054676055908
0.3043387830257416 0.8244742155075073 2.5428919792175293
-0.8823509812355042 0.6800510883331299 -0.8268165588378906
-0.23838497698307037 1.0414249897003174 -2.986258029937744
-0.5109621286392212 -0.7430627942085266 -2.173107147216797
0.6699950695037842 0.6117705702781677 0.5465898513793945
0.06314806640148163 1.165066123008728 -0.8661746978759766
-0.9631072878837585 1.0004619359970093 -2.9894044399261475
1.4326682090759277 1.3075358867645264 -1.1009658575057983
-0.4358825385570526 -0.76133131980896 -2.549489974975586
0.38619840145111084 0.06564301252365112 0.9509959816932678
1.3999592065811157 0.9533511996269226 -2.2635879516601562
-1.111911654472351 1.4076011180877686 1.1688826084136963
1.0533329248428345 -0.1307424008846283 -1.721505880355835
1.0775903463363647 -0.7824331521987915 1.4382281303405762
0.17119759321212769 -0.14127007126808167 2.470594882965088
-0.7333505153656006 -0.7717396020889282 -2.3693363666534424
0.8923633098602295 0.7070947885513306 0.8346931338310242
1.0901906490325928 0.6078450083732605 2.0124480724334717
1.3084630966186523 0.07708609849214554 2.451185703277588
0.9897339940071106 0.14535030722618103 -1.8342442512512207
0.1264234334230423 0.6360808610916138 0.2827870845794678
-0.6971920728683472 1.1967896223068237 -0.40832453966140747
-0.2645837664604187 1.1016854047775269 1.900037169456482
-0.49713900685310364 0.5837770700454712 1.8333386182785034
1.4185277223587036 1.3229396343231201 1.273285150527954
1.3382747173309326 0.684051513671875 2.0586330890655518
-0.04224683344364166 0.22940321266651154 0.9266906976699829
-0.26238563656806946 0.424821138381958 2.3199398517608643
1.4119198322296143 1.311275839805603 0.7648343443870544
-0.2961350679397583 -0.7700695395469666 1.703240990638733
-0.13578848540782928 1.1525592803955078 -0.23813697695732117
0.552295446395874 -0.7315986156463623 -2.1183583736419678
1.3388441801071167 1.2730486392974854 1.8152316808700562
1.2998212575912476 -0.6874640583992004 0.9553185701370239
-1.0387678146362305 1.4279663562774658 -2.273221731185913
-0.10295823216438293 0.22425849735736847 -2.3877289295196533
1.205650806427002 0.45440980792045593 -2.4728405475616455
1.5030094385147095 1.0006788969039917 -2.861394166946411
1.2811589241027832 0.9376292824745178 -2.9626643657684326
0.23275144398212433 1.147979497909546 1.6718313694000244
1.2761414051055908 1.1780357360839844 -0.4763118326663971
-1.2110947370529175 1.1404740810394287 1.321485161781311
0.6448429822921753 -0.5366213321685791 2.4302570819854736
1.1474367380142212 -0.07696861028671265 0.9720680117607117
0.8187776803970337 -0.7797434329986572 2.0507566928863525
0.42616936564445496 0.7362097501754761 -1.9132055044174194
-0.1209133118391037 1.1579355001449585 -2.0988166332244873
-0.7633548378944397 0.5625146627426147 -1.3323596715927124
-0.6233952045440674 1.1690789461135864 -0.41604769229888916
0.5686595439910889 -0.04789064824581146 0.9564348459243774
-0.7245643138885498 -0.7753267288208008 1.9459707736968994
0.4561987519264221 0.322831392288208 2.0688369274139404
0.619840145111084 1.1873754262924194 -1.0290955305099487
0.6532787084579468 0.614435076713562 0.6166228652000427
-0.8188167214393616 -0.06599725782871246 -2.4190359115600586
0.09678169339895248 1.168017029762268 0.5026654005050659
-0.8399195671081543 0.029860898852348328 -2.5138697624206543
-0.9040990471839905 0.08940102905035019 1.8781521320343018
1.3412320613861084 -0.5372957587242126 -1.5112276077270508
-0.2995201647281647 1.1473790407180786 -0.07076431810855865
-0.7636369466781616 1.2364290952682495 0.7351246476173401
-1.245476245880127 0.9821293950080872 0.1505952924489975
0.7975295186042786 0.6621644496917725 -0.2522166073322296
1.0921173095703125 0.3200470209121704 1.8437776565551758
-1.1158066987991333 1.0950767993927002 0.015039683319628239
-1.2058051824569702 1.3860751390457153 0.7578380107879639
-0.13547064363956451 0.6564434170722961 0.021367507055401802
1.3426082134246826 -0.6238856315612793 -2.288022041320801
0.29593655467033386 -0.7761505842208862 2.4017910957336426
-1.1882684230804443 0.8495986461639404 -2.8784587383270264
0.06925097107887268 0.25773558020591736 2.487417459487915
-0.20356720685958862 0.24150027334690094 1.7232856750488281
1.368011236190796 -0.29987832903862 1.8437844514846802
0.521075427532196 1.223060965538025 -2.0756030082702637
-0.17735712230205536 0.07683803141117096 0.9739741683006287
0.6446323990821838 1.1999304294586182 -1.6705199480056763
1.047487735748291 -0.7641905546188354 2.572361946105957
-0.8537490367889404 -0.32852840423583984 -1.5439879894256592
0.9588427543640137 -0.18313276767730713 2.4381263256073
0.10736870765686035 0.24066776037216187 1.6805684566497803
-0.21686547994613647 0.08712728321552277 -1.141135573387146
0.07027336955070496 1.3010588884353638 -2.9004616737365723
1.3360298871994019 -0.3719485402107239 -1.6597048044204712
-0.05043540894985199 -0.7465453743934631 -2.1588971614837646
-1.3119871616363525 1.2446712255477905 -1.650553822517395
0.29534658789634705 0.6029940247535706 -2.6823692321777344
1.3484511375427246 -0.19678761065006256 -1.1855242252349854
1.2406914234161377 1.2751086950302124 -1.1299285888671875
1.5641839504241943 1.3872902393341064 -1.9235870838165283
1.3034918308258057 0.5777169466018677 -1.047337293624878
-1.071778655052185 1.4308207035064697 2.8671205043792725
-0.8386133909225464 0.0397636741399765 -1.349797248840332
0.7907372117042542 0.1790214329957962 -2.515045166015625
1.023095965385437 -0.1694340854883194 -1.402552843093872
-0.8425792455673218 -0.49161630868911743 -2.1859307289123535
-0.8988393545150757 -0.7792662382125854 2.211460590362549
-1.0262395143508911 0.9565620422363281 2.619685411453247
1.5361945629119873 1.0194509029388428 -2.413268804550171
1.339645504951477 0.2891128659248352 -1.2266390323638916
-0.132554292678833 -0.7803305387496948 1.9260257482528687
-1.1852596998214722 1.3482763767242432 0.23945334553718567
-1.1822280883789062 0.8360844850540161 -1.5752570629119873
0.8549821972846985 -0.32167908549308777 0.9741748571395874
-1.0168027877807617 1.4003431797027588 0.8694843053817749
-0.0921790599822998 0.6552082896232605 -2.6725406646728516
-0.27395620942115784 1.1755986213684082 -1.66226327419281
-0.943803071975708 -0.591582179069519 0.9837386012077332
-0.98341304063797 0.7440495491027832 0.9583645462989807
1.3278042078018188 1.2312893867492676 0.5073699355125427
1.3473992347717285 -0.5362256765365601 2.4591164588928223
0.08696828782558441 -0.15219078958034515 -2.571690559387207
1.3488223552703857 -0.11338548362255096 2.4414327144622803
0.6961889266967773 -0.7390404939651489 -2.087102174758911
-0.5349156856536865 0.5607384443283081 1.6771581172943115
-0.37526780366897583 0.44023168087005615 1.0602329969406128
-1.218998908996582 1.369232177734375 -0.7309302091598511
-1.1315968036651611 0.7842334508895874 -1.9352935552597046
0.4791659414768219 -0.3322381377220154 2.5413706302642822
0.6322081685066223 -0.7819679379463196 1.882314682006836
0.12913432717323303 -0.5500229001045227 0.9458563327789307
1.3917633295059204 1.1766375303268433 1.442980170249939
0.8598641157150269 0.6686562895774841 -0.1547239124774933
-0.4762353003025055 -0.7746500968933105 1.3026401996612549
-0.093075230717659 0.634932279586792 -1.377587080001831
0.03454282134771347 0.7924002408981323 -1.366156816482544
-0.4937867820262909 -0.1769936978816986 -1.1049765348434448
-0.31124284863471985 1.1523419618606567 -0.5378305912017822
1.1031728982925415 -0.7442230582237244 -2.5937366485595703
0.7915211319923401 0.9458732008934021 2.8795320987701416
-0.9623742699623108 0.8372411131858826 2.403771162033081
-1.086045742034912 0.8992657661437988 -0.6687173247337341
-1.0641241073608398 1.4423205852508545 1.8348195552825928
0.914973795413971 -0.6740484237670898 -1.6208105087280273
-0.5579942464828491 -0.7543885707855225 -2.450015068054199
1.644378900527954 1.000432014465332 1.7809629440307617
1.3368842601776123 1.2599208354949951 0.7655698657035828
-0.9707090854644775 0.8467817902565002 2.65787410736084
-0.7632954120635986 0.0059082359075546265 0.940599799156189
0.15344500541687012 1.1621432304382324 0.7591559886932373
0.08542749285697937 1.2042632102966309 -2.786722421646118
0.7355678081512451 0.15648147463798523 -1.164492130279541
0.6726937294006348 -0.7777005434036255 2.2020201683044434
0.9845621585845947 -0.3930743932723999 -1.0716921091079712
-0.900927722454071 1.2501555681228638 1.433305263519287
0.3557854890823364 1.1633784770965576 1.2625784873962402
0.6934060454368591 1.16067636013031 2.244840383529663
1.251594066619873 -0.7963824272155762 -1.354898452758789
0.23195473849773407 0.5645880699157715 2.5052452087402344
0.6062653064727783 0.2721762955188751 -1.3427996635437012
-0.4056473672389984 -0.774275541305542 1.3296211957931519
0.5571401119232178 -0.5943377017974854 0.9468938112258911
-0.23608988523483276 1.1516615152359009 -1.8602054119110107
1.5854426622390747 1.4213846921920776 -1.4195643663406372
1.3017946481704712 -0.556363046169281 -1.0726910829544067
-1.2426857948303223 1.31729257106781 0.33520808815956116
0.8628278970718384 0.10909513384103775 0.9786383509635925
0.11362147331237793 0.5205312967300415 -1.4008162021636963
-0.6670189499855042 1.2182008028030396 -2.9897241592407227
-0.6826151609420776 0.8148523569107056 2.482107162475586
1.2480677366256714 1.2551772594451904 -2.421408176422119
-1.111933708190918 0.9140536785125732 -2.6174685955047607
1.0318509340286255 1.0779340267181396 -1.6162933111190796
-0.598220705986023 1.166200876235962 -1.9762942790985107
0.22529612481594086 -0.28452056646347046 -1.175291657447815
-0.011121924966573715 -0.6754041910171509 2.5242083072662354
1.1315417289733887 0.647270679473877 -2.6983609199523926
0.7848655581474304 1.1735793352127075 0.4151290953159332
1.2740343809127808 0.18428832292556763 1.5909768342971802
0.17522156238555908 1.1853008270263672 -1.7073498964309692
1.2986496686935425 -0.033993616700172424 -2.6048004627227783
0.8016921281814575 1.1695404052734375 -0.8027995228767395
0.17561236023902893 -0.7830373048782349 1.5060434341430664
1.4005203247070312 -0.16750232875347137 1.1473442316055298
1.3577332496643066 1.2439398765563965 0.5439404249191284
0.4109230935573578 1.1702326536178589 -1.3703895807266235
-0.22045862674713135 1.1382032632827759 -0.24158929288387299
-1.1127482652664185 0.8735337257385254 -0.7946516871452332
-0.8654826283454895 0.9528309106826782 -0.7026898264884949
1.0140182971954346 0.8688163161277771 2.4148669242858887
0.9329561591148376 1.2319117784500122 -1.367222785949707
0.0371503122150898 1.1296906471252441 -0.15079542994499207
1.3383480310440063 0.8425490260124207 2.404836416244507
1.0074307918548584 1.1669204235076904 0.2856745421886444
1.361948847770691 0.32964223623275757 -2.409215211868286
0.4013807773590088 0.47683995962142944 -1.2209432125091553
-0.7435073852539062 -0.20181186497211456 0.9407589435577393
-0.16130846738815308 -0.7765225172042847 2.177946090698242
-0.34112629294395447 0.6612511873245239 -0.9320920705795288
1.0030310153961182 -0.7328387498855591 -1.8309319019317627
-0.5885337591171265 1.1604901552200317 -0.01765088550746441
1.3602311611175537 -0.11606010794639587 1.6113438606262207
-1.1957792043685913 1.4458380937576294 2.0524024963378906
-0.966899037361145 0.6194265484809875 1.5003166198730469
-0.9390912652015686 0.7681968212127686 1.0199739933013916
-0.8758857846260071 0.7627214193344116 -0.572913408279419
1.0303632020950317 -0.14262807369232178 -1.6707043647766113
0.889779269695282 0.26969099044799805 1.6076605319976807
0.18060998618602753 0.6512050628662109 -0.24225032329559326
-0.4475119113922119 0.6980230212211609 -1.1874825954437256
0.9895061254501343 0.6559004783630371 -0.1299334317445755
0.7984788417816162 -0.6521506309509277 -1.6431629657745361
1.2513405084609985 -0.1215088814496994 2.536658525466919
0.7894993424415588 1.391095519065857 2.7324304580688477
-0.26914167404174805 1.1695653200149536 0.5380986332893372
-0.0027463622391223907 0.24146822094917297 2.4717252254486084
0.40696412324905396 1.3961941003799438 2.920232057571411
-0.24780631065368652 0.6231873631477356 0.5760915279388428
-0.9130902886390686 1.2203129529953003 -1.8513693809509277
0.2825586795806885 -0.7128287553787231 -1.0667387247085571
0.41619962453842163 -0.7534582018852234 2.464477062225342
0.9733734726905823 -0.2287953644990921 -1.079222559928894
-0.6041760444641113 0.2213752269744873 0.9562373161315918
0.2731039822101593 1.1592050790786743 1.3737971782684326
0.9693595767021179 0.4683462977409363 1.2193193435668945
-1.2441413402557373 1.2095750570297241 1.781633973121643
0.20051661133766174 0.9880003333091736 2.9345524311065674
1.6435434818267822 1.041687250137329 -0.8442878127098083
-1.0347013473510742 0.9815033078193665 1.8032677173614502
1.2303001880645752 1.180802345275879 1.070451021194458
-0.9143271446228027 -0.0634775161743164 2.2809882164001465
1.0942356586456299 0.24285410344600677 1.8346613645553589
0.06589268147945404 1.1903237104415894 2.46549391746521
-0.3970358073711395 0.2291506975889206 2.193896770477295
1.4229665994644165 1.3866125345230103 2.5172152519226074
-0.36120912432670593 0.7563419938087463 -1.944936990737915
0.06344038993120193 1.1592884063720703 -2.209200859069824
-0.6265652179718018 0.22723399102687836 1.1931196451187134
0.9023930430412292 1.2970912456512451 2.9329898357391357
1.3532757759094238 -0.4408723711967468 -2.428694725036621
0.5540273785591125 -0.14408250153064728 2.433058738708496
0.4351416826248169 1.1528186798095703 1.8156851530075073
0.6590415239334106 0.6792247295379639 -0.09596960991621017
-0.9873353242874146 0.6586377620697021 0.7754950523376465
0.9919543266296387 1.2736210823059082 -2.0738472938537598
0.32289159297943115 -0.755172610282898 -2.295654535293579
-0.9434912800788879 -0.4800352454185486 1.3401477336883545
0.8012126684188843 -0.7619730234146118 -2.1294054985046387
1.361863136291504 -0.03903937339782715 1.9122955799102783
-0.066095270216465 -0.0339181125164032 -2.428079605102539
0.2522597014904022 1.1937817335128784 2.437941074371338
-0.0723193883895874 -0.7780377864837646 1.826903223991394
1.565781593322754 0.9461106657981873 -1.3997385501861572
-0.3558610677719116 -0.7407258152961731 -1.3205502033233643
0.858406662940979 0.12921355664730072 1.7980709075927734
-0.11616609990596771 0.013149023056030273 -2.4230141639709473
-1.2046345472335815 1.3364392518997192 2.9461662769317627
-0.9106578230857849 -0.7764410376548767 1.9719483852386475
1.5068283081054688 1.404962182044983 -2.776482105255127
1.1121982336044312 -0.4448201060295105 -1.063169002532959
-0.7156530022621155 -0.8074418306350708 1.8212720155715942
0.06668195128440857 0.25278207659721375 -1.4149219989776611
-0.3467593789100647 -0.7287734746932983 -1.4074039459228516
0.5136607885360718 -0.5449570417404175 -1.0740470886230469
-0.15506981313228607 0.24559339880943298 1.7276626825332642
1.4088966846466064 1.064772367477417 -2.423983097076416
-1.1483112573623657 0.8848341107368469 -0.6141602396965027
1.3682835102081299 0.004139944911003113 2.1625897884368896
0.3217542767524719 1.173717975616455 -1.4221148490905762
0.4794275760650635 -0.7037345170974731 -1.2037559747695923
0.09543097019195557 1.1714282035827637 0.38214853405952454
-0.8271422386169434 0.661275327205658 -0.41493359208106995
0.0800357535481453 -0.3510242700576782 -1.1258234977722168
-0.7300946712493896 -0.773552417755127 -2.3384885787963867
1.1299185752868652 -0.7044743299484253 -1.4388949871063232
1.3409233093261719 0.40244725346565247 -1.7320462465286255
1.3665399551391602 1.2558717727661133 0.965753436088562
-0.9158039689064026 1.289994478225708 -1.3989949226379395
-0.4027688205242157 -0.1831660121679306 -2.5448050498962402
-0.9364455342292786 -0.205232173204422 2.0082225799560547
1.2940483093261719 1.1968711614608765 0.3796567916870117
-0.4033846855163574 1.1583893299102783 1.1848312616348267
-0.9441484212875366 0.8217488527297974 -0.9726848602294922
1.4845128059387207 1.3453768491744995 -2.9727911949157715
1.1808799505233765 -0.30665719509124756 -1.0559015274047852
-0.13735175132751465 -0.7571672201156616 1.4077556133270264
-0.34167537093162537 0.02439519762992859 -2.5701818466186523
1.3376455307006836 1.1875299215316772 -0.5743396282196045
0.09504606574773788 0.4547925889492035 2.220040798187256
0.501355767250061 1.1705595254898071 -2.61108136177063
1.229966163635254 0.6521995067596436 0.13350838422775269
1.1011019945144653 0.7261126041412354 2.0525169372558594
-1.1898609399795532 1.384071707725525 -0.07743197679519653
-0.6023721694946289 0.2428644448518753 -1.1142876148223877
0.556178092956543 1.158678650856018 2.067483901977539
1.699998378753662 1.300201416015625 -1.4303171634674072
1.2538537979125977 -0.7765957117080688 0.993526041507721
0.9220918416976929 -0.741926908493042 -2.1727652549743652
0.2315083146095276 -0.7320860028266907 -1.0696594715118408
1.2380235195159912 0.45600855350494385 1.738967776298523
-0.2749243676662445 0.6512486934661865 -0.8716026544570923
0.9821785688400269 1.2923760414123535 -2.946320056915283
0.8839097619056702 0.9123214483261108 -1.912003517150879
1.3360246419906616 -0.2946338653564453 2.0382080078125
0.19620391726493835 1.1430869102478027 -2.529222249984741
0.34681013226509094 0.6357253193855286 0.4664096534252167
-0.7218076586723328 -0.29911452531814575 -2.5862271785736084
1.3390214443206787 1.126536250114441 -1.641312599182129
0.15305110812187195 0.2729557752609253 -1.1844563484191895
-0.9457553625106812 1.127852201461792 -2.827726125717163
-0.5715597867965698 -0.7955392599105835 1.1337052583694458
0.5043960809707642 0.20591630041599274 1.5765177011489868
0.8878219723701477 -0.7394425272941589 0.9556857943534851
-1.0174504518508911 1.369423747062683 0.19283051788806915
0.9531278610229492 -0.7421295642852783 -2.02679443359375
0.9697868824005127 0.31331783533096313 1.1514322757720947
-0.877640962600708 -0.12404987215995789 2.4400997161865234
0.9350533485412598 -0.7835392355918884 1.285210371017456
0.714219868183136 -0.7738181352615356 2.0671424865722656
1.3795546293258667 -0.22702017426490784 1.1814699172973633
0.42763280868530273 0.4810284376144409 -1.2316893339157104
0.5706795454025269 -0.7417927384376526 -2.2932183742523193
-0.24863892793655396 -0.5219482183456421 2.5267107486724854
-0.4577142596244812 1.124913215637207 -2.995520830154419
0.2836124300956726 1.1557050943374634 2.106973171234131
1.139102816581726 1.153889536857605 1.5846847295761108
1.3764783143997192 0.5593128204345703 2.125419855117798
0.11624740809202194 0.22494235634803772 1.0591819286346436
-0.8916565775871277 0.7947793006896973 2.6414480209350586
-0.979447603225708 0.8237230777740479 2.6107354164123535
1.5151712894439697 0.9788658618927002 -1.6237801313400269
-0.030719425529241562 -0.5355658531188965 0.942051112651825
1.000624656677246 0.7400137782096863 2.3799853324890137
1.4443897008895874 0.7479414343833923 1.4495270252227783
1.1372188329696655 -0.1572999209165573 -2.4427053928375244
1.3883371353149414 1.1873995065689087 1.9776438474655151
0.9745994806289673 0.20242929458618164 -1.8280173540115356
1.1347324848175049 0.74270099401474 1.6181855201721191
0.09269358217716217 0.6447036266326904 -0.5126996636390686
1.5615479946136475 1.3015762567520142 0.8281673789024353
-0.3108631670475006 1.185333490371704 -1.2631843090057373
0.2748781144618988 1.1790016889572144 2.3842599391937256
0.8200722336769104 0.8495593667030334 2.577725410461426
-0.5475403070449829 0.5334315299987793 1.215151309967041
0.9695204496383667 -0.7546866536140442 -2.3566296100616455
-0.9349261522293091 0.03686787188053131 0.9693539142608643
-0.9178321957588196 0.8922958970069885 2.9070258140563965
-0.7198035717010498 1.3588777780532837 -2.9341630935668945
-1.1976877450942993 1.0508449077606201 2.11442494392395
-1.0919188261032104 1.4488352537155151 1.9815980195999146
-1.2499911785125732 1.3541163206100464 -0.8083249926567078
0.9778156876564026 -0.7825939059257507 2.205353021621704
0.2610461711883545 -0.7830058336257935 1.8877123594284058
-0.6398951411247253 1.1449801921844482 0.0874156728386879
-0.4899810254573822 1.1537551879882812 1.870572566986084
-0.9461838006973267 -0.6870670318603516 1.5165997743606567
0.003217078745365143 0.651035726070404 0.3490373492240906
1.2446547746658325 0.7030426263809204 -2.3602492809295654
1.3757871389389038 -0.5553650856018066 1.1867148876190186
1.2241772413253784 1.1402814388275146 1.6253807544708252
0.022549092769622803 -0.728721022605896 -2.0154738426208496
1.3810734748840332 1.0001016855239868 -2.1688222885131836
1.365095853805542 -0.5718640089035034 1.7922067642211914
1.6317850351333618 1.0189464092254639 -0.9866710305213928
-0.8418842554092407 0.7365649342536926 -1.3402132987976074
1.309037685394287 1.209696888923645 2.4845263957977295
-0.08875127136707306 1.4234225749969482 2.853449821472168
1.305187463760376 1.2823413610458374 -2.5695953369140625
-0.2729696035385132 -0.2059793323278427 2.645320415496826
0.7675187587738037 1.3804693222045898 2.740833044052124
-0.196046844124794 1.1522815227508545 1.836807370185852
0.18011808395385742 0.5796573758125305 -2.647874116897583
1.3360207080841064 -0.33487844467163086 -2.069404363632202
0.9525083303451538 0.1151290312409401 -1.1293193101882935
1.5519776344299316 0.7319257259368896 0.3849133849143982
-0.2567931115627289 1.2664672136306763 -2.7842299938201904
0.8944931030273438 0.12208837270736694 2.44912052154541
0.8043569922447205 0.6376556754112244 -0.570012092590332
1.2449254989624023 1.1799477338790894 0.7702274322509766
1.1232352256774902 1.371751308441162 2.712345600128174
1.3870190382003784 1.2282284498214722 -0.8229346871376038
-0.8173283934593201 -0.11654205620288849 -1.796734094619751
1.1638195514678955 0.4795343279838562 1.0138391256332397
-1.2870731353759766 1.3063316345214844 2.5360982418060303
-0.9431216716766357 0.6957150101661682 0.12432530522346497
1.4063572883605957 0.9225364923477173 1.9180842638015747
-0.43562668561935425 0.013971984386444092 -1.1608744859695435
1.567197561264038 0.8444968461990356 -0.421821653842926
1.5133756399154663 1.3163260221481323 -0.26721489429473877
1.145914077758789 0.22759228944778442 1.0613648891448975
-1.0215017795562744 1.3982353210449219 -1.651339054107666
1.1857210397720337 -0.005065426230430603 1.0128833055496216
1.0926367044448853 -0.4502650499343872 -2.527566432952881
1.3644800186157227 -0.5306140184402466 1.9834712743759155
-0.3244907855987549 1.150784969329834 1.4843757152557373
1.6073939800262451 1.2933647632598877 1.769657850265503
-0.8901866674423218 0.7798994183540344 -2.412917137145996
-0.6660318970680237 0.5750930309295654 0.9232797622680664
-0.8947073817253113 1.2967674732208252 0.4159828722476959
1.5579652786254883 0.8134595155715942 -0.24061837792396545
-0.3413299024105072 0.5432298183441162 1.9756230115890503
0.9181152582168579 -0.6485556364059448 -1.550076961517334
0.3008028268814087 1.1623382568359375 -2.6111299991607666
-0.8855158090591431 0.129579097032547 0.9354011416435242
-0.16489973664283752 0.16377496719360352 -1.204208254814148
1.3453761339187622 0.017668575048446655 -2.1798551082611084
0.7980838418006897 0.07051605731248856 -2.42545747756958
1.3702425956726074 0.9649046063423157 -2.989978790283203
1.3048135042190552 -0.7620106935501099 -2.207944393157959
-0.9980533719062805 0.7944976091384888 1.5337902307510376
0.05245719850063324 0.6201900839805603 1.8406407833099365
-0.8479979038238525 -0.6277601718902588 -2.367821216583252
0.21875816583633423 1.1648238897323608 2.1540238857269287
-0.9289747476577759 0.6348322629928589 0.49516746401786804
-0.4933900535106659 0.8772690296173096 -2.898336887359619
1.256902813911438 1.2075881958007812 0.45522505044937134
-0.430983304977417 -0.21898190677165985 -1.1171133518218994
0.7332415580749512 1.1730917692184448 0.6519643068313599
1.4316210746765137 1.3081766366958618 -0.25973355770111084
0.4236809313297272 1.321408987045288 -2.8896288871765137
-0.7373327612876892 0.4754915237426758 -1.9238566160202026
-0.410381019115448 -0.16761383414268494 -1.1322016716003418
-1.2126988172531128 1.139596939086914 0.6833363175392151
0.9002605080604553 1.1934242248535156 -2.2830092906951904
-1.2320960760116577 0.9560582637786865 -0.37569373846054077
1.372010588645935 1.169619083404541 -0.5313120484352112
1.2811942100524902 -0.37256622314453125 -2.1005191802978516
-0.24206598103046417 0.5317171216011047 2.3295235633850098
-0.38202518224716187 1.1852903366088867 -1.5283150672912598
0.29854393005371094 1.1591416597366333 1.5857384204864502
0.2785654067993164 -0.21662594377994537 -2.5651798248291016
0.7834747433662415 1.160306453704834 1.3762726783752441
1.3879567384719849 -0.10524740815162659 1.7430845499038696
-0.8938578963279724 -0.775888204574585 1.0885072946548462
-0.0034528449177742004 -0.5306442379951477 -2.5932791233062744
1.4934380054473877 1.4147857427597046 1.8597044944763184
0.342814177274704 1.4531826972961426 2.81681752204895
1.1997630596160889 -0.7829986810684204 -1.8640079498291016
1.6293877363204956 1.3139474391937256 -0.1313588172197342
-0.2263367474079132 1.1779286861419678 -2.367384195327759
0.5435471534729004 -0.5250054597854614 2.5455708503723145
1.0318059921264648 1.112868309020996 -0.6265459656715393
0.819902777671814 0.4347190856933594 1.2714582681655884
0.8482457399368286 0.7040247917175293 0.9941774010658264
0.8693816661834717 0.5215257406234741 0.8398666977882385
-0.7006899118423462 0.6414746046066284 0.2960391342639923
-0.9148874878883362 0.7313680052757263 2.2828526496887207
1.3416247367858887 -0.14939308166503906 -1.4131920337677002
-0.7548801898956299 1.1686590909957886 1.7093708515167236
0.49037864804267883 -0.7856571674346924 1.5856900215148926
-0.8483902812004089 -0.030722111463546753 -1.5677714347839355
0.9694855213165283 1.1562952995300293 2.287996768951416
0.7393943667411804 0.8822289109230042 -2.64664626121521
-0.5586726069450378 1.3586431741714478 -2.8927361965179443
1.602323293685913 1.1724542379379272 0.7462257146835327
-0.6841076612472534 1.0706716775894165 -2.9976303577423096
0.30673760175704956 0.4521162509918213 -1.3471558094024658
-1.3080016374588013 1.0448436737060547 -2.258894681930542
-0.6528258919715881 1.3705871105194092 2.8995633125305176
1.3431791067123413 -0.03587312996387482 -1.3914601802825928
-0.8517487049102783 -0.26260602474212646 -1.5977039337158203
0.06577388197183609 0.24407267570495605 -2.449690818786621
-0.012514285743236542 1.1618753671646118 0.08448261022567749
-0.9486081600189209 -0.6284534931182861 1.4123153686523438
-1.2865550518035889 1.0227195024490356 -2.9905922412872314
1.3824790716171265 1.1905163526535034 2.382542133331299
1.2653255462646484 0.2038036733865738 1.5338037014007568
-0.1169731616973877 0.1398358792066574 -1.2085720300674438
0.36456727981567383 -0.7618712186813354 -2.3275959491729736
0.014609672129154205 0.6153972148895264 0.767528235912323
-0.8491166234016418 -0.28055715560913086 -1.589593768119812
1.6304377317428589 1.0149304866790771 -1.65199613571167
0.005687158554792404 0.29843446612358093 -2.390319585800171
-0.4370582401752472 -0.7551587224006653 -2.3955190181732178
-0.09032122790813446 1.2510701417922974 2.5627636909484863
1.2532843351364136 1.2530362606048584 -2.1036458015441895
-1.0923360586166382 1.4024068117141724 -1.5636301040649414
1.0670560598373413 -0.6642880439758301 -1.0598118305206299
0.09084439277648926 1.1505008935928345 0.43431442975997925
1.3411548137664795 0.7469179034233093 -1.116389274597168
-0.15282762050628662 0.17374424636363983 2.402768135070801
-0.663666307926178 -0.6712380051612854 -1.1055997610092163
-0.3647010326385498 -0.7692290544509888 2.0922038555145264
1.271328330039978 0.7018253207206726 0.5445864796638489
-0.7281028032302856 0.6418697834014893 0.2833141088485718
-0.47278380393981934 1.1743838787078857 -1.4054712057113647
-1.1911485195159912 1.4023844003677368 0.21271318197250366
-0.8201625943183899 0.3744261860847473 0.9317461252212524
-0.6845706105232239 0.8805712461471558 -2.9551899433135986
1.165940761566162 1.2103466987609863 -1.9069734811782837
-0.41074997186660767 1.146464467048645 0.7337567210197449
0.1384068727493286 0.8415791988372803 2.7389612197875977
0.7049494981765747 -0.7479909658432007 -2.183760643005371
0.8502392172813416 0.667433500289917 -0.20884834229946136
0.9993924498558044 1.3747429847717285 2.836965799331665
