ply
format ascii 1.0
element vertex 824
property float x
property float y
property float z
end_header
0.8175315260887146 0.5101251602172852 1.5348994731903076
0.5031917691230774 0.30555909872055054 -0.8096956014633179
-0.3035929203033447 0.3410050868988037 0.2834567725658417
0.27382737398147583 0.984906792640686 0.4706850051879883
-0.04165638983249664 0.882548987865448 -2.899054527282715
-0.585532009601593 1.0028122663497925 -0.7512494325637817
-0.05076673999428749 0.3540459871292114 -2.105700969696045
0.1786576211452484 1.1551568508148193 0.17951862514019012
-0.6218678951263428 0.8101704120635986 -1.444209098815918
0.08169588446617126 1.0608497858047485 -0.5515749454498291
1.1553635597229004 0.9760491847991943 1.847068428993225
0.941571056842804 0.7443733811378479 0.5099217295646667
1.0273023843765259 -0.05240583419799805 -1.803466796875
0.33030378818511963 0.9758301377296448 -0.6757161617279053
-0.3971368670463562 0.9569302797317505 -0.5556493401527405
-0.0749494805932045 0.9703958034515381 0.5326629281044006
0.9553683996200562 0.7803874015808105 1.011891484260559
0.6163721680641174 1.0025588274002075 -1.190757155418396
0.21870145201683044 1.051702857017517 -0.23608148097991943
0.3686985671520233 0.554958701133728 -0.6522624492645264
1.3792306184768677 1.0127785205841064 1.0432053804397583
-0.1760379672050476 1.1751837730407715 -2.1902267932891846
0.7652586698532104 1.0187140703201294 -0.9904259443283081
0.5892585515975952 1.141596794128418 2.078056812286377
0.1914335936307907 0.8683447241783142 -1.7793926000595093
0.18782158195972443 0.7755064964294434 -0.8365891575813293
-0.22773079574108124 1.1733170747756958 -1.5107473134994507
-0.020620442926883698 0.955931544303894 1.759466290473938
0.7293536067008972 1.064878225326538 2.693019390106201
-0.5995312929153442 0.31129127740859985 -1.9744017124176025
1.0096784830093384 0.9689006805419922 -2.287716865539551
0.7279095649719238 0.9438343048095703 0.9567859768867493
0.41982200741767883 0.8740564584732056 0.8355253338813782
0.337045282125473 1.0350589752197266 -2.5389983654022217
0.7990245819091797 1.2108964920043945 -1.66070556640625
-0.4396221935749054 0.7986566424369812 0.045982468873262405
-0.10270487517118454 1.0335519313812256 -1.7339624166488647
0.7236332297325134 0.48877662420272827 0.8285820484161377
0.8763135075569153 0.8479394912719727 0.43608954548835754
-0.661889374256134 0.9803766012191772 -2.155191421508789
-0.5202751159667969 1.1563963890075684 0.33479419350624084
-0.33119815587997437 1.2076599597930908 -1.2428878545761108
-0.5490545630455017 0.27632996439933777 -2.185751438140869
1.6315288543701172 0.5636122226715088 2.0637478828430176
0.5366363525390625 0.2065008580684662 1.11991548538208
-0.05210983008146286 0.9380877017974854 -2.5167369842529297
-0.055888622999191284 0.6056689023971558 -1.6635569334030151
0.5370274782180786 0.5575438141822815 -2.0462419986724854
0.9422564506530762 0.9782413244247437 -1.1050485372543335
0.516909122467041 1.182513952255249 -0.6634775400161743
-0.43125250935554504 0.9292658567428589 1.5009196996688843
0.1533692330121994 0.591537356376648 0.6471129655838013
-0.1054253950715065 0.8732300400733948 -0.33438536524772644
1.0703544616699219 1.0332605838775635 1.1223279237747192
0.44310155510902405 0.462555855512619 1.8189493417739868
0.8375459909439087 0.37338224053382874 0.2710545063018799
-0.3018975853919983 0.6767745018005371 0.8010503053665161
-0.2904532849788666 1.004577875137329 -0.8366519808769226
0.6289830803871155 0.9378498792648315 0.29620155692100525
0.4617290794849396 0.22785314917564392 -0.7343548536300659
-0.7722223997116089 1.0009607076644897 -0.5244012475013733
1.1108174324035645 0.9787085056304932 1.4157814979553223
-0.03150876611471176 1.120073676109314 -0.7643107771873474
0.3614584505558014 0.36686187982559204 -0.19579975306987762
0.2834508419036865 0.5276851058006287 -0.054988108575344086
-0.1394885778427124 0.10940474271774292 1.7184157371520996
-0.41054096817970276 0.494740754365921 -0.5038271546363831
-0.03132981061935425 0.3876607418060303 0.9632643461227417
0.2797091007232666 1.1649858951568604 -2.465496063232422
0.08116157352924347 0.30442291498184204 -1.186344861984253
0.47775328159332275 0.7708898186683655 1.5357530117034912
1.5359857082366943 1.2029207944869995 -0.9429238438606262
1.2380996942520142 0.9374186992645264 2.0296757221221924
0.6326450109481812 0.4946259558200836 0.2680307626724243
0.30633246898651123 0.35431423783302307 1.3076634407043457
0.23561975359916687 1.0555737018585205 -1.091972827911377
0.023629404604434967 0.7088018655776978 -1.7600173950195312
1.1090672016143799 1.0259759426116943 0.22215516865253448
1.6995068788528442 0.07112771272659302 0.5602414011955261
1.4112967252731323 1.1690648794174194 0.3597945272922516
-0.43243885040283203 0.7783258557319641 0.023044845089316368
0.13392969965934753 -0.1271275281906128 -1.1091660261154175
0.6311935186386108 0.2473503202199936 -1.5674597024917603
-0.33881139755249023 0.6024301052093506 -2.0073513984680176
-0.43674612045288086 0.8241276741027832 1.165993571281433
0.7828848958015442 1.1826506853103638 0.7870166897773743
0.4216541051864624 1.2046680450439453 -0.039473749697208405
-0.04039691388607025 1.0122517347335815 -0.48352423310279846
0.9572598338127136 0.5034362077713013 -1.4957811832427979
1.4072917699813843 1.0230016708374023 -0.4442102015018463
-0.6586393713951111 0.9479132890701294 0.30449700355529785
0.10666069388389587 0.5278944969177246 0.5602832436561584
0.42097368836402893 0.274270236492157 0.3857039511203766
-1.4322832822799683 1.0217877626419067 -1.634272575378418
0.5441298484802246 1.0132675170898438 2.682187080383301
0.322460800409317 0.2029181271791458 1.4201993942260742
0.8978515863418579 0.8633987903594971 0.370817631483078
0.25111138820648193 0.410832941532135 -0.18153926730155945
0.07350437343120575 0.5474945306777954 -1.7562311887741089
1.4236712455749512 0.9471323490142822 -1.6764546632766724
0.39279770851135254 1.188307523727417 0.3560156226158142
1.0344274044036865 0.19941313564777374 -1.8681191205978394
-0.17438864707946777 1.2094780206680298 -1.2965432405471802
0.37080931663513184 0.6466262936592102 0.33246323466300964
1.6858500242233276 1.1650111675262451 -1.4974024295806885
-0.572750449180603 0.5938188433647156 0.4876248836517334
1.472099781036377 1.1663633584976196 -0.5819213390350342
0.5498492121696472 0.325610488653183 -0.7437787055969238
-0.4090026617050171 0.676598072052002 -2.6179656982421875
0.22155563533306122 0.11931346356868744 -2.130211114883423
1.3776358366012573 0.9912701845169067 -0.37143173813819885
0.8171704411506653 0.7760810852050781 -0.34572404623031616
0.04674238711595535 0.8908834457397461 2.108485460281372
-1.366736888885498 0.8948213458061218 -0.19030851125717163
-0.11813189834356308 0.164673313498497 1.3268909454345703
-1.2043322324752808 1.1555562019348145 -0.14336732029914856
-0.07311303913593292 1.1386035680770874 0.9700754284858704
0.3166196644306183 0.9214274883270264 -0.6669490933418274
0.4481930732727051 0.6061049699783325 0.6946899890899658
0.2767648696899414 0.4256466031074524 1.3312369585037231
-0.48587554693222046 0.3161576986312866 -1.3346806764602661
-0.0783340260386467 0.26414814591407776 1.1834697723388672
1.5030840635299683 1.1708065271377563 1.546929121017456
-0.172747403383255 0.5081998705863953 -0.19462160766124725
0.5407493710517883 0.069109708070755 -1.104233980178833
-0.6845690011978149 0.060168176889419556 1.4684454202651978
0.04526025801897049 -0.2972443103790283 1.2557870149612427
0.19374114274978638 0.23651310801506042 0.9260963201522827
0.3348660469055176 0.5043960809707642 1.102312684059143
0.7163019776344299 1.1863960027694702 -0.2966892421245575
0.6632732152938843 1.081319808959961 -3.576850652694702
-0.11388136446475983 0.9664802551269531 1.6934995651245117
0.0413992665708065 0.31681475043296814 -2.3070645332336426
1.024274468421936 1.187709927558899 -1.3918159008026123
-0.21057750284671783 0.2662668228149414 -1.3714274168014526
0.20926350355148315 0.9679384231567383 -0.5984376668930054
-0.6772735118865967 1.1668469905853271 -0.0005330717540346086
0.9145087003707886 0.1805647313594818 1.9404386281967163
-0.0935075432062149 1.185477614402771 1.0004642009735107
0.019497640430927277 1.1833633184432983 -1.372449278831482
-0.27543026208877563 1.0047471523284912 -0.7224418520927429
-0.27434125542640686 0.46285152435302734 2.2343387603759766
0.04186662286520004 0.3938372731208801 0.5713356733322144
0.25490808486938477 0.6906453371047974 0.0317595899105072
-0.21931302547454834 0.4826048016548157 -0.5063034892082214
0.5180147886276245 1.1721984148025513 1.349655270576477
1.3108580112457275 1.0031074285507202 0.3294694125652313
0.03723025321960449 1.0245144367218018 -0.4862261414527893
1.2744989395141602 1.1673054695129395 0.5322416424751282
0.1958109736442566 1.221630334854126 -0.7336685657501221
0.44852083921432495 0.18112808465957642 -0.016341479495167732
-0.3463006615638733 0.6316311359405518 1.0065854787826538
-0.13435602188110352 1.185971975326538 -0.8340150713920593
0.29538974165916443 0.47426319122314453 -0.8110935091972351
0.07970233261585236 0.9832719564437866 0.08428812772035599
-0.00800611823797226 0.9831876754760742 -2.132065773010254
-0.38861408829689026 1.1166648864746094 -0.5100300312042236
-0.03608018904924393 0.5097188949584961 2.0315487384796143
0.27958232164382935 0.6804434657096863 -1.4335107803344727
-0.13360774517059326 1.178765058517456 0.57608562707901
0.915195107460022 0.8774721026420593 2.2502479553222656
0.5689126253128052 1.0489305257797241 0.9384377002716064
0.24359963834285736 0.8592978119850159 0.2543069124221802
-0.14832602441310883 -0.1823374629020691 -1.2800461053848267
-0.4158259630203247 0.21328887343406677 -1.4126057624816895
-0.881389856338501 0.9962939023971558 0.3289191722869873
0.4637661874294281 0.9662125110626221 0.7011401653289795
0.6390489339828491 1.1886613368988037 -1.4393086433410645
0.14919286966323853 1.2042732238769531 0.2155666947364807
0.5055155158042908 0.9833188652992249 -1.0340778827667236
-0.36955854296684265 0.9426913261413574 -2.7194747924804688
0.1343068778514862 1.1827688217163086 -3.1093406677246094
0.23589852452278137 0.48047709465026855 -1.3520066738128662
0.4691215753555298 0.5002629160881042 -2.182438850402832
-0.5587728023529053 1.0206282138824463 -2.085422992706299
-0.7309945225715637 0.8316475749015808 1.4618314504623413
-0.05082709342241287 0.12459275126457214 -2.0290136337280273
0.26292115449905396 0.6525946259498596 -0.033049292862415314
0.5140860676765442 1.1817100048065186 -1.165741205215454
0.3801208734512329 0.9868800640106201 0.30266523361206055
-1.2033179998397827 1.0941296815872192 -0.474496990442276
-0.18600694835186005 0.29279497265815735 -0.9886240363121033
-0.1816049963235855 0.9416067004203796 -1.5386053323745728
0.356239378452301 0.928483247756958 2.110679864883423
-0.5813610553741455 0.43127942085266113 0.5599891543388367
-0.41606605052948 1.0067472457885742 0.047233518213033676
0.1207129955291748 0.484668105840683 -0.5616109371185303
0.18836301565170288 0.5712301731109619 -1.4351036548614502
0.08814571797847748 0.7441650629043579 0.16341818869113922
-0.21864664554595947 0.9581166505813599 -1.3058160543441772
0.9500574469566345 1.1951535940170288 -1.0231496095657349
1.1201863288879395 0.5957125425338745 -1.12739098072052
-0.5199815034866333 1.1294689178466797 2.0615646839141846
0.5402160286903381 1.0845741033554077 2.6565799713134766
0.3684164881706238 0.5124341249465942 -1.4022657871246338
-0.44674012064933777 0.8130737543106079 0.14497311413288116
-0.7142367362976074 1.1784112453460693 1.2751661539077759
-0.09620371460914612 1.1850745677947998 0.6730155944824219
-0.6246802806854248 0.9494060277938843 -0.5919399261474609
0.18643207848072052 1.1774674654006958 -1.2202574014663696
1.5706968307495117 1.1479032039642334 1.0493496656417847
0.0067276135087013245 1.1358400583267212 2.4686949253082275
0.2411963790655136 1.000946044921875 -1.3348109722137451
0.8323035836219788 -0.13676661252975464 1.1334190368652344
0.3322548568248749 0.8348324298858643 0.8927650451660156
-0.6949398517608643 0.8678999543190002 1.2164324522018433
-0.4659639000892639 0.9192783832550049 0.3203887939453125
0.5148314833641052 0.9690870642662048 0.06308665126562119
-0.23223942518234253 1.0184006690979004 1.1881983280181885
0.6116400957107544 1.1806938648223877 -0.16861866414546967
0.7628287076950073 0.6829175353050232 1.8706790208816528
0.05642453581094742 1.1765397787094116 -0.23793603479862213
0.13382366299629211 0.20165005326271057 1.1112319231033325
0.012594014406204224 0.9309517741203308 -1.3050123453140259
0.6580817103385925 0.5467574000358582 -1.8696120977401733
-0.4464673101902008 1.0065598487854004 -0.605707585811615
0.5460324287414551 1.203636884689331 1.1405941247940063
-1.056173324584961 1.1494609117507935 0.38382431864738464
1.0187276601791382 1.1696857213974 1.0299925804138184
0.4450832009315491 0.4822338819503784 0.7895066738128662
-0.04512912780046463 1.2609004974365234 -0.6137441992759705
-1.2189838886260986 1.1499031782150269 -0.27367401123046875
-0.22304874658584595 1.0299357175827026 0.7975919842720032
0.627720832824707 0.21561993658542633 -1.4137367010116577
0.15924623608589172 0.8959482908248901 -1.2250193357467651
-0.05777335911989212 0.6766539216041565 0.7244115471839905
1.2886979579925537 0.3051276206970215 1.164547324180603
0.805614173412323 0.5117121338844299 -0.9176684617996216
-0.2871589660644531 1.2234036922454834 1.0251833200454712
0.513075590133667 1.0273922681808472 -0.06271164119243622
-0.44991445541381836 1.0602034330368042 1.0215290784835815
0.578672468662262 0.5484955310821533 1.8597681522369385
1.2045422792434692 1.0097155570983887 0.8782895803451538
-0.7914789915084839 0.994596004486084 0.6753106117248535
0.18259316682815552 0.49854063987731934 -2.297858238220215
-0.004336006939411163 1.2061631679534912 -0.2640192210674286
-0.047193534672260284 0.38104426860809326 -1.2009955644607544
0.2112940400838852 1.0186837911605835 1.2612409591674805
0.12739954888820648 1.1756635904312134 1.3469934463500977
0.3976346254348755 0.9047330021858215 -2.9635114669799805
-0.2837749719619751 1.1760536432266235 -1.5485584735870361
0.984179675579071 0.35239726305007935 -0.048654310405254364
0.10620459169149399 0.7359329462051392 1.0347408056259155
0.5813121795654297 1.187404990196228 1.5842742919921875
0.8088921904563904 1.199357271194458 0.2494501769542694
-0.12369480729103088 1.1797810792922974 -0.8993264436721802
0.4944525957107544 1.0287729501724243 0.9182060956954956
-0.53108811378479 0.41431960463523865 -0.7192153334617615
-0.4823930263519287 0.4570210874080658 -0.7189033031463623
-0.1397959589958191 1.174746036529541 -0.012372633442282677
0.3100106716156006 1.0047873258590698 -0.1103241965174675
0.32959598302841187 0.8015575408935547 -1.0497212409973145
-0.6960535645484924 0.31754636764526367 -1.598558783531189
0.7314172983169556 0.9734751582145691 0.10708180069923401
0.33296293020248413 0.8266183137893677 -1.3254835605621338
0.23523268103599548 1.0072879791259766 -0.7719159722328186
0.7368053793907166 0.4510997533798218 -1.1084098815917969
0.5641892552375793 0.5329592227935791 -0.6915532350540161
0.6764822006225586 -0.006157323718070984 -1.9278849363327026
-0.2949845790863037 0.01233750581741333 1.2659525871276855
-0.9794448614120483 1.17905855178833 -0.20323005318641663
-0.639232337474823 0.48501715064048767 0.4949207901954651
1.018354892730713 0.9567064046859741 2.0576252937316895
0.1909565031528473 0.5212963819503784 -1.532429814338684
1.082238793373108 1.1662648916244507 0.24751460552215576
-0.5610882639884949 1.1819020509719849 1.061476230621338
0.6338618993759155 0.907439112663269 1.2074964046478271
0.2745016813278198 0.4822949767112732 0.08535854518413544
-0.4399285912513733 0.24075396358966827 -1.3199174404144287
1.0794554948806763 0.9654673337936401 -1.3398083448410034
-0.1265874207019806 0.5214809775352478 -2.287508010864258
1.0105773210525513 0.3650795519351959 -0.16387026011943817
0.16850611567497253 1.174797534942627 -1.9880379438400269
-0.0008648261427879333 0.24245263636112213 -0.7674386501312256
0.5792275071144104 1.0032659769058228 2.1320858001708984
-0.37721365690231323 0.32666289806365967 0.6962321996688843
0.23720642924308777 -0.180080384016037 0.7769589424133301
0.48033854365348816 0.40759629011154175 0.5410823822021484
0.07576937973499298 0.9658694863319397 1.843717098236084
-0.016280576586723328 0.3527778387069702 -2.1075026988983154
0.24472716450691223 0.13138259947299957 1.7186639308929443
-0.7428455352783203 0.2407906949520111 -0.7697638273239136
-0.4075031578540802 0.937211811542511 0.6104214191436768
0.3976220488548279 0.8355185389518738 -0.8545459508895874
0.3049410581588745 0.1943390667438507 2.1726579666137695
-0.4372451901435852 0.630594789981842 -1.7007445096969604
0.4848295748233795 0.41680291295051575 1.844266414642334
-0.695229709148407 1.2651504278182983 0.6633107662200928
1.2316105365753174 0.9870361685752869 -1.3198754787445068
-0.8866099715232849 1.054274559020996 1.454176664352417
-0.38218027353286743 1.0066235065460205 1.8313050270080566
0.2419847995042801 1.1929126977920532 -2.6117372512817383
0.8085859417915344 0.7795794010162354 2.447035312652588
0.008965011686086655 0.38035374879837036 1.5947904586791992
0.1532009094953537 1.1926465034484863 1.7600246667861938
-0.3257160782814026 1.0015333890914917 -2.29909086227417
1.675594687461853 1.0100805759429932 1.5830905437469482
-0.44771382212638855 1.2093781232833862 -1.7601643800735474
0.6521252989768982 0.5397744178771973 0.5334123373031616
0.9707895517349243 1.177519679069519 -0.6968792676925659
1.2030298709869385 0.9908792972564697 1.5238202810287476
0.022659413516521454 0.3678629398345947 0.8832104206085205
-0.13312827050685883 0.3084688186645508 1.1309775114059448
0.16286227107048035 0.9593696594238281 -1.3395626544952393
1.3023871183395386 1.1701136827468872 -1.7328747510910034
1.0601671934127808 1.177980899810791 -2.373286247253418
1.2811051607131958 0.9989805817604065 -1.6099580526351929
1.0193698406219482 1.014845371246338 1.6109447479248047
0.41901695728302 0.6948532462120056 2.5655641555786133
-0.7873182892799377 -0.07376754283905029 -1.5915982723236084
-0.2718846797943115 1.1700236797332764 -1.9345266819000244
-0.7389216423034668 1.059008240699768 -0.2823176681995392
0.3659908175468445 0.8058884143829346 -0.8015123605728149
1.1359448432922363 0.6089885234832764 1.704206109046936
0.954446017742157 0.28047066926956177 0.1650993674993515
0.5701878070831299 0.9156590700149536 2.728346347808838
0.12117798626422882 0.948673665523529 -1.8807365894317627
0.6504617929458618 0.9266082048416138 -1.5020670890808105
0.17582261562347412 1.1645509004592896 -0.8018553256988525
0.6822535395622253 0.5020056962966919 -1.614344835281372
-0.4648650884628296 0.17285054922103882 -1.9846912622451782
0.017324358224868774 0.2871040999889374 2.0368430614471436
-0.7676131725311279 1.0040295124053955 0.05805111676454544
-0.6694891452789307 0.9339230060577393 -0.7999833822250366
1.2077029943466187 1.0628788471221924 1.6020433902740479
0.25492390990257263 1.1906887292861938 -1.5152666568756104
1.0368638038635254 1.012972354888916 0.12756605446338654
-0.08078562468290329 1.1733827590942383 0.833332359790802
0.5674735903739929 0.5165526866912842 -1.1996406316757202
0.7366073727607727 1.1734530925750732 -1.574351191520691
1.0120779275894165 0.6234474778175354 -0.8455249071121216
0.1537768542766571 -0.17385134100914001 -1.3588625192642212
0.23151767253875732 0.9730820059776306 2.945176362991333
0.17899712920188904 1.1854362487792969 0.6870091557502747
1.4263640642166138 1.182943344116211 -0.21861299872398376
0.29810789227485657 0.9539162516593933 1.211531400680542
-0.3356747329235077 -0.1474839746952057 -1.6128116846084595
1.1719783544540405 0.41975200176239014 1.8880680799484253
0.10416604578495026 1.1859130859375 0.5118293166160583
-0.4116109311580658 1.177943468093872 0.3918675482273102
-0.36869361996650696 0.7585005164146423 0.7010480165481567
0.9025787115097046 1.0273170471191406 -2.3635284900665283
0.9512789249420166 1.0850944519042969 2.868727684020996
0.5404390692710876 0.29104024171829224 0.29054275155067444
0.9977164268493652 0.2830892503261566 1.3399250507354736
0.3115350902080536 0.19530227780342102 -0.0707971602678299
-0.303725928068161 0.667424201965332 2.539405584335327
0.2995915710926056 0.5922060608863831 -0.3513638973236084
-0.33540812134742737 1.0305355787277222 0.3221359848976135
0.9467094540596008 1.0144920349121094 -0.8740049004554749
-0.07219850271940231 0.10492189228534698 1.2951924800872803
-0.07192368805408478 0.522933304309845 0.7681328058242798
-0.18904998898506165 1.023231029510498 -1.997559905052185
0.0035921186208724976 0.7327896952629089 0.3926519751548767
1.142767310142517 1.0029760599136353 0.3771232068538666
0.22077351808547974 1.0323388576507568 -0.19036562740802765
0.9671971797943115 1.1826255321502686 1.6687936782836914
0.3718991279602051 1.211738109588623 0.9460506439208984
0.10008218884468079 1.1987687349319458 -0.5450459122657776
-0.34415942430496216 1.1872501373291016 0.3666560649871826
0.3481498658657074 0.9029737710952759 -1.051384687423706
-0.9432293772697449 1.1573288440704346 1.0004023313522339
-0.7433400750160217 0.6605082750320435 -0.5579904913902283
-0.25131335854530334 0.48498064279556274 0.5182197093963623
1.111671805381775 1.2023810148239136 0.35790860652923584
0.8213744163513184 0.5406832695007324 -1.2902286052703857
0.3635667860507965 0.15466146171092987 1.3917977809906006
-0.7929699420928955 1.0137804746627808 -1.8285298347473145
-0.5635493397712708 1.0222867727279663 -1.041488766670227
0.15032148361206055 0.8774819374084473 -3.049973487854004
-0.39073142409324646 1.0491713285446167 -2.99871563911438
-0.2428891956806183 1.013521671295166 -0.1693999469280243
0.9489081501960754 0.3690916895866394 1.2337172031402588
0.8717350363731384 1.0420461893081665 -2.5589842796325684
0.23372812569141388 1.0023300647735596 -2.0996522903442383
-0.2648710310459137 1.005929946899414 1.994214653968811
-0.5809381008148193 0.44780266284942627 0.6771684885025024
-0.25831595063209534 1.181909441947937 -0.7543741464614868
-0.7089377641677856 1.08774733543396 -2.147223949432373
0.07533799111843109 1.0020990371704102 -0.633672297000885
-0.7765499353408813 0.30014753341674805 1.6990307569503784
1.0885167121887207 0.9595646858215332 -1.431840181350708
0.7108412981033325 0.3538140654563904 0.30952203273773193
-0.6292980909347534 0.9671471118927002 -0.21025094389915466
0.2650231420993805 0.48753637075424194 -1.1342616081237793
-0.049501776695251465 1.1913973093032837 -1.1712760925292969
1.2388254404067993 0.9264836311340332 0.529024600982666
0.25270453095436096 0.5331177711486816 1.350173830986023
-0.6858874559402466 1.2429176568984985 0.822602391242981
-0.09014535695314407 0.34118565917015076 -1.2929514646530151
0.47650691866874695 1.2178051471710205 -0.6616256833076477
1.4194519519805908 0.9499983787536621 0.24970731139183044
0.672752857208252 0.4764195382595062 -1.0269691944122314
1.2617477178573608 0.9753110408782959 -0.4851211607456207
0.46562567353248596 0.8143426179885864 0.5912743210792542
0.9309250712394714 1.1858142614364624 -0.7293301224708557
-1.165345549583435 0.8554762601852417 1.95970618724823
-0.7746313810348511 0.036828309297561646 1.3710696697235107
-0.24061886966228485 0.3586271405220032 -2.104705810546875
0.6467711925506592 1.1787630319595337 0.8879371881484985
-0.502684473991394 0.2138172686100006 -1.8554211854934692
0.09569914638996124 0.9983941912651062 -0.5184573531150818
-0.9138296842575073 0.5832877159118652 -0.4646516442298889
-0.3860008716583252 0.12565326690673828 -1.9860953092575073
-0.47368720173835754 0.9837666749954224 -2.294649600982666
0.37921780347824097 0.5126603841781616 1.4100093841552734
0.26555490493774414 0.5340514183044434 0.8501717448234558
-0.45351141691207886 0.8350907564163208 0.7052909135818481
-0.7622269988059998 0.9688872694969177 -1.961382508277893
0.11843471229076385 1.1934880018234253 -1.5307103395462036
0.6041991710662842 0.9484715461730957 0.8067172765731812
0.7816572785377502 0.148063063621521 -1.5608869791030884
0.6466142535209656 1.1815413236618042 -1.292739748954773
0.48308929800987244 1.0047438144683838 -0.13857150077819824
1.2005536556243896 0.9911589622497559 -2.1636719703674316
-0.2996632158756256 0.6687638759613037 1.161787986755371
0.3014935255050659 1.1869770288467407 0.6286857724189758
0.5611943602561951 0.9812307357788086 0.4486020505428314
0.837107241153717 0.8929500579833984 1.4083613157272339
1.0372198820114136 1.1853519678115845 -1.8874354362487793
0.3699347674846649 0.9147907495498657 0.07428858429193497
-0.4619308114051819 0.8568035960197449 2.353102684020996
-0.0009631067514419556 1.0281280279159546 1.1930729150772095
1.6024236679077148 1.1426568031311035 1.0156450271606445
0.718605101108551 0.9821545481681824 -0.005046358797699213
-0.6685447096824646 1.0246391296386719 1.6676439046859741
0.7518981099128723 1.003824234008789 -1.741039514541626
0.9238374829292297 0.9688260555267334 -2.7208430767059326
1.0951697826385498 0.9690659046173096 -1.6076992750167847
0.6133167147636414 0.416892409324646 2.199766159057617
0.7862340807914734 1.02619469165802 1.0946564674377441
1.6908401250839233 0.8551489114761353 -2.073307752609253
0.9438170194625854 0.9860479235649109 2.0062878131866455
-0.08548310399055481 0.6193603277206421 -0.9197020530700684
-0.32728323340415955 1.1858303546905518 -1.35984206199646
0.877074122428894 1.1924649477005005 0.3937089443206787
-0.5283745527267456 0.7547279596328735 2.3280293941497803
0.948020339012146 1.2127323150634766 -0.17219124734401703
-0.002951487898826599 1.1982104778289795 1.098321795463562
0.27562618255615234 1.1900850534439087 -1.0375417470932007
0.4589613378047943 0.4304735064506531 0.42606034874916077
0.5054147839546204 1.0042749643325806 -0.31535425782203674
0.23444530367851257 0.43156296014785767 1.1357643604278564
-0.4579716622829437 1.0073187351226807 0.9922182559967041
1.2099626064300537 1.1843292713165283 0.14147447049617767
0.3182246685028076 0.20276641845703125 -0.793275773525238
0.12277895212173462 0.9700753092765808 -0.5362462401390076
0.2067333161830902 1.0125007629394531 -1.1157417297363281
-1.1387118101119995 1.0324605703353882 1.8561574220657349
0.3427690863609314 0.3577815294265747 0.6977036595344543
1.3227126598358154 0.9776918888092041 0.36873310804367065
0.3894791305065155 0.9826253652572632 -1.9653939008712769
0.043981824070215225 1.1906771659851074 1.479569673538208
1.436179518699646 0.9675024151802063 -1.0743708610534668
0.4698290228843689 1.1507841348648071 0.7643783688545227
0.7276836633682251 0.5403284430503845 -1.368908405303955
0.1992192268371582 0.7614471912384033 -0.3738878667354584
-0.56412672996521 1.158820390701294 -1.942366123199463
-0.9543590545654297 0.9827637672424316 2.0790891647338867
0.37988799810409546 1.1829272508621216 -2.0797030925750732
1.185213327407837 0.934120237827301 1.9233218431472778
0.5342131853103638 1.168148159980774 -0.5897845029830933
1.3712682723999023 0.9776772260665894 -0.9409176707267761
0.6304490566253662 1.1867021322250366 -1.4047884941101074
-0.2963615655899048 1.1641789674758911 -2.1708362102508545
1.2650154829025269 1.2446980476379395 -1.2866928577423096
-0.7323449850082397 1.1341884136199951 -0.5273534655570984
0.8104112148284912 0.304950475692749 1.6099255084991455
-0.9911494851112366 0.533701479434967 0.7380228638648987
-0.2896895408630371 1.1736798286437988 0.3118782639503479
1.1842544078826904 0.9392199516296387 1.0498929023742676
0.43007057905197144 0.6017009019851685 1.2434258460998535
0.22562755644321442 0.7645078301429749 -1.406507134437561
0.43307340145111084 0.13166747987270355 1.030883550643921
-0.6880805492401123 0.16824355721473694 1.1585981845855713
0.665028989315033 1.0136855840682983 1.092271089553833
-0.06265410780906677 0.7461317777633667 -1.5115569829940796
0.2588381767272949 1.2013221979141235 0.3826419711112976
-0.3645772337913513 1.1871230602264404 0.04924832284450531
-0.14468681812286377 0.33593282103538513 1.410766839981079
-0.11411461979150772 0.6034475564956665 -2.131112575531006
1.1327991485595703 0.40689489245414734 -0.3792802095413208
0.1001444011926651 0.33111876249313354 0.3105732500553131
-0.08988866209983826 0.28194403648376465 -1.465506672859192
0.19850721955299377 0.27212244272232056 -1.9764127731323242
-0.39516904950141907 1.1809076070785522 1.1094244718551636
-0.02950456738471985 1.138655185699463 2.4143240451812744
0.01052684336900711 0.9423611164093018 -1.7619372606277466
0.1724148839712143 0.953829288482666 -1.5080162286758423
1.7759257555007935 0.9945414066314697 -0.05692111328244209
0.771572470664978 1.2378110885620117 0.8846465349197388
1.0039929151535034 1.1746095418930054 -2.4166104793548584
0.6179128289222717 0.7789642214775085 -0.6652997732162476
1.4128004312515259 1.0090373754501343 1.2025262117385864
-0.6970488429069519 0.8827029466629028 -3.3993048667907715
-0.13516440987586975 0.3204629123210907 2.071719169616699
0.8340283632278442 0.4076188802719116 1.912449836730957
0.21135014295578003 0.9518117904663086 0.26631277799606323
-0.6426923871040344 0.5883862376213074 -0.464741587638855
0.35036522150039673 0.8604153394699097 0.25685063004493713
0.10041426122188568 1.1863138675689697 0.4559383690357208
1.0408967733383179 0.9164142608642578 1.1639891862869263
-0.6514379978179932 0.9407555460929871 1.2786064147949219
0.3221411406993866 1.1846662759780884 0.5977655053138733
0.5327296257019043 1.1698731184005737 -1.2673497200012207
0.023469172418117523 -0.05444808304309845 1.6436824798583984
-0.8141329884529114 1.2793701887130737 -1.693076252937317
0.1988060027360916 -0.18752384185791016 2.137634515762329
0.36554333567619324 0.3370315432548523 0.8963285684585571
0.46956154704093933 0.6426193118095398 1.4604880809783936
-0.5624799728393555 1.1795440912246704 -0.6865226626396179
0.12355048954486847 0.9901825189590454 1.4803574085235596
0.08926872164011002 0.7883211970329285 2.497119188308716
0.19817879796028137 0.9611325263977051 -0.16914469003677368
0.666126549243927 1.0314432382583618 1.6900159120559692
-2.116894483566284 1.0342037677764893 -1.7067285776138306
0.9551712870597839 1.0180093050003052 -0.10102498531341553
0.354059100151062 0.5307828187942505 -1.8113535642623901
0.08890226483345032 1.2277592420578003 -0.4657219350337982
0.33977270126342773 0.9870926737785339 -0.06033690273761749
0.28308072686195374 1.2252042293548584 -2.354442596435547
-0.07296822220087051 0.7296888828277588 1.2000906467437744
0.8784804344177246 0.882519543170929 -1.2601269483566284
0.4212738275527954 1.0278509855270386 1.1199973821640015
0.5814697742462158 0.8423293828964233 0.9720152020454407
1.1544342041015625 1.1779139041900635 0.7699137926101685
0.8404050469398499 1.2266052961349487 1.288872241973877
0.48786139488220215 1.0453041791915894 0.3898109495639801
0.4559158980846405 0.9862005710601807 0.47221601009368896
-0.27546563744544983 1.0121172666549683 -1.6971123218536377
0.3248215615749359 1.1856062412261963 1.2493963241577148
1.6807111501693726 1.0678260326385498 1.0671837329864502
0.6946830153465271 1.1887598037719727 -2.1409242153167725
0.09207290410995483 0.3638739585876465 1.2889701128005981
0.08932501822710037 1.1755694150924683 1.3929011821746826
-1.056795597076416 1.0568372011184692 0.7770575881004333
-0.20079514384269714 0.9964645504951477 -0.18038059771060944
0.7594032287597656 0.08664053678512573 1.1958163976669312
0.20777881145477295 1.0805203914642334 -1.6517466306686401
-0.01914045214653015 -0.1722322702407837 -1.435703158378601
0.55003821849823 0.9850670695304871 0.9056356549263
1.3890199661254883 0.442751407623291 1.778541088104248
0.6192715764045715 0.1864652931690216 -1.1534841060638428
0.5582001209259033 0.38796448707580566 -1.159196376800537
0.7719899415969849 1.0236836671829224 0.27775371074676514
-0.8977566957473755 0.9713016748428345 1.1775267124176025
-0.813582718372345 1.0511387586593628 -2.8641514778137207
0.585214376449585 0.5017594695091248 0.5635985136032104
0.3166525661945343 1.1834042072296143 -2.6000490188598633
0.8035406470298767 0.9152764081954956 1.0662546157836914
-0.01596663147211075 0.07435342669487 0.8487612009048462
0.38523605465888977 0.9966274499893188 -0.4511563181877136
0.8834772706031799 1.1211981773376465 -2.7337732315063477
0.9415210485458374 0.9920097589492798 -2.3355367183685303
-0.9896352887153625 1.2313770055770874 0.631568968296051
0.5764825344085693 1.0030356645584106 -2.101196765899658
0.24588577449321747 0.20834633708000183 0.7687528729438782
0.9595600366592407 0.5797630548477173 0.1579151749610901
-0.7461763620376587 0.7984417080879211 1.4919062852859497
0.9373624324798584 1.0127191543579102 -0.40714699029922485
-0.6192189455032349 1.1769683361053467 1.458212971687317
-0.5407358407974243 0.10913088917732239 -1.5531728267669678
0.9471114277839661 -0.11052854359149933 -1.5563085079193115
-0.11912820488214493 0.4933736324310303 -0.38168755173683167
-0.577928900718689 0.3060297966003418 -1.1574554443359375
0.7265831828117371 0.4889580011367798 1.4166483879089355
-0.6256129741668701 -0.05587384104728699 -1.3733232021331787
0.8566649556159973 0.4731518626213074 1.8284047842025757
0.2276884913444519 0.2791476845741272 -1.1411617994308472
0.4795747697353363 1.1986356973648071 -1.0459157228469849
1.4299559593200684 1.1837561130523682 -1.5461876392364502
0.4804303050041199 0.2740793824195862 1.972761869430542
-0.1385107785463333 0.9470040798187256 2.331986904144287
0.1958560347557068 0.35606464743614197 -0.7899133563041687
0.35835427045822144 0.434958815574646 -1.0373899936676025
0.2069660723209381 0.4168546497821808 1.5985527038574219
0.17830678820610046 1.0660207271575928 0.579269289970398
0.05489977076649666 1.1949087381362915 1.3887860774993896
-0.010063640773296356 1.0371085405349731 1.93587327003479
1.138914704322815 0.573562741279602 -2.539057493209839
-0.285445898771286 0.4401816129684448 2.0951268672943115
0.2726965546607971 1.1738078594207764 1.7324182987213135
-0.3738122582435608 1.0107433795928955 -0.7292006611824036
1.273064374923706 0.7965855598449707 0.6973863244056702
0.2564730942249298 0.8319944143295288 1.675355076789856
1.154904842376709 0.4332660138607025 -0.9717671871185303
-0.18809688091278076 0.9504523277282715 -0.12367048114538193
0.1796467900276184 0.09434539079666138 1.8981378078460693
0.5654986500740051 0.9217238426208496 0.3122808039188385
0.434246301651001 0.22650666534900665 -0.9998373985290527
-0.04430967569351196 0.9487873315811157 0.3998498320579529
-0.1058168113231659 0.07385917007923126 1.1512795686721802
1.2721736431121826 0.9900296330451965 1.4925899505615234
0.776591956615448 1.10182785987854 2.1262335777282715
-0.4692350924015045 0.45783546566963196 1.1249165534973145
0.03739213943481445 1.1825354099273682 0.2538658380508423
0.23124167323112488 1.0201784372329712 0.40506741404533386
0.17510098218917847 1.1930911540985107 -1.3338537216186523
-0.0412449985742569 1.185649037361145 -0.24909968674182892
0.6587816476821899 0.7743585705757141 2.7899439334869385
0.590179979801178 1.1790354251861572 0.7767122983932495
-0.08321914076805115 1.1844589710235596 1.2504408359527588
-0.26102498173713684 0.3282390832901001 -1.3969191312789917
0.7644093036651611 1.1806191205978394 -1.978312373161316
0.19618771970272064 1.1817221641540527 -2.375657081604004
1.7741135358810425 0.9797919392585754 -1.850167155265808
-0.07198141515254974 0.5558167099952698 1.0233160257339478
0.2936428487300873 1.030268907546997 1.1115585565567017
-0.5269626379013062 0.9377562999725342 0.25593575835227966
-0.5388831496238708 1.034104347229004 1.2211661338806152
1.228584885597229 1.0477691888809204 -2.7084572315216064
0.3331557512283325 1.0330145359039307 1.169095516204834
0.38859614729881287 0.43630653619766235 -1.4210178852081299
0.6774929761886597 0.016726598143577576 -1.5423274040222168
0.7699759006500244 0.7503422498703003 0.8558292388916016
1.1571820974349976 1.1811838150024414 -2.082598924636841
1.277662754058838 1.0238059759140015 0.8396168947219849
-0.5513845682144165 0.9644831418991089 -1.2588690519332886
-0.0783497765660286 0.937317967414856 0.10100935399532318
-0.051346369087696075 0.07113909721374512 -1.7952772378921509
0.35653063654899597 0.9966105222702026 -0.6264147162437439
0.46834734082221985 0.5545854568481445 2.375413417816162
-1.0993133783340454 1.2028660774230957 -1.5453978776931763
-0.13811758160591125 1.182823896408081 -1.7208479642868042
-0.09475376456975937 1.0210316181182861 -0.8202502131462097
0.4561951756477356 0.6365511417388916 -0.794502854347229
-0.7245798110961914 -0.013500094413757324 -1.8912161588668823
-0.339618980884552 0.9847081899642944 -2.066826343536377
-0.0730924904346466 0.37354469299316406 1.8433802127838135
-0.020400822162628174 0.941482663154602 -2.7697482109069824
0.7697702646255493 1.0217876434326172 -0.34171542525291443
1.039886713027954 0.9922128319740295 1.8083946704864502
-0.1134280264377594 1.17767333984375 0.7511183023452759
0.5150493383407593 0.2969791293144226 -2.1039514541625977
1.0299127101898193 1.0276312828063965 0.6780446767807007
-0.08568770438432693 1.2693631649017334 -0.5335785150527954
0.6345347166061401 0.4908857047557831 0.5372755527496338
0.47587350010871887 1.0355021953582764 0.6592711210250854
0.30465930700302124 0.7620506286621094 -2.098503828048706
0.8063991665840149 0.813544750213623 -0.25403961539268494
-0.9637480974197388 0.5593025088310242 1.691694736480713
-0.014469727873802185 0.1404595971107483 1.3408457040786743
0.6910781860351562 0.987265944480896 -0.03315594792366028
0.7130076885223389 -0.1822899878025055 1.0723270177841187
-0.5840246081352234 1.1971254348754883 -0.6322069764137268
0.8684081435203552 1.1873962879180908 -1.8626216650009155
1.5191189050674438 1.0456671714782715 2.1070358753204346
1.3225494623184204 0.8363973498344421 -1.9984135627746582
0.31942152976989746 1.183011531829834 -1.9196385145187378
-0.7036276459693909 0.9503704309463501 2.8134026527404785
0.24610485136508942 1.0319135189056396 -0.821362316608429
0.5258542895317078 0.5436214804649353 1.4487429857254028
0.4452645778656006 0.504460334777832 1.6401042938232422
0.4279605448246002 0.14473757147789001 1.8389347791671753
0.18911325931549072 0.6241283416748047 -2.8429479598999023
0.17853179574012756 0.7238568067550659 -0.9792857766151428
0.2235986292362213 0.7743911743164062 0.38399016857147217
-0.3088914155960083 0.9998593926429749 2.181415557861328
0.12438477575778961 1.1912944316864014 0.7815263867378235
0.4161780774593353 0.5173203349113464 0.7769604921340942
-0.03800947219133377 1.0014007091522217 -0.4394107162952423
0.45115047693252563 1.033021330833435 0.23265504837036133
1.128438949584961 0.34839147329330444 0.5184265375137329
-0.22467142343521118 0.34059998393058777 -1.52383553981781
-0.5183918476104736 0.9914750456809998 -1.8589459657669067
0.8761379718780518 1.169411540031433 0.5641524195671082
1.1149425506591797 1.0272761583328247 -1.32685124874115
0.09781719744205475 0.6064839363098145 2.1001267433166504
0.35782238841056824 1.1745136976242065 -2.880589485168457
0.20324008166790009 0.966407060623169 -2.4131805896759033
-0.7363616824150085 1.0485204458236694 0.08456988632678986
0.8227154612541199 0.9854909777641296 -0.43740975856781006
0.8562408685684204 -0.33495527505874634 -1.4447516202926636
0.3871069848537445 -0.024769335985183716 2.1587936878204346
-1.0416852235794067 1.1137622594833374 0.10665736347436905
0.9137232899665833 1.177461862564087 1.756157398223877
-0.5308900475502014 1.0429133176803589 -0.6848512291908264
-0.45948195457458496 1.1932705640792847 -0.815158486366272
-0.9166646599769592 1.1942615509033203 -2.055988073348999
0.4614236652851105 1.201740026473999 -1.886462926864624
-0.3902062177658081 0.6777781248092651 0.8831338286399841
0.08532217144966125 1.0224112272262573 2.1405680179595947
-1.163023829460144 1.185408115386963 -0.8945149779319763
-0.36795008182525635 1.1760478019714355 -1.9262900352478027
0.28179895877838135 1.0646623373031616 1.8310015201568604
1.2410509586334229 1.092727541923523 -2.393493413925171
0.1859392374753952 1.0241278409957886 1.011670470237732
-0.5830087661743164 0.21619263291358948 -1.0543376207351685
1.1872254610061646 1.1473623514175415 1.8290036916732788
-0.5852764844894409 1.2070541381835938 0.34940236806869507
0.4129936099052429 0.9874264001846313 -1.1499555110931396
0.9306701421737671 1.1848896741867065 1.5417683124542236
-0.4359801411628723 0.33435022830963135 -0.9687714576721191
0.5055358409881592 0.5858124494552612 0.81194007396698
-0.17555105686187744 0.5699625611305237 0.5447284579277039
0.7374252080917358 0.5318747758865356 -0.5827406644821167
0.9990206360816956 0.6756575107574463 -1.439152717590332
0.49103498458862305 1.0586528778076172 -0.8005729913711548
-0.5189247131347656 0.9543253183364868 -3.3403337001800537
-0.2975161075592041 0.4599418640136719 1.0090625286102295
0.6667096614837646 -0.5185768604278564 1.758018136024475
-0.7983977198600769 0.9276618957519531 1.4023382663726807
-0.25366970896720886 1.1723514795303345 0.6287297010421753
1.520817518234253 0.966507077217102 -1.4007608890533447
-0.976585865020752 1.115937352180481 -0.43675944209098816
-0.08440960198640823 1.1962435245513916 -0.6447641253471375
-0.11118501424789429 0.9611207246780396 -1.180971384048462
0.09802600741386414 1.1819822788238525 0.9844990968704224
0.7292667031288147 1.191530704498291 1.045871376991272
1.57545804977417 0.9900817275047302 0.9708184003829956
0.0008382834494113922 1.205839991569519 -1.1039245128631592
-0.6730278730392456 0.8738627433776855 -1.0937491655349731
-0.5078306794166565 1.0116791725158691 -1.8471912145614624
0.002382032573223114 1.1886111497879028 -1.2873674631118774
-0.8073466420173645 0.044059187173843384 -1.5026699304580688
-0.18792836368083954 0.3016728162765503 -1.7981140613555908
0.20601311326026917 0.6097229719161987 2.244375705718994
0.06727556884288788 1.1059757471084595 2.3924407958984375
0.6464363932609558 1.044540286064148 1.8650740385055542
0.4689902365207672 0.4756958484649658 0.16413713991641998
0.6435152888298035 0.9184165000915527 -0.06476616859436035
0.07999950647354126 0.7824844121932983 -0.8398365378379822
0.5687795281410217 1.0813934803009033 -2.5940656661987305
-0.05553516000509262 1.0017893314361572 -0.04154474288225174
0.6606893539428711 1.0061895847320557 0.26480281352996826
0.31907516717910767 -0.634444534778595 1.8573025465011597
0.083922378718853 0.9967137575149536 -0.9101840257644653
1.1201555728912354 0.508721649646759 -0.1692693531513214
0.5911359786987305 0.3140454590320587 1.837286353111267
-0.08738464117050171 1.1889095306396484 0.1760556399822235
0.4590946137905121 0.17738211154937744 -0.3164932131767273
0.12090796232223511 0.2989742159843445 0.7761008739471436
-0.32436278462409973 1.1136794090270996 -0.34704476594924927
-0.5789276957511902 0.9087204933166504 2.452725410461426
-0.324728399515152 0.9751923680305481 2.2949090003967285
1.0453821420669556 0.23387864232063293 1.413636326789856
0.2903519570827484 0.9804344177246094 -0.7436736226081848
0.20492763817310333 1.102502465248108 -0.7503184676170349
0.9671370983123779 1.2577011585235596 -0.9831730127334595
0.6492187976837158 0.39225274324417114 -0.5741965174674988
0.2753711938858032 0.3372102379798889 -1.5176382064819336
0.2085527777671814 1.175766110420227 -1.8656572103500366
-0.31084302067756653 0.9503881335258484 -1.4514274597167969
0.25988608598709106 1.0177147388458252 -1.5990004539489746
-0.11639980971813202 1.1796983480453491 -1.3100804090499878
0.04930492490530014 1.1560044288635254 2.0741162300109863
1.1973532438278198 0.9938019514083862 -0.7940430641174316
-0.4703034460544586 1.0261428356170654 2.037628173828125
0.9287603497505188 0.4458202123641968 -2.0758728981018066
-0.23934057354927063 1.1598374843597412 -1.1011981964111328
0.5200433135032654 0.9920987486839294 -0.11850257962942123
-0.23012736439704895 0.9741758108139038 -1.1112242937088013
0.23657763004302979 0.2993484139442444 0.40446341037750244
-0.312466561794281 0.5040766596794128 2.230879068374634
-0.0565815269947052 0.3790682256221771 1.1603965759277344
-0.38346946239471436 1.010288119316101 3.1801605224609375
1.7066261768341064 0.8536649942398071 -1.9455406665802002
0.9345252513885498 0.7996327877044678 -1.9841241836547852
-0.5586836934089661 0.2764725089073181 -1.5666122436523438
-0.5178315043449402 1.1273144483566284 3.1864099502563477
1.0590757131576538 0.7061241269111633 0.06152782216668129
0.25206661224365234 0.7051542401313782 1.5284613370895386
0.1273212432861328 1.1940807104110718 -1.3266481161117554
-0.1460954248905182 1.1349084377288818 -1.1447746753692627
0.5523910522460938 1.1916804313659668 -0.9665104746818542
-0.21068301796913147 0.9837286472320557 -1.011633276939392
0.2957229018211365 0.3528556525707245 0.5440945625305176
0.7457250952720642 1.0215468406677246 -0.904036283493042
0.06142786890268326 -0.04595834016799927 0.06253697723150253
-0.9189128875732422 1.0595462322235107 -0.7299883961677551
0.6338533759117126 0.5075774192810059 1.4754383563995361
0.8348438143730164 0.847713053226471 2.1102967262268066
-0.3895234763622284 0.9716413021087646 -2.1517295837402344
-0.16227975487709045 0.41894006729125977 1.357611894607544
1.3903863430023193 1.182743787765503 1.2690471410751343
0.3465348184108734 1.016444444656372 0.6753357648849487
0.1804606169462204 1.1673040390014648 -0.2550569474697113
1.4414594173431396 1.0598100423812866 0.36558371782302856
0.4015139639377594 0.9996562004089355 0.238749697804451
-0.4172835946083069 0.909317135810852 1.7548599243164062
-0.21839293837547302 1.1777703762054443 -1.8168730735778809
-0.25667452812194824 0.32282814383506775 -0.17676520347595215
1.5733544826507568 0.8286638259887695 -1.8009254932403564
0.08959762752056122 1.0210226774215698 1.920971155166626
-0.49523481726646423 0.9811863303184509 -2.307955741882324
0.00031865015625953674 0.9966437816619873 -0.11871008574962616
0.5757929086685181 1.1833040714263916 -1.683270812034607
0.4431513845920563 1.1653122901916504 -0.6883481740951538
0.5731679201126099 0.26389503479003906 -1.3249199390411377
0.7755725383758545 0.6059982180595398 0.38837119936943054
-0.15007463097572327 0.9313318729400635 -0.5770803093910217
-0.41998136043548584 1.187365174293518 0.5723600387573242
0.4346732199192047 0.5520933866500854 -1.0530505180358887
1.1680012941360474 1.1853306293487549 -1.0588700771331787
0.09543244540691376 1.2104992866516113 -2.1782608032226562
1.1247116327285767 0.5935602784156799 -0.32810550928115845
-0.003822825849056244 0.9669383764266968 -0.26720377802848816
-0.35059791803359985 1.0075089931488037 0.10062442719936371
0.4624664783477783 1.2037603855133057 -0.419259250164032
0.8686486482620239 1.0065438747406006 -1.4756652116775513
0.1578730344772339 1.0368913412094116 -0.2181081622838974
-0.663677990436554 0.8565044403076172 1.5444719791412354
-0.004923142492771149 1.1890926361083984 -1.3295574188232422
0.18983152508735657 1.1902533769607544 0.12886005640029907
0.9912598133087158 1.1877377033233643 -0.47130054235458374
-0.5285062789916992 0.9536109566688538 -2.0729727745056152
0.2718908488750458 0.987626850605011 3.0111052989959717
0.7407782673835754 0.30377134680747986 1.9668598175048828
1.5513172149658203 0.49019765853881836 2.0984416007995605
-0.6004835367202759 1.1651452779769897 2.1366400718688965
0.396155446767807 0.5128154158592224 0.4763288199901581
1.4378724098205566 1.1838942766189575 -1.025750756263733
0.040872957557439804 1.1766537427902222 -3.2146754264831543
0.31182825565338135 1.0549967288970947 -0.27141356468200684
0.3693227171897888 1.1835130453109741 -0.9058881998062134
0.24025332927703857 1.0342485904693604 1.2290321588516235
-0.28844237327575684 1.1708356142044067 1.6361536979675293
1.6736422777175903 1.0298173427581787 -1.0719776153564453
-0.09018547832965851 0.350374698638916 1.1406387090682983
-0.1215706542134285 1.1824469566345215 1.0675926208496094
1.219335675239563 1.0318068265914917 1.7120329141616821
1.0799269676208496 1.0039944648742676 -1.781014323234558
0.8069630861282349 1.0648795366287231 2.486736297607422
-0.05775134265422821 1.0185647010803223 -0.05757873132824898
