ply
format ascii 1.0
element vertex 804
property float x
property float y
property float z
end_header
1.089661717414856 -0.10158371925354004 -0.5985597968101501
0.06525159627199173 -0.2859208583831787 1.291398525238037
-0.9517197012901306 -0.22723045945167542 -0.21025031805038452
0.6115516424179077 -0.291424036026001 0.7578701972961426
-0.39534682035446167 -0.30480051040649414 1.6430057287216187
0.7908614277839661 0.1537470817565918 0.5371750593185425
0.004635479301214218 0.06605160236358643 -0.23260192573070526
1.4399378299713135 -0.13633006811141968 1.5906119346618652
-1.4173997640609741 -0.3106961250305176 2.0662739276885986
-0.8795197606086731 0.19220542907714844 -1.087660312652588
-0.22699382901191711 -0.5239846706390381 0.7298390865325928
0.9583765268325806 -0.29950177669525146 0.23472902178764343
-2.4873955249786377 0.04478380084037781 -0.7237853407859802
2.007591485977173 -0.1398097276687622 0.5072434544563293
1.6604682207107544 -0.2837841510772705 0.1207338497042656
0.738724946975708 -0.4868165850639343 0.35245567560195923
0.6353082060813904 0.038614749908447266 0.03633725270628929
-1.4652721881866455 -0.2791750133037567 -1.2166690826416016
-1.2048598527908325 -0.4978365898132324 0.03248076140880585
-2.3284716606140137 -0.3501426577568054 1.030216932296753
-0.8363027572631836 -0.3146052956581116 0.1878371685743332
-0.40180885791778564 -0.3075577914714813 -0.4340968430042267
-0.5000033974647522 0.4502113461494446 -0.8208537101745605
0.46312931180000305 0.2939547598361969 0.674798846244812
-0.6586193442344666 0.3064669966697693 0.6573894619941711
-0.5903720855712891 0.009503066539764404 2.325004816055298
-1.3195825815200806 -0.47710809111595154 0.9275582432746887
-0.08020104467868805 -0.5271152853965759 0.5622942447662354
-2.006178617477417 0.18825656175613403 -0.8154631853103638
-0.7108550071716309 -0.32986560463905334 -0.13269412517547607
0.04252512753009796 -0.24124839901924133 1.9446725845336914
-0.41040289402008057 -0.5275347232818604 -0.08612518012523651
-1.3542119264602661 0.589452862739563 0.10065311193466187
-1.6797951459884644 -0.2630283534526825 -2.005856513977051
-1.122776985168457 -0.31027889251708984 -0.047065913677215576
-0.8617278337478638 0.5300338268280029 -0.40180906653404236
-1.877987027168274 0.6715911626815796 0.06440075486898422
-3.308814287185669 -0.232776939868927 1.184909462928772
-0.9461554288864136 -0.03249306604266167 -1.6594595909118652
0.30077165365219116 0.6128076910972595 0.7677538990974426
0.9198340177536011 -0.19950182735919952 1.6852993965148926
-0.3101211190223694 0.10132986307144165 0.288390189409256
1.1246507167816162 0.3018420338630676 -0.1539059579372406
-0.31713569164276123 0.2193271517753601 1.62189781665802
-1.8097920417785645 -0.5079771280288696 -0.48967084288597107
-0.49309074878692627 0.41779690980911255 0.6370405554771423
-3.0452921390533447 -0.30042117834091187 0.16236254572868347
-0.2900451123714447 0.2474544793367386 -0.7311490774154663
-1.1923242807388306 -0.26372694969177246 -0.5454727411270142
0.14254894852638245 -0.3226880431175232 -0.5711082816123962
0.9355286955833435 -0.3452084958553314 -0.976889967918396
-1.1597230434417725 -0.5708043575286865 -0.4236050248146057
-2.491787910461426 0.3041393458843231 1.3349347114562988
-0.8530043363571167 0.15788617730140686 1.5257067680358887
-1.7293645143508911 0.18984860181808472 1.3497129678726196
-0.8385106325149536 -0.537446916103363 0.4907149374485016
-0.6413193345069885 -0.44110047817230225 -0.009733828715980053
0.8461977243423462 -0.37681230902671814 0.6809291839599609
-0.8679211735725403 0.048086076974868774 -0.38212576508522034
-2.1933493614196777 -0.006894528865814209 -1.2449568510055542
-0.6030616164207458 -0.27546578645706177 -0.4909585416316986
0.026445426046848297 -0.27446484565734863 0.745345950126648
1.0588889122009277 -0.5021787285804749 0.40173447132110596
2.282729387283325 -0.28437405824661255 -0.06265079230070114
0.1654108166694641 0.40575143694877625 -0.7945300340652466
0.4600400924682617 0.47062286734580994 -0.2612566649913788
-0.5454264879226685 0.03267831355333328 1.2973650693893433
-0.6373377442359924 -0.21511010825634003 -0.7839701175689697
-0.21620550751686096 -0.3062819242477417 -0.8983908295631409
0.26453158259391785 -0.4970340132713318 0.15429331362247467
-0.9428216814994812 0.05435013771057129 -1.7354768514633179
0.2236175388097763 -0.003125414252281189 -1.4444931745529175
0.7488084435462952 -0.44316932559013367 0.47115975618362427
2.0497045516967773 -0.10570232570171356 0.3578372001647949
-2.181924819946289 0.2507857084274292 0.6279446482658386
-2.86501407623291 0.2697768211364746 0.5081221461296082
1.364593267440796 0.21540917456150055 0.0077420733869075775
-1.7379801273345947 0.19138339161872864 1.1495325565338135
-0.8757311105728149 -0.5456412434577942 0.3838038444519043
1.8405691385269165 -0.30864667892456055 0.4552987515926361
-0.6662672758102417 -0.5397641658782959 -0.17234022915363312
0.15424427390098572 0.020648926496505737 -0.9362936615943909
-2.0773184299468994 0.09042912721633911 -1.0188759565353394
-1.2273727655410767 0.18457914888858795 0.21913723647594452
0.4299226999282837 0.18332357704639435 -1.219612956047058
-2.1741201877593994 -0.47063273191452026 -0.19466392695903778
0.06555874645709991 -0.46520668268203735 0.2851976454257965
-1.0517023801803589 -0.05428282916545868 -0.0766269788146019
0.7631313800811768 -0.46799415349960327 -0.4107113182544708
-0.3060738444328308 -0.09920991957187653 -0.23059140145778656
-0.86723792552948 -0.32401248812675476 0.17425952851772308
2.100409507751465 -0.11263526976108551 0.2130013406276703
0.16860422492027283 -0.3481593430042267 -0.6941362619400024
-1.441902756690979 0.2892954349517822 0.38439658284187317
-1.4649765491485596 -0.3040025234222412 -0.6028980612754822
0.6332717537879944 0.4251684546470642 0.04215603321790695
-0.08795344829559326 0.08440276980400085 -0.39630454778671265
0.7032518982887268 -0.12035742402076721 1.2003229856491089
0.2711870074272156 0.8301266431808472 0.34101420640945435
-0.02370263636112213 -0.20200888812541962 0.8762497305870056
-2.365370273590088 -0.25445467233657837 0.1976090669631958
1.1551826000213623 0.053447872400283813 -0.5872154235839844
-0.6295760273933411 0.17668719589710236 -0.5571279525756836
-0.7751549482345581 -0.4846522808074951 1.423372745513916
-0.22959044575691223 -0.4714639484882355 -1.094332218170166
1.4785445928573608 0.17440827190876007 0.16053131222724915
-0.5637926459312439 -0.5041932463645935 0.45535174012184143
0.02507413551211357 0.06796833872795105 1.7443556785583496
-0.8295726776123047 -0.23976975679397583 -0.3585915267467499
-1.6873010396957397 -0.4519914388656616 -0.18140487372875214
0.2950306534767151 0.5806419849395752 0.19786915183067322
0.1403774470090866 -0.4570356011390686 -0.34924450516700745
-1.9006426334381104 -0.22998228669166565 -0.991811990737915
-0.28963640332221985 0.1558629870414734 0.4445229470729828
0.03720703721046448 -0.33454200625419617 0.7294878363609314
1.4088886976242065 -0.016146734356880188 -1.1308252811431885
0.616853654384613 0.18393048644065857 -0.6302395462989807
-0.13837096095085144 -0.16254810988903046 -1.166541576385498
-0.921262800693512 -0.5240843892097473 0.9480119347572327
0.0007927492260932922 0.4909328818321228 0.03400103375315666
0.17312663793563843 -0.292851060628891 -0.31295740604400635
-1.5701355934143066 -0.37109535932540894 -1.2419270277023315
1.6616811752319336 -0.262206107378006 1.2765899896621704
-2.1156115531921387 0.48278310894966125 -0.7741330862045288
-0.8445082902908325 -0.1847447156906128 -0.7295666933059692
-0.6571889519691467 -0.015508472919464111 0.4888005256652832
0.5201393365859985 -0.20848071575164795 -0.9190928936004639
0.36477577686309814 -0.24761858582496643 -1.9297064542770386
-0.6057400703430176 -0.36093199253082275 -1.7898930311203003
-0.8437275290489197 -0.0415927954018116 -1.6424022912979126
2.459388494491577 -0.05191774666309357 -0.15261171758174896
-2.744879722595215 0.5324550867080688 0.05823051929473877
-0.3947869539260864 0.5416985750198364 0.3893033564090729
0.39001038670539856 -0.18502357602119446 -0.23364931344985962
1.3730520009994507 -0.3707861304283142 -0.057445041835308075
-0.08471690118312836 0.535986065864563 0.4841342866420746
0.5284436345100403 -0.02649049460887909 -1.0863722562789917
-1.7999677658081055 -0.23857779800891876 -0.1316567212343216
-0.11784771084785461 -0.1969854235649109 2.3377468585968018
0.015109509229660034 -0.5335059762001038 0.0006713834591209888
2.95235013961792 -0.559152364730835 1.2364901304244995
-2.0365986824035645 -0.5401544570922852 -0.21556617319583893
-0.915864884853363 0.11417077481746674 0.645031750202179
0.48278382420539856 0.3797816336154938 0.786260724067688
-0.9794992208480835 0.08621004223823547 1.4022736549377441
-0.56671541929245 -0.0955529510974884 -0.467702180147171
-1.8867467641830444 0.4343671202659607 0.45044371485710144
-1.3549771308898926 0.2620773911476135 0.07087339460849762
0.3622521758079529 0.29006436467170715 -0.4710327386856079
0.9853619337081909 -0.47671085596084595 0.38422659039497375
-0.0348312184214592 -0.5303933024406433 0.4186215400695801
-2.2959201335906982 0.09710505604743958 -0.407449871301651
-1.8103631734848022 -0.45197054743766785 -0.9388197660446167
1.4492912292480469 -0.08423718810081482 0.15931154787540436
-1.9666824340820312 -0.1977473497390747 -1.181394338607788
0.3750678598880768 -0.45087695121765137 0.9827336072921753
0.16387620568275452 -0.47825515270233154 -0.27594947814941406
-1.1661735773086548 -0.3984560966491699 -1.6886345148086548
-2.2031359672546387 0.7369452118873596 -0.6623169779777527
0.9766349792480469 0.19404184818267822 -0.5062921643257141
-2.0935802459716797 -0.3323313295841217 -0.04997910559177399
-1.5940052270889282 -0.31707632541656494 0.4373537302017212
0.09953266382217407 0.6621667742729187 -0.18369945883750916
0.31610506772994995 0.5225289463996887 -0.4983486235141754
0.8507736921310425 -0.3207100033760071 1.2508617639541626
0.46900439262390137 -0.5019640326499939 -0.04331324249505997
1.6636813879013062 -0.2501082122325897 -0.8181975483894348
1.4436436891555786 0.23130880296230316 -0.1580219566822052
-1.2754021883010864 -0.18642395734786987 -0.9176651239395142
-1.053907871246338 0.13364923000335693 -0.6283438205718994
-0.7914661765098572 -0.12531431019306183 0.20924192667007446
-0.49557337164878845 -0.1715458482503891 -0.9082988500595093
1.1258442401885986 -0.4025513231754303 0.33150309324264526
-1.2697805166244507 0.5528200268745422 -0.55306077003479
-3.078955888748169 -0.015634626150131226 0.19403234124183655
0.2818394899368286 -0.012952283024787903 0.4851137399673462
-1.5008565187454224 -0.3571346402168274 -0.04811485856771469
0.7540083527565002 0.35697323083877563 0.8033099174499512
-0.7944597005844116 -0.29766982793807983 -1.368774652481079
-0.0701596662402153 -0.4027218520641327 1.1859631538391113
-0.7350359559059143 0.4618953764438629 0.03506692871451378
1.3893561363220215 0.01470881700515747 0.02134079672396183
0.05209141969680786 -0.34651249647140503 1.9033465385437012
0.30263084173202515 0.07602162659168243 -0.36135050654411316
-1.7184430360794067 -0.5496107935905457 0.11066386848688126
1.1861287355422974 0.07542532682418823 0.294449120759964
-2.8721771240234375 0.10038520395755768 -0.4598015546798706
-0.44709330797195435 -0.5167823433876038 0.2462192326784134
0.41960304975509644 -0.438456654548645 -0.5107926726341248
1.6501514911651611 -0.28618550300598145 0.04495083540678024
0.6718083620071411 -0.41768068075180054 1.0848009586334229
-2.5756680965423584 0.5256766080856323 -0.19300463795661926
0.05237503722310066 -0.17060479521751404 -0.6701161861419678
-0.6672061681747437 -0.3070552349090576 1.5688644647598267
-0.5879461765289307 -0.30792027711868286 -0.48786813020706177
1.521274209022522 0.21144066751003265 -0.11945776641368866
-0.9584589600563049 -0.38355982303619385 -0.9900282025337219
0.7328022122383118 0.12132134288549423 -0.8403563499450684
-1.7859697341918945 -0.5546852350234985 0.08374402672052383
-1.5366169214248657 0.5545704364776611 -0.386618435382843
2.1593308448791504 -0.2743273079395294 0.18088410794734955
-0.2148558497428894 0.4969194829463959 0.46659594774246216
-1.4067760705947876 -0.08994194865226746 0.40649592876434326
-1.854997158050537 -0.29868221282958984 -1.6699352264404297
-1.3606925010681152 -0.06094169616699219 0.4549297094345093
0.21451754868030548 -0.249351367354393 0.44041478633880615
-0.9832859635353088 0.1314697414636612 -0.5619876384735107
-1.2979512214660645 -0.48357802629470825 -0.5993786454200745
-2.012460947036743 -0.2278299629688263 1.6293038129806519
-0.6064550876617432 0.027351468801498413 0.6169314980506897
-1.4354177713394165 0.5496299266815186 0.3012813329696655
-1.5633745193481445 -0.08713670074939728 0.49013400077819824
0.30918800830841064 -0.33646702766418457 -0.10362528264522552
-1.5343891382217407 0.3897274136543274 0.17834515869617462
-2.4085988998413086 -0.24070197343826294 -0.7981188893318176
-2.4288103580474854 -0.17760641872882843 -0.7033543586730957
2.6720306873321533 -0.24383234977722168 0.6650323271751404
-0.1650971919298172 -0.4790881872177124 0.3269609808921814
1.4146473407745361 -0.37713128328323364 -0.00434797303751111
-2.629765272140503 -0.30223941802978516 -0.9632932543754578
-0.7954420447349548 -0.19959665834903717 1.0083158016204834
2.7851715087890625 -0.330444872379303 -0.9192490577697754
-1.336605191230774 0.06504473090171814 0.9879481792449951
-0.5005319714546204 -0.568364143371582 -0.04639687389135361
1.0562926530838013 -0.4638602137565613 0.5235579609870911
-0.9074845314025879 0.22343645989894867 0.40718594193458557
0.6561146378517151 -0.009354904294013977 0.06479676067829132
-0.14754490554332733 -0.2949056923389435 2.1210720539093018
-0.3529626131057739 -0.43423205614089966 -0.09785620868206024
1.1661423444747925 0.15581342577934265 -0.3940812647342682
-2.0649757385253906 0.2702941596508026 -0.8023630380630493
-2.3593387603759766 0.7758658528327942 -0.034184787422418594
-0.575813889503479 -0.4475356340408325 -0.7506666779518127
0.8308144211769104 -0.2888532876968384 -0.511605441570282
0.2247961163520813 0.12465362250804901 -0.5886157751083374
0.022163882851600647 0.29851555824279785 1.0057193040847778
-0.10676811635494232 0.003581039607524872 -1.4428656101226807
1.6743112802505493 0.10278752446174622 -0.26514092087745667
-0.8711716532707214 -0.051104068756103516 0.174202561378479
-2.468017339706421 -0.3542537987232208 0.33600470423698425
-2.713636636734009 -0.4037078619003296 0.22964447736740112
1.691872000694275 -0.23954498767852783 -0.3893444240093231
1.0065253973007202 0.40049612522125244 -0.6633647084236145
-1.2280749082565308 -0.38461312651634216 -0.44648751616477966
1.8075449466705322 0.19310782849788666 0.3477560579776764
-1.7928199768066406 -0.5133776664733887 -0.25836190581321716
-1.792832374572754 -0.3245423436164856 -1.7528784275054932
-1.934868335723877 0.32095202803611755 -0.8126624226570129
-0.41133594512939453 0.4961507320404053 0.4584476947784424
1.847165584564209 0.0728902667760849 0.6680259108543396
-0.3465147018432617 -0.007486850023269653 0.7447338700294495
-1.8719764947891235 0.055638451129198074 1.543355107307434
-2.47261118888855 0.08713346719741821 0.017679359763860703
-0.4344802796840668 -0.16941918432712555 0.3643626272678375
0.9155818223953247 -0.4207979142665863 -0.010952319018542767
0.9598961472511292 -0.0569612979888916 -0.8511438369750977
-0.14986225962638855 -0.1999630182981491 -0.6645190119743347
1.930237889289856 0.19836269319057465 -0.47453925013542175
1.0659137964248657 -0.38059043884277344 0.8219411969184875
-0.7278732657432556 0.054616957902908325 1.9955466985702515
-0.03046446293592453 0.3906280994415283 0.803102970123291
0.883912980556488 0.24486404657363892 -0.5091385841369629
-0.5745828151702881 -0.2077140212059021 1.5371240377426147
0.6818155646324158 0.24720783531665802 0.5225833058357239
-0.19118933379650116 0.027394812554121017 1.598262071609497
-2.365431785583496 -0.0626484602689743 -0.12398611754179001
0.8908143639564514 0.00252368301153183 -1.2516605854034424
0.5721158981323242 -0.2597864866256714 0.39192381501197815
1.604122281074524 -0.06975013017654419 -0.6034474968910217
-2.2728350162506104 -0.4208888113498688 0.39415329694747925
1.0622425079345703 0.07751207053661346 0.33613255620002747
1.0412285327911377 0.3294643759727478 0.6947565674781799
-1.1145418882369995 0.11539691686630249 -1.5506759881973267
-0.20547398924827576 -0.009699895977973938 -1.2548274993896484
-0.5837923884391785 -0.4925658404827118 -0.5589022636413574
-0.16009289026260376 -0.05719469487667084 -0.8954988121986389
-0.7527586221694946 0.002342894673347473 -0.46327948570251465
0.5561835169792175 0.5288259983062744 0.24988624453544617
-2.136423110961914 0.419546902179718 1.4398267269134521
-0.5659624934196472 0.3513396382331848 -0.6213414072990417
-1.7025877237319946 0.5206907391548157 1.139884114265442
-0.08427632600069046 -0.5487544536590576 0.25581127405166626
-0.24660563468933105 0.248276486992836 -1.1645513772964478
-0.03543221950531006 0.2788030505180359 -0.3375372886657715
-0.8417066931724548 -0.30650120973587036 0.07739084959030151
-1.3055006265640259 -0.21872863173484802 -0.8167968392372131
1.255257487297058 0.1656138300895691 0.3555368483066559
0.5894689559936523 0.4765138328075409 0.2296985536813736
-1.5319513082504272 -0.17950385808944702 0.00984626729041338
-1.6027328968048096 -0.3292108178138733 -1.8620507717132568
-1.5800435543060303 -0.5341272950172424 -0.37091657519340515
0.46982845664024353 0.4329290986061096 0.23778299987316132
0.06696286052465439 -0.5716880559921265 0.0030321860685944557
-2.3762478828430176 0.15257491171360016 -0.11569398641586304
0.3145071566104889 0.18333497643470764 -1.4702112674713135
-0.6043739914894104 -0.4714828133583069 -0.21918393671512604
-0.6905868053436279 -0.3605051636695862 1.225900411605835
-1.7227762937545776 -0.09243261814117432 -1.100736379623413
-1.8981482982635498 -0.10739218443632126 -1.9975577592849731
-1.2462713718414307 0.6921346783638 0.011042534373700619
-0.5031768083572388 0.24695201218128204 0.2254626601934433
-2.039210557937622 0.05979755520820618 -1.5347830057144165
-1.2046935558319092 0.13107618689537048 2.047969341278076
1.563490629196167 -0.0383119210600853 0.9519890546798706
-0.8584132194519043 -0.0038477927446365356 0.34804120659828186
-2.211297035217285 -0.1870345175266266 1.4228936433792114
-2.091444969177246 -0.21484902501106262 -0.9887465834617615
-0.5008389949798584 -0.38268932700157166 1.3037981986999512
0.18206557631492615 -0.07663236558437347 0.21412105858325958
0.2611626982688904 -0.5951385498046875 -0.04297179356217384
-1.771061658859253 0.358114093542099 -0.6023776531219482
0.623562753200531 -0.24461281299591064 -0.8005848526954651
-0.9567628502845764 -0.12595044076442719 -0.22868390381336212
-0.6309301853179932 0.23155388236045837 -0.31454411149024963
-1.3029412031173706 -0.18845932185649872 2.2659270763397217
-1.4561622142791748 -0.013636063784360886 2.427797317504883
-0.357803612947464 0.27745962142944336 -0.7387319207191467
-1.8113646507263184 0.15428709983825684 -1.1651407480239868
1.0344492197036743 -0.13530410826206207 -0.3188782036304474
-0.5008883476257324 -0.5674154162406921 0.7117531299591064
-0.9132616519927979 0.4587651491165161 -0.848940372467041
-0.15463590621948242 0.4780237674713135 0.23579321801662445
1.3344968557357788 -0.32589688897132874 -0.25351178646087646
-1.5980154275894165 -0.011074170470237732 0.5720648169517517
-1.3370428085327148 -0.33565378189086914 0.43828630447387695
-0.6175143122673035 -0.32577404379844666 -0.9395373463630676
0.887893557548523 0.11543130874633789 -0.48130932450294495
-1.060219407081604 0.5631616711616516 0.003144818125292659
-0.4719404876232147 0.45503342151641846 0.10247883945703506
0.7634155750274658 -0.31522244215011597 0.04554669186472893
0.3314495086669922 -0.2385774701833725 -0.8904598951339722
-2.078563690185547 -0.25183719396591187 -0.7336811423301697
0.11127729713916779 0.43900999426841736 -1.1879786252975464
-0.6676173210144043 0.12131288647651672 -1.5999510288238525
0.25885510444641113 -0.1284075677394867 -0.3985411524772644
0.065904900431633 -0.4301672875881195 -0.9178236126899719
1.7254085540771484 -0.1909167468547821 -0.8717142939567566
0.5961302518844604 -0.47842130064964294 0.6809486150741577
-1.1998893022537231 -0.3631899356842041 0.6791930794715881
0.1069074273109436 -0.1594800055027008 0.9761136174201965
-1.3454581499099731 0.13594414293766022 0.7730661034584045
-0.7655686140060425 -0.3756314516067505 -0.8909823894500732
-2.4719631671905518 0.507910966873169 -0.4730364978313446
-2.1626880168914795 -0.15719202160835266 -1.8538129329681396
0.5731265544891357 0.2033034712076187 -0.8802838921546936
1.1622923612594604 0.04783707857131958 -0.6673076748847961
-0.11441028863191605 -0.1933186948299408 -1.5300666093826294
1.9201196432113647 0.03805137425661087 0.6185932755470276
-0.7799839973449707 -0.45097681879997253 -0.8225545883178711
1.0563292503356934 0.39757752418518066 -0.7335071563720703
1.1843162775039673 0.340667188167572 -0.3619081676006317
-0.24771817028522491 0.08116577565670013 -1.5807677507400513
-0.9115959405899048 -0.3086698651313782 0.6111681461334229
-0.10626159608364105 -0.02726992964744568 0.3863741159439087
0.5206788778305054 -0.5597330331802368 -0.04250297322869301
1.5109590291976929 0.2548943758010864 0.5037834048271179
0.3498620390892029 0.6889678835868835 0.40357664227485657
-2.7400004863739014 0.18184831738471985 0.47819995880126953
-1.2377088069915771 -0.591507613658905 -0.03258439898490906
-0.986595630645752 0.06533735990524292 0.3493761420249939
-1.3504440784454346 -0.37251991033554077 0.12310101091861725
-1.7784730195999146 0.4718853235244751 -0.6117755174636841
-0.49476197361946106 0.4074748754501343 0.7668935060501099
-2.5751140117645264 -0.33022212982177734 -0.017818067222833633
-1.1261736154556274 0.4928011894226074 -0.3568289577960968
-0.3117123544216156 -0.001111399382352829 2.178907871246338
-1.3349567651748657 0.20433050394058228 -0.02981393225491047
1.444800615310669 0.17049717903137207 -0.6339930891990662
0.39870983362197876 -0.2409389615058899 1.3418031930923462
1.6327483654022217 -0.23674046993255615 0.2423439621925354
0.9613534212112427 0.1098184734582901 -1.2159475088119507
-0.5662145614624023 0.10658743232488632 1.4515172243118286
-1.0586154460906982 -0.3258088231086731 1.1218088865280151
-0.8571326732635498 -0.4811429977416992 0.8104704022407532
0.7520569562911987 0.3960753381252289 0.007036058232188225
0.6862285733222961 -0.07805580645799637 1.7268568277359009
-2.340118169784546 0.11195328831672668 0.3869285583496094
-0.0747099220752716 -0.0923934280872345 -0.22697608172893524
-0.07044006884098053 -0.2946939468383789 -0.2838206887245178
1.2557313442230225 -0.16152238845825195 1.1905202865600586
-0.03601374104619026 0.044234201312065125 1.6280025243759155
-1.3506355285644531 -0.5029528737068176 0.03877344727516174
-1.2326829433441162 0.65997713804245 0.24378937482833862
-0.5878798961639404 -0.32420748472213745 1.772369384765625
-0.7231435775756836 -0.5477127432823181 -0.39371898770332336
-0.033346954733133316 -0.0070350319147109985 -0.2187625765800476
-1.330716848373413 0.42153623700141907 -0.6550946831703186
-0.6871277093887329 0.17149551212787628 0.6630584001541138
-0.8159637451171875 0.20249661803245544 -1.3561983108520508
-2.6211042404174805 0.02300092577934265 0.019499296322464943
1.5612965822219849 -0.30342650413513184 -0.7148143649101257
-2.1490297317504883 0.37850868701934814 0.8761539459228516
0.0593726672232151 -0.05058717727661133 -1.4651069641113281
1.7663295269012451 -0.3345807194709778 0.28634312748908997
1.7515311241149902 -0.020436204969882965 1.8121387958526611
1.817936897277832 -0.22590667009353638 -0.13199324905872345
1.6616270542144775 -0.29680418968200684 -0.5458593368530273
-0.24543708562850952 -0.4208824038505554 -1.1709625720977783
0.11246078461408615 0.12653027474880219 0.3651106357574463
-1.0299389362335205 -0.022684156894683838 -0.36199700832366943
0.5766417980194092 0.10301090776920319 -0.752997100353241
-0.6908665895462036 0.5264323353767395 0.4020374119281769
0.44785815477371216 -0.2222648411989212 1.3018560409545898
-1.5706102848052979 0.4322965145111084 -0.9710977077484131
2.40244460105896 -0.09736883640289307 -0.25773513317108154
-1.1511110067367554 -0.09054604172706604 1.7007479667663574
-2.025503158569336 -0.31002292037010193 0.007127885706722736
-2.715986967086792 -0.44643598794937134 0.08106573671102524
-2.266469717025757 -0.44348862767219543 0.2953827977180481
-0.14670270681381226 -0.09351429343223572 -1.417772889137268
-2.4007999897003174 -0.2440868318080902 -0.2673894464969635
-2.4656052589416504 -0.02397860586643219 0.19108620285987854
0.6391405463218689 -0.44369715452194214 1.137161374092102
-1.1676174402236938 -0.5183411836624146 0.3003561198711395
-0.5280824303627014 -0.06813640892505646 -1.9529752731323242
-3.178516387939453 -0.2769455313682556 0.7740503549575806
-1.9822394847869873 -0.2549225091934204 -0.5571714043617249
-0.8440001010894775 0.43325328826904297 0.08527681231498718
-2.1294302940368652 -0.4130498766899109 -0.2444477379322052
1.324231505393982 -0.09501373767852783 0.14123328030109406
-0.5437859296798706 0.5823643207550049 -0.5106295943260193
-0.38426247239112854 -0.005321189761161804 -0.5666462182998657
0.3820728659629822 0.6703833341598511 0.9562953114509583
-1.1089446544647217 0.24868538975715637 0.25950729846954346
-1.5416269302368164 0.21139128506183624 0.1979411095380783
-0.006271153688430786 -0.4867905378341675 0.21744291484355927
-1.9955236911773682 0.3073239326477051 -0.033778101205825806
-2.4705662727355957 0.0057629793882369995 -0.33104872703552246
-0.3765369653701782 -0.1966363787651062 2.3111462593078613
0.6068938970565796 0.4552493393421173 -0.26129353046417236
-1.7907109260559082 -0.35101473331451416 0.2840113937854767
-2.1933155059814453 0.4862932860851288 -0.051822129637002945
-0.5519036054611206 0.662185788154602 0.004386842716485262
0.23178303241729736 0.293780654668808 0.6402727961540222
0.5763617157936096 -0.16280166804790497 -0.08258052915334702
-2.3049724102020264 -0.3573229908943176 -0.9330998063087463
0.0314013734459877 0.11096133291721344 0.15142740309238434
0.3547573685646057 0.33386150002479553 -1.7983864545822144
-0.9362720251083374 -0.5386871695518494 0.1720743179321289
-0.3255614638328552 0.30967044830322266 0.8571323156356812
-0.3757126033306122 -0.49364039301872253 -0.8216239213943481
-1.1391749382019043 0.09556782245635986 1.1180754899978638
-1.5205813646316528 -0.14651034772396088 -1.1708933115005493
0.8910729885101318 -0.4199228584766388 0.01294307503849268
-0.18782320618629456 0.18907764554023743 1.173427700996399
-0.30934086441993713 -0.04536065459251404 0.055393870919942856
-1.3639224767684937 0.6043735146522522 -0.2500292658805847
-2.655778169631958 -0.1289907842874527 -1.3826394081115723
1.1650975942611694 -0.11117523908615112 -1.5104076862335205
-1.2958250045776367 0.08563745021820068 0.33944955468177795
0.3856819272041321 -0.306429386138916 0.9888829588890076
-0.7678493857383728 0.11300991475582123 0.35080841183662415
-0.7872418761253357 -0.04041676223278046 1.7789455652236938
0.35218071937561035 -0.4527599811553955 -0.6739109754562378
-0.765552818775177 0.3524182140827179 -0.2920297682285309
-0.15337985754013062 -0.43034476041793823 -0.795461893081665
-0.7922075986862183 -0.6227622032165527 0.47585591673851013
0.06793563812971115 -0.0005026310682296753 -1.0146727561950684
-0.9765115976333618 -0.4877762794494629 -0.6670406460762024
-0.2148527055978775 0.6459526419639587 0.22422778606414795
-0.6250174045562744 -0.26546818017959595 -0.7048783898353577
1.6530563831329346 -0.28396162390708923 -0.44543352723121643
-0.9628760814666748 -0.4218786954879761 1.4004379510879517
-2.6391022205352783 0.22452250123023987 -0.6677935719490051
-1.55576753616333 -0.14521324634552002 0.6829698085784912
2.195662260055542 -0.10427773743867874 1.2275103330612183
-3.2478389739990234 -0.10179509222507477 0.5922290682792664
1.5906344652175903 -0.2966676950454712 -0.10363379120826721
0.1682146191596985 0.6592527627944946 0.6181887984275818
-2.468487024307251 -0.06124715507030487 -1.2671369314193726
2.3909049034118652 -0.3445017337799072 -1.1838417053222656
1.4635632038116455 -0.05240148305892944 0.0902615338563919
-1.483284831047058 -0.421688973903656 -0.5693999528884888
0.9223429560661316 -0.45535922050476074 0.4165840446949005
-1.9460774660110474 0.18836437165737152 0.3471646308898926
-2.653031826019287 0.03631933405995369 -1.904678225517273
0.05750126764178276 0.11433550715446472 -0.7465261816978455
1.788304328918457 0.19753247499465942 0.3292614221572876
-2.026186466217041 -0.03385937213897705 -0.9789697527885437
0.01968419924378395 0.6141994595527649 0.13699501752853394
-1.3065416812896729 -0.05428921431303024 -1.5070122480392456
-1.404766321182251 0.21462921798229218 0.05364842712879181
0.1793006956577301 0.18505769968032837 -0.08634335547685623
-0.19002515077590942 -0.018592551350593567 -0.5490878224372864
-1.0629407167434692 -0.369534969329834 0.6107617020606995
-1.0421949625015259 0.4180662930011749 -0.3201540410518646
-1.0066207647323608 -0.4096829891204834 -2.114246368408203
-2.2302043437957764 0.37161388993263245 0.9104592800140381
-2.192704677581787 -0.18524165451526642 0.6553237438201904
1.2628008127212524 -0.37701988220214844 0.21080651879310608
0.10364163666963577 -0.1200428456068039 -1.4131613969802856
1.5634796619415283 -0.06225249171257019 0.21486325562000275
-0.5958939790725708 -0.46208518743515015 0.7174875140190125
0.7908776998519897 -0.07160317897796631 0.6221698522567749
-2.1472809314727783 0.10627737641334534 -0.8389561176300049
0.8539544939994812 -0.31083741784095764 -1.1237682104110718
-1.0953154563903809 -0.49409037828445435 -0.8771436810493469
1.161517858505249 0.026968106627464294 0.36343634128570557
0.770448625087738 0.33995699882507324 0.3730991780757904
2.834826946258545 -0.22501598298549652 -0.45503222942352295
-2.4145610332489014 -0.21324482560157776 -0.891842782497406
-0.17716440558433533 0.0033006519079208374 -0.8233874440193176
-2.287977695465088 0.39295804500579834 0.8517229557037354
-2.409977912902832 0.7246028184890747 0.2944854199886322
-1.6163108348846436 -0.4493483304977417 0.9798341989517212
1.4400897026062012 0.23071624338626862 0.37846729159355164
-0.24838894605636597 0.05325612425804138 0.21910865604877472
-0.10384416580200195 0.07587939500808716 -0.6971608400344849
-1.01088285446167 -0.17656809091567993 -0.5473119020462036
-0.6129148602485657 -0.49431124329566956 -0.06479405611753464
-0.5237439274787903 0.581215500831604 0.10717204213142395
1.2786333560943604 -0.18600986897945404 0.01330201979726553
-1.4570101499557495 -0.06449589133262634 0.505561888217926
0.5170110464096069 -0.513625979423523 0.014908907935023308
0.2545791566371918 -0.3096851706504822 -0.9529897570610046
-1.1166411638259888 -0.18909524381160736 1.3871729373931885
-1.3194941282272339 -0.19108450412750244 1.0325713157653809
2.739698648452759 0.09834623336791992 0.6100420355796814
0.053899817168712616 -0.5385382175445557 0.524713397026062
-0.4682094156742096 -0.5901049375534058 -0.13669252395629883
-0.8880024552345276 0.3330896496772766 0.7228120565414429
1.4427226781845093 0.09614833444356918 -0.556560754776001
-1.486999273300171 -0.39086082577705383 -3.1549477577209473
-0.2616446018218994 0.09611564874649048 0.36910876631736755
-0.4588256776332855 -0.15439385175704956 0.20553264021873474
-1.0703426599502563 0.5696727633476257 1.063774824142456
0.3244858980178833 -0.4372381269931793 -0.6054123640060425
1.2960656881332397 0.041414156556129456 -0.04180502891540527
0.5552817583084106 0.010229036211967468 0.5302835702896118
0.5671882629394531 0.2757282555103302 0.6241180300712585
-0.19576169550418854 -0.1180453896522522 0.4786912202835083
0.8349221348762512 0.2723856568336487 -0.6831969618797302
0.07941517233848572 -0.3285227119922638 -2.216400384902954
-1.2613043785095215 0.4397752285003662 -0.5790446400642395
-1.614818811416626 -0.5016305446624756 -1.2704980373382568
-0.6597069501876831 -0.4555463194847107 1.148632287979126
1.7676506042480469 -0.23756945133209229 -1.0290555953979492
-0.29001763463020325 -0.011120885610580444 -1.0686084032058716
-2.0142576694488525 -0.22156579792499542 0.05888044461607933
-2.192927598953247 0.3230416774749756 -0.6730780005455017
-1.7760255336761475 0.010220050811767578 -1.6283042430877686
-2.8931021690368652 -0.10406696796417236 -1.7315757274627686
-0.9220403432846069 0.045144274830818176 -0.21551112830638885
0.8860082626342773 -0.4364306628704071 0.2411452829837799
-0.4655115306377411 -0.27048224210739136 -1.9988842010498047
-0.3542241156101227 -0.504245936870575 -0.6562908291816711
-1.0950725078582764 -0.15277491509914398 2.0843887329101562
1.370632290840149 -0.2063721865415573 -0.9828420281410217
0.6629172563552856 0.12552160024642944 -0.5609001517295837
-1.87373685836792 -0.16343732178211212 -0.5397683382034302
-0.959410548210144 0.4832366108894348 -0.05968114733695984
-1.3121387958526611 -0.2255861908197403 -1.123451590538025
0.1588091254234314 -0.14551469683647156 -0.20457980036735535
-0.07302145659923553 -0.511341392993927 -0.6989506483078003
0.8970127701759338 0.2712818384170532 -0.5411367416381836
1.3553009033203125 -0.31630799174308777 -0.16087502241134644
0.2834036946296692 0.5591447353363037 -0.21039220690727234
-1.1919718980789185 -0.008312225341796875 -0.8659898042678833
-1.7694580554962158 0.0771370381116867 -0.471220463514328
0.5381200909614563 -0.11623167991638184 1.0730541944503784
-2.626493453979492 -0.2744463086128235 0.6124189496040344
-0.38033097982406616 -0.43884605169296265 -1.5363529920578003
-0.8414747714996338 0.7453598380088806 0.15688222646713257
-0.3461880683898926 -0.4455600678920746 -1.1357730627059937
1.012284517288208 0.37525659799575806 -0.49884551763534546
-0.8625988364219666 -0.49998798966407776 -0.7362014651298523
-0.545542299747467 0.49946650862693787 -0.37510621547698975
-1.4751641750335693 -0.2160734236240387 0.22553767263889313
1.2584097385406494 -0.37323853373527527 -0.12257584929466248
-0.6398271918296814 -0.4549129009246826 -0.6479987502098083
-2.1800665855407715 0.025263279676437378 -0.6763688921928406
-1.90899658203125 -0.28443431854248047 0.8720359802246094
-1.7877416610717773 -0.42543289065361023 0.18841879069805145
-2.37534236907959 0.42256659269332886 -0.8449937105178833
-1.5281145572662354 0.4493457078933716 0.8267302513122559
-0.3878198564052582 -0.5421248078346252 0.03888285905122757
-0.6288852095603943 0.7454192042350769 0.6163479089736938
-0.8982276916503906 -0.3226843476295471 0.5057533383369446
-0.4534817934036255 0.7317420840263367 -0.0482158362865448
-0.9013497829437256 -0.384648859500885 0.3548559248447418
-0.46659523248672485 0.02955484390258789 0.10679414123296738
-0.19274993240833282 0.5451080203056335 -0.26875823736190796
-0.6101918816566467 -0.0062951743602752686 1.260969638824463
-0.19332966208457947 -0.4922581911087036 -0.2993110120296478
0.45761606097221375 -0.4858010411262512 0.29948562383651733
1.830214262008667 0.02092587947845459 1.7535532712936401
1.7349367141723633 0.11936028301715851 0.7630539536476135
-0.19241032004356384 0.08834472298622131 -0.4408983886241913
-1.3773783445358276 0.4786577820777893 -0.935225784778595
-1.3150402307510376 0.6362841725349426 -0.16738048195838928
0.43756532669067383 -0.3243902921676636 -0.0897686555981636
0.3573310375213623 0.01743706315755844 1.212311029434204
1.6779130697250366 0.16722847521305084 -0.4810402989387512
1.1337785720825195 -0.33913707733154297 -0.6265799403190613
0.6066104769706726 -0.12580610811710358 0.4892430603504181
-1.3365423679351807 0.2628050744533539 -0.1657053381204605
-0.3335850238800049 -0.28598764538764954 1.6401110887527466
-1.1837682723999023 -0.4179403483867645 -0.9103299379348755
-2.4362711906433105 -0.3249909281730652 -0.7997516989707947
0.8610478043556213 -0.1998351365327835 0.9543777108192444
1.5443947315216064 -0.05310167372226715 -1.1786082983016968
-0.9181010127067566 0.1767406463623047 -0.8746705651283264
0.2814195156097412 -0.49847501516342163 0.5706316232681274
-1.021087408065796 -0.346377968788147 -2.057140350341797
-2.2564566135406494 0.3699890673160553 0.29250645637512207
0.06518491357564926 -0.5010660886764526 1.3183101415634155
1.6054202318191528 -0.12864844501018524 -0.6059436202049255
0.05614352971315384 -0.01295122504234314 0.29744452238082886
-2.1945433616638184 0.2695962190628052 -0.11489228904247284
1.6750153303146362 0.24435502290725708 -0.2970770001411438
-0.3097870945930481 -0.5161540508270264 0.8315236568450928
-0.6965324282646179 -0.46093660593032837 -0.9459502100944519
2.438598394393921 -0.262530654668808 -0.30626699328422546
1.5363811254501343 0.15439562499523163 -0.6978763341903687
0.15698009729385376 0.4021153450012207 -0.15929171442985535
-0.469815731048584 -0.657203197479248 0.13271430134773254
0.34119945764541626 -0.419077605009079 -0.6800743341445923
1.988896131515503 -0.021355900913476944 1.7485027313232422
0.6573289036750793 -0.3364829123020172 0.022934891283512115
-1.5632332563400269 -0.10996806621551514 1.5704389810562134
-0.20515753328800201 0.11089608073234558 0.7258332371711731
-1.4779136180877686 -0.3315122723579407 0.6238901615142822
1.8588056564331055 0.23258765041828156 0.05313350632786751
2.6352052688598633 -0.2650230824947357 -0.02399887517094612
0.0017385780811309814 -0.021655678749084473 -1.0961017608642578
-0.8179509043693542 -0.2141418755054474 0.7010610699653625
-2.6734495162963867 -0.4151357412338257 0.1731490194797516
-2.893338203430176 0.4265490472316742 -0.407205194234848
2.5625803470611572 -0.17880071699619293 -1.1970688104629517
-0.849506139755249 -0.32715097069740295 1.6776763200759888
-0.6644200086593628 0.4892308712005615 0.9624773859977722
-0.845226526260376 -0.08130991458892822 0.1406540870666504
0.5551931858062744 -0.1666249781847 0.8832330703735352
0.24819323420524597 -0.2459685504436493 1.7190965414047241
-0.11927824467420578 -0.2677824795246124 -1.732886552810669
-2.410808563232422 -0.49064546823501587 0.23684178292751312
1.4579607248306274 -0.31437480449676514 -0.1362561732530594
-0.07115289568901062 0.6523997783660889 0.27707675099372864
0.419986754655838 -0.16479144990444183 -1.1673295497894287
0.5929774641990662 -0.3935779631137848 -0.6721978783607483
-1.7828541994094849 -0.10247445106506348 1.1873866319656372
-0.9135716557502747 -0.21326614916324615 -0.725803792476654
-1.4257516860961914 -0.10530690848827362 1.7331604957580566
0.0828351080417633 -0.1731981635093689 0.24203070998191833
1.5792955160140991 -0.3042054772377014 0.0068772220984101295
-1.0393166542053223 0.2559378743171692 -0.2697421908378601
-1.768749713897705 0.09234055131673813 -1.0499000549316406
0.424995481967926 0.24272646009922028 0.3971550762653351
-1.7371166944503784 -0.4757973253726959 -0.3528611361980438
-1.4942139387130737 0.45617106556892395 -0.3618142306804657
-2.0232014656066895 0.09332625567913055 0.286589652299881
-0.6541106104850769 -0.004180401563644409 -1.3612948656082153
-0.9116456508636475 -0.5465235114097595 1.3724662065505981
-1.528238296508789 0.3304469585418701 -1.1641895771026611
-1.2140854597091675 -0.3400231599807739 -0.09082140028476715
-0.27786561846733093 -0.35643666982650757 -1.6808925867080688
0.2224782109260559 -0.5227183699607849 0.46485722064971924
1.1113722324371338 0.1975584328174591 -0.5397819876670837
-0.20877406001091003 -0.16845589876174927 -1.9630990028381348
-1.3739665746688843 0.3243521451950073 -0.2759511172771454
1.2232698202133179 -0.3989607095718384 0.7831907868385315
-0.8784905672073364 -0.2350958287715912 -0.9073126912117004
-2.072411298751831 -0.11378945410251617 1.3568542003631592
1.4502694606781006 -0.06803852319717407 -0.5960323810577393
-0.7178294658660889 -0.13442166149616241 2.3686625957489014
0.9471012353897095 0.23382927477359772 -1.1913803815841675
-1.110936164855957 0.036709509789943695 -1.252274990081787
0.4948056936264038 -0.1998535841703415 2.0500776767730713
-1.2363097667694092 -0.5022510290145874 1.118490219116211
-2.3109028339385986 -0.6863996982574463 -0.05360526964068413
-0.234624445438385 -0.4848378002643585 -0.40551549196243286
0.70713210105896 -0.3172069787979126 0.4515412449836731
-1.3727372884750366 -0.45416945219039917 0.2978871166706085
0.12525974214076996 -0.4925740361213684 -0.5600677132606506
-0.049581173807382584 0.2980808913707733 -0.01483423262834549
-1.2099071741104126 -0.21577872335910797 -1.147900104522705
0.23317216336727142 0.1835818886756897 -1.8712104558944702
1.2628308534622192 -0.3544085621833801 -1.4295752048492432
0.23006665706634521 0.31037411093711853 -0.08953461796045303
-0.676628053188324 0.5343981981277466 0.4870721101760864
0.6470697522163391 0.12533700466156006 0.2351568043231964
1.1585102081298828 -0.2266574501991272 0.459227055311203
1.1175967454910278 -0.12522102892398834 1.4240003824234009
0.20737488567829132 -0.1053093820810318 -0.45985355973243713
1.0422204732894897 -0.28379836678504944 1.081573486328125
-0.15540020167827606 0.06687681376934052 0.7881379127502441
-2.1656508445739746 -0.2437950074672699 -1.2860112190246582
-1.721785068511963 0.2646586000919342 0.10024675726890564
-0.08701919764280319 -0.5892404913902283 -0.11771241575479507
0.1416272670030594 0.0019036158919334412 1.2606948614120483
1.7207056283950806 -0.2513613998889923 -0.5570008158683777
0.6334119439125061 0.14137603342533112 -0.3108084201812744
0.0632685050368309 0.13913491368293762 -1.1412116289138794
0.8500767350196838 -0.059039801359176636 0.6567617058753967
0.751810610294342 0.25453928112983704 0.12008634954690933
-0.7369452714920044 -0.175493061542511 -0.43817776441574097
-1.3609813451766968 0.0040780603885650635 1.3255695104599
0.6224151849746704 -0.5210734009742737 0.38481754064559937
-0.10256467759609222 0.470739483833313 1.5830888748168945
1.8429738283157349 -0.10084832459688187 1.0394469499588013
-0.9672116041183472 -0.42242637276649475 -0.8827018737792969
-2.4524600505828857 0.2692941129207611 0.6076161861419678
-0.11994565278291702 -0.012115709483623505 1.0873467922210693
1.9230530261993408 -0.16935592889785767 0.6705631613731384
0.9201620221138 0.04526995122432709 -0.4162374436855316
-1.044150948524475 -0.08702103793621063 0.23978140950202942
-0.815949559211731 0.5501317381858826 0.5670721530914307
1.2801117897033691 0.39426204562187195 0.5695910453796387
-2.358639717102051 0.4703510105609894 1.0267503261566162
-0.5547123551368713 -0.25788742303848267 1.8705477714538574
-0.8612107038497925 -0.4834592044353485 1.0056118965148926
0.5515649914741516 -0.011562719941139221 -1.4529520273208618
-1.3336000442504883 -0.3410545885562897 -1.591867446899414
-1.2048330307006836 0.2992599606513977 0.8594704866409302
-1.8380045890808105 -0.006294466555118561 -1.4970370531082153
-1.5541702508926392 0.07956063747406006 -2.028510570526123
-1.8247207403182983 -0.2762257754802704 1.1610708236694336
0.49054402112960815 0.6283981204032898 0.27294379472732544
-2.936593770980835 0.5245335102081299 -0.4262295961380005
-1.5180473327636719 0.2714715898036957 0.8961514234542847
-1.6547276973724365 0.3972397744655609 -0.301794171333313
0.49927186965942383 -0.27798157930374146 1.2618415355682373
-1.0369246006011963 0.06155925989151001 0.8347880244255066
-0.6897536516189575 -0.2852972447872162 -1.3226885795593262
-1.4917981624603271 -0.01575520634651184 0.33440908789634705
-0.4498244822025299 -0.5172658562660217 0.004979660734534264
0.2114352285861969 -0.36424824595451355 0.23443251848220825
-1.893527626991272 -0.047922566533088684 -0.6380502581596375
0.8481432795524597 0.46153807640075684 -0.07143077999353409
-0.05628859996795654 -0.3195457458496094 -0.952085018157959
-0.7747726440429688 -0.4738771319389343 0.9634224772453308
-0.9786003232002258 -0.010594546794891357 0.21652014553546906
0.8119254112243652 -0.2952459752559662 0.1440180242061615
-0.017892993986606598 0.665033221244812 -0.021903779357671738
-2.663767099380493 0.1538306623697281 0.5554402470588684
-1.0440419912338257 -0.2909567952156067 -0.03476565331220627
1.2964411973953247 -0.3323958218097687 -0.330878883600235
-2.19832444190979 -0.39838317036628723 0.48849764466285706
-1.553766131401062 0.5425500869750977 0.8850657343864441
0.5505775809288025 -0.5447803139686584 0.8016079664230347
1.2347854375839233 0.02056346833705902 -1.0627883672714233
0.49415862560272217 -0.3423374891281128 -0.02242591790854931
-0.49090832471847534 0.04840172827243805 1.7973235845565796
0.6744081974029541 -0.01744760572910309 -0.3442469537258148
-1.358170747756958 -0.21401040256023407 0.8947781920433044
-1.3742563724517822 -0.42277875542640686 -0.9130944013595581
-0.25599879026412964 -0.06041592359542847 0.11056921631097794
1.35809326171875 -0.0117110013961792 1.3022938966751099
0.04489307105541229 -0.30846482515335083 0.7307485938072205
-1.2329792976379395 0.02408917248249054 -0.5302311182022095
-2.118854522705078 0.00419163703918457 -0.16913644969463348
-1.221541166305542 -0.010189685970544815 1.781671404838562
-0.27175360918045044 -0.20059914886951447 1.2410780191421509
-0.41053497791290283 0.3233572840690613 0.056082919239997864
-0.27354371547698975 -0.15424469113349915 -0.47368842363357544
0.7567790150642395 0.4746383726596832 0.63531094789505
2.5311079025268555 -0.042069897055625916 0.6336913704872131
-1.764703392982483 -0.4773019552230835 -0.2879614531993866
0.913581907749176 0.10469038784503937 -0.5386715531349182
-1.1880180835723877 0.7000043392181396 1.115891456604004
-0.36059078574180603 -0.2865751385688782 -1.6325470209121704
0.06157972663640976 0.12868700921535492 -1.3995364904403687
-0.652729332447052 -0.24485844373703003 1.3809531927108765
-1.254927158355713 -0.375019907951355 -1.5988876819610596
1.8217791318893433 0.19230438768863678 -0.13210514187812805
1.4640082120895386 0.10923540592193604 0.20267581939697266
-1.026485562324524 -0.3027264177799225 1.9929028749465942
-0.21266090869903564 -0.6032029986381531 -0.16376373171806335
-0.812278687953949 0.1813497394323349 -0.476541131734848
-0.551593542098999 -0.1041480302810669 1.5863760709762573
2.373992919921875 -0.049199193716049194 -0.7825238108634949
-0.18542709946632385 -0.5112634897232056 -0.35688111186027527
-1.7566527128219604 0.16590678691864014 0.1483280509710312
-0.26559609174728394 0.29253995418548584 -1.1261961460113525
2.6272149085998535 -0.04302868992090225 0.1933640092611313
-0.7846013903617859 0.6677413582801819 0.6331163644790649
-1.0552607774734497 -0.35309696197509766 0.5641639232635498
-0.39895644783973694 0.15881122648715973 -0.17569532990455627
-1.9082822799682617 0.08398446440696716 -1.649657130241394
-2.202397108078003 0.030523240566253662 -0.4107358157634735
0.7236423492431641 -0.02115628868341446 1.4905155897140503
-0.17074917256832123 -0.552718997001648 0.7158797383308411
0.7523243427276611 -0.13310277462005615 1.0950433015823364
1.2282136678695679 -0.4510592818260193 0.35450512170791626
-0.4623335003852844 0.1581185758113861 -0.44941282272338867
0.09766561537981033 -0.005717664957046509 0.9402796030044556
-0.8216958045959473 -0.16269123554229736 -0.26288723945617676
-0.11182568967342377 -0.07859216630458832 2.3487086296081543
0.3450312912464142 -0.5005554556846619 0.35328173637390137
1.598737120628357 -0.27841606736183167 -0.09090615808963776
-0.5034222602844238 -0.04327066242694855 0.7692617774009705
-0.3960840702056885 0.1861843317747116 0.6919229030609131
-2.160585880279541 -0.04855388030409813 1.9851021766662598
1.0359058380126953 0.4861857295036316 -0.35019025206565857
-2.0377306938171387 -0.08169499039649963 -0.24094492197036743
0.40469756722450256 -0.504131555557251 0.02067730389535427
0.5674416422843933 -0.43784064054489136 -0.570553183555603
-0.9153793454170227 -0.3247210681438446 -1.6072286367416382
-1.7316340208053589 -0.22518903017044067 0.6945211291313171
-2.1438381671905518 0.29913753271102905 -0.5901767611503601
-1.8914093971252441 0.4811265468597412 0.1627746969461441
-0.49332886934280396 0.4848289489746094 -1.100685715675354
-2.8869075775146484 -0.042673975229263306 -0.5098912715911865
-0.579606831073761 0.3188778758049011 0.19656772911548615
