ply
format ascii 1.0
element vertex 812
property float x
property float y
property float z
end_header
2.141712188720703 0.34652167558670044 -1.0003199577331543
0.46872401237487793 0.932460606098175 -0.22400794923305511
2.3812811374664307 0.3740402162075043 0.8166688680648804
-1.7834091186523438 0.5723457932472229 0.13171368837356567
3.0142717361450195 0.13964492082595825 -0.20795272290706635
-0.9907643795013428 -0.3128158748149872 0.9664992690086365
-0.03991035372018814 -0.21171483397483826 -0.31074509024620056
0.27540507912635803 0.22549551725387573 1.0455138683319092
-1.692254662513733 -0.035589903593063354 1.0238354206085205
0.5854849219322205 0.31110137701034546 1.044447660446167
-0.35738804936408997 0.4574294090270996 0.9530717134475708
2.113478660583496 0.2615028917789459 -1.0254632234573364
-0.6624772548675537 0.871843695640564 -0.6442797780036926
-0.12482666969299316 -0.20450647175312042 0.11653205752372742
2.0842227935791016 0.4467235803604126 0.415811687707901
1.7881864309310913 -0.21086937189102173 -0.15047778189182281
1.1482341289520264 0.6275776624679565 -0.02219938114285469
1.0928888320922852 0.5238569378852844 0.9716199040412903
0.9943073987960815 0.23145699501037598 1.0645197629928589
-1.2984598875045776 -0.13300837576389313 0.034995514899492264
-0.9797244668006897 0.782394289970398 -0.5300397872924805
1.9404875040054321 -0.5132653117179871 0.9681538343429565
-1.098660945892334 -0.1525299847126007 0.12190517783164978
0.505497395992279 -0.2352810502052307 -0.36262497305870056
2.2999701499938965 -0.021618187427520752 0.5850824117660522
2.9820430278778076 0.14566703140735626 0.7190461754798889
1.9013702869415283 0.3469656705856323 -0.9919882416725159
2.882850170135498 -0.17413967847824097 -0.343079149723053
2.8921167850494385 0.3540041148662567 0.37556591629981995
-1.5492802858352661 -0.09912893176078796 1.0367884635925293
2.3176145553588867 -0.05722701549530029 -0.7318351864814758
0.7876074314117432 -0.22140058875083923 -0.7183185815811157
-2.0956783294677734 0.5599122643470764 0.3751598596572876
-0.4008183181285858 -0.20485207438468933 0.4354279935359955
2.087941884994507 -0.04898978769779205 0.6033473014831543
0.04765701666474342 0.9009597897529602 -0.6450894474983215
1.4508755207061768 0.48195910453796387 0.7586930990219116
-1.7737871408462524 -0.08583927154541016 0.3639586865901947
2.9886763095855713 -0.1446242332458496 -0.865630030632019
-1.1286649703979492 0.7215623259544373 -0.2766587734222412
3.0452144145965576 -0.0412411242723465 0.711344301700592
-0.9359183311462402 -0.1701652705669403 0.4544321894645691
-2.320603370666504 -0.14768683910369873 0.8545935750007629
1.3465235233306885 0.4902098774909973 -0.5178467631340027
0.9339298009872437 0.5118069052696228 1.0069423913955688
0.2869599461555481 -0.21992811560630798 0.7203659415245056
0.3505459427833557 0.9210439920425415 -0.30288347601890564
-0.5870983600616455 -0.0013384073972702026 -1.0158308744430542
-0.9739025235176086 -0.1542050540447235 -0.12038075923919678
-0.09419761598110199 0.6890208125114441 0.8314436674118042
2.7785284519195557 -0.20390105247497559 -0.5611563324928284
0.5094724297523499 0.9087705612182617 -0.6739243865013123
2.4011619091033936 0.4247317910194397 -0.17613880336284637
-2.6495893001556396 0.29059740900993347 -0.9152471423149109
-0.7873879075050354 0.8824781179428101 0.08239786326885223
-0.4917934834957123 0.9054549932479858 0.19671285152435303
1.6586065292358398 0.47160762548446655 0.550243616104126
-0.8625890016555786 0.8098618388175964 0.7733849883079529
-1.0891203880310059 -0.1396259069442749 0.3737305700778961
0.7862460017204285 -0.22254914045333862 -0.095359668135643
-0.007044780999422073 0.5901012420654297 0.8747692704200745
-1.484200119972229 -0.11971433460712433 0.09947509318590164
-0.9262489676475525 -0.14472024142742157 0.9961435794830322
-0.7467467784881592 0.8777724504470825 -0.3331960141658783
-1.0886528491973877 0.7114045023918152 -0.6761912107467651
2.447960138320923 0.3932684063911438 -0.6385818719863892
-1.3981187343597412 -0.3346906304359436 -0.7187483310699463
-1.203382968902588 -0.08683407306671143 -0.395415723323822
-1.7992922067642212 0.5656614303588867 -0.06377663463354111
3.043607234954834 0.05950332432985306 0.6903204917907715
3.011904716491699 0.093252032995224 0.7620351910591125
-0.94579017162323 0.5656232237815857 -0.9147040843963623
-0.6774500012397766 0.11689775437116623 -1.0217604637145996
-0.3200017511844635 0.39175835251808167 0.9980731010437012
0.2780815064907074 0.4106435775756836 -0.9661831259727478
-1.4922159910202026 0.2313455045223236 1.0267044305801392
1.9726362228393555 -0.21953707933425903 0.23177695274353027
-0.6599064469337463 -0.20839183032512665 -0.5890436172485352
-2.0965442657470703 0.5613882541656494 0.41355419158935547
-0.24682876467704773 0.37421751022338867 1.0002797842025757
1.6323384046554565 0.10999179631471634 1.046190857887268
-2.583542585372925 0.44965028762817383 -0.5550940036773682
-1.0911900997161865 -0.0943143367767334 -0.2794612944126129
1.629486083984375 0.48660773038864136 0.36580538749694824
-1.9226951599121094 0.5651398301124573 0.05539138242602348
2.073371410369873 -0.6147760152816772 0.998346745967865
1.5730721950531006 -0.11027355492115021 1.0239089727401733
-0.6713261008262634 -0.20462822914123535 -0.34462490677833557
-2.5638110637664795 -0.055759042501449585 0.3449553847312927
2.3634912967681885 -0.28444042801856995 0.7810192704200745
2.6100080013275146 0.3105683922767639 0.4737946391105652
-1.499143123626709 0.5796865820884705 0.6575984358787537
-2.1828012466430664 -0.08128602802753448 0.09904375672340393
2.750490188598633 -0.20822255313396454 -0.9856786727905273
2.253202438354492 -0.49040958285331726 1.0634057521820068
-0.48801949620246887 0.31537896394729614 1.015441656112671
-2.0183255672454834 0.5362942814826965 -0.35784026980400085
0.48908400535583496 0.09921008348464966 1.0483062267303467
1.879036545753479 0.21929994225502014 1.0567498207092285
-1.4586434364318848 -0.12057982385158539 -0.2734830975532532
0.6426978707313538 0.008484989404678345 -1.0336899757385254
1.765979290008545 0.4817500114440918 -0.424446702003479
2.027010440826416 -0.21435332298278809 0.5058673620223999
1.3319536447525024 -0.21488454937934875 -0.43070167303085327
-2.5122711658477783 0.5461938381195068 -0.12291645258665085
0.5476449728012085 -0.17699943482875824 -0.04529684782028198
1.1266454458236694 0.5862802267074585 -0.80134117603302
0.6443405151367188 0.0536237508058548 -1.0230977535247803
-1.8710482120513916 0.5587294101715088 0.5517445802688599
-1.0348258018493652 -0.14218731224536896 -0.2744683623313904
2.3658618927001953 -0.20336942374706268 -0.4294939935207367
1.8864094018936157 -0.47903454303741455 -0.9876688718795776
1.9044296741485596 0.4243046045303345 0.8507485389709473
-1.0889946222305298 0.07011601328849792 -0.7165576219558716
-0.13762691617012024 -0.20326729118824005 -0.05774078890681267
3.0118277072906494 0.1808069348335266 0.31216952204704285
0.6474736332893372 -0.2161480188369751 0.9130281209945679
1.6920263767242432 -0.2026882767677307 -0.05031141638755798
-1.434127688407898 -0.4572107791900635 -0.7040579319000244
-0.19899195432662964 0.9273439645767212 -0.18118058145046234
1.287541389465332 0.2781316637992859 -1.0057238340377808
1.629025936126709 -0.21233594417572021 -0.5481300354003906
0.47610825300216675 0.9234600067138672 0.13993889093399048
1.567163348197937 -0.03948317468166351 -1.0137525796890259
-0.0915021151304245 0.9279477596282959 0.015136562287807465
2.5671112537384033 0.40921688079833984 -0.4511653482913971
1.3439944982528687 -0.221804678440094 0.01409714575856924
-2.5850636959075928 -0.051043733954429626 -0.07972725480794907
0.5162819027900696 0.41208207607269287 1.0133816003799438
0.20206007361412048 0.6037387847900391 -0.8676887154579163
0.7550821900367737 0.8932431936264038 0.3490425646305084
-2.037738084793091 0.5430904030799866 -0.4170273542404175
1.508355736732483 0.1652320921421051 1.0640692710876465
-1.3741377592086792 0.5736038684844971 0.6512807011604309
1.8318932056427002 -0.1501948982477188 -1.01777184009552
-0.742817759513855 0.14024974405765533 -1.0281803607940674
-0.7279491424560547 -0.21217861771583557 0.034004852175712585
-1.2126588821411133 -0.10943320393562317 0.9113714694976807
-0.21281245350837708 -0.2609977722167969 -0.802233099937439
2.117110252380371 -0.2245170921087265 -0.6595908999443054
-1.3359230756759644 -0.4811844825744629 0.7076075673103333
2.8552730083465576 0.3160456120967865 -0.784401535987854
2.393784999847412 0.0635349452495575 -0.6452952027320862
-2.5661141872406006 0.4628242552280426 -0.5231941938400269
2.0436551570892334 0.43352946639060974 0.5595428943634033
-2.1482625007629395 0.24278181791305542 -0.9908026456832886
-1.0306942462921143 -0.09581201523542404 -0.4893559217453003
-2.5952887535095215 0.46680986881256104 -0.2961842119693756
-2.6010496616363525 -0.05436994135379791 0.33982574939727783
0.48181822896003723 0.9596214294433594 -0.1784757822751999
-2.054645538330078 -0.07409374415874481 -0.9692407846450806
-1.3764841556549072 0.6087262630462646 0.3383038341999054
-2.5817015171051025 -0.07112796604633331 -0.7028697729110718
1.4003573656082153 0.43014833331108093 -0.9370592832565308
0.5082622766494751 0.9163137674331665 -0.6079885959625244
2.73760986328125 -0.2221687138080597 -0.6628119945526123
2.3881125450134277 -0.1559368073940277 1.0368695259094238
-2.0316271781921387 -0.13753709197044373 -0.9473739862442017
0.017777305096387863 -0.16118071973323822 0.9705466628074646
0.3036465048789978 -0.24398913979530334 0.5675544738769531
-0.6692644953727722 0.8998636603355408 0.38623180985450745
1.314957857131958 0.13158871233463287 -1.0247247219085693
2.1164450645446777 0.26492249965667725 1.0559271574020386
-0.8538830280303955 -0.15424641966819763 0.18565817177295685
-0.6038675308227539 0.8820089101791382 0.6715885996818542
0.5961809158325195 -0.2163940966129303 -0.7145984172821045
-0.011958889663219452 -0.21006470918655396 0.36143773794174194
1.8811078071594238 0.1386948972940445 0.8401439189910889
-0.8624194264411926 0.6235503554344177 -0.8838136792182922
-2.6212260723114014 0.204196035861969 0.22627882659435272
0.7343761324882507 0.854020357131958 0.6689944267272949
-1.8739346265792847 -0.17137503623962402 0.8629413843154907
1.6126548051834106 -0.2113930881023407 -0.5273458957672119
-1.577738642692566 -0.2069987654685974 -0.71677166223526
-1.4887951612472534 0.1986425220966339 -0.7979098558425903
2.9408979415893555 0.1571773886680603 -0.7000751495361328
1.8940950632095337 0.04468182474374771 -0.6105873584747314
-1.648586392402649 -0.28851115703582764 0.8393229842185974
-1.7296725511550903 0.5765209197998047 0.08808110654354095
-1.3432481288909912 -0.03838047385215759 -0.9806936979293823
-0.15123698115348816 -0.1077411025762558 -1.0121335983276367
1.633407473564148 0.46054765582084656 0.855560839176178
0.8834247589111328 0.6406036615371704 0.7800682187080383
-1.1001518964767456 -0.45998531579971313 -0.8050296306610107
-2.203339099884033 0.5418721437454224 0.6217763423919678
-1.4057749509811401 -0.07379961013793945 -0.6632530689239502
0.6283237934112549 -0.2187352180480957 0.4503355920314789
1.0508378744125366 -0.2203698307275772 0.4301255941390991
1.0220781564712524 0.4078284204006195 1.0294798612594604
0.9499058127403259 0.30613842606544495 -1.0035394430160522
-2.490396022796631 -0.06531918048858643 0.06606774777173996
2.0317492485046387 0.003968536853790283 0.6314976811408997
-1.9505207538604736 0.47494083642959595 0.98621666431427
1.4377638101577759 -0.21244394779205322 0.0942414402961731
-1.2299957275390625 0.1765742301940918 -0.7182390689849854
3.120924711227417 0.21496769785881042 0.2964824438095093
2.029054880142212 -0.21878474950790405 0.5750719904899597
3.1155712604522705 -0.037662237882614136 -0.5309060215950012
-2.081263303756714 -0.11181870102882385 0.07184584438800812
2.272498607635498 -0.20669835805892944 -0.5159037709236145
0.22875332832336426 0.9148472547531128 -0.342054545879364
3.1635186672210693 0.0529816672205925 -0.07964637875556946
3.034440755844116 -0.17480215430259705 -0.018047092482447624
-2.3839709758758545 0.5519176721572876 0.08954954892396927
1.7400387525558472 -0.0050343722105026245 0.7476140260696411
-0.31654655933380127 -0.20184238255023956 0.04343513771891594
1.7465403079986572 0.4875384569168091 0.33197715878486633
2.2101638317108154 -0.6318007707595825 0.8972766995429993
-0.3304307162761688 0.2167755663394928 1.0299322605133057
0.3940827250480652 -0.20628255605697632 -0.24476677179336548
1.6693658828735352 -0.21307530999183655 -0.5013347268104553
1.5807232856750488 0.5021486878395081 0.17021438479423523
0.5666278600692749 -0.20175758004188538 -0.4626142978668213
0.04153963178396225 0.8877846598625183 0.6745150089263916
3.044189214706421 0.056105032563209534 -0.6101477146148682
-1.0724667310714722 0.7508786916732788 0.5823209881782532
0.07005907595157623 0.9370380640029907 -0.3433343172073364
-0.6724423170089722 0.8806312680244446 0.7099529504776001
2.2690165042877197 0.38921451568603516 0.6140375137329102
-1.983393669128418 0.30905312299728394 1.0227186679840088
1.8727508783340454 -0.21102187037467957 -0.33761027455329895
1.8702727556228638 0.4705795645713806 0.5011683106422424
1.212651014328003 0.5712136030197144 0.27111372351646423
1.3076279163360596 0.2760530412197113 -1.0140810012817383
0.6794413924217224 -0.07827366888523102 -1.0161340236663818
-2.3818817138671875 0.5303360819816589 -0.3496006429195404
0.36750635504722595 0.41948992013931274 1.0060501098632812
1.8748592138290405 0.4497864246368408 0.7035167813301086
-0.5882958173751831 0.581019401550293 0.8983023166656494
1.5636706352233887 0.2427673041820526 1.054201602935791
3.130647897720337 0.05559932440519333 -0.3547804057598114
-0.3353267014026642 -0.2116059958934784 0.6829774379730225
3.189953327178955 0.06418917328119278 -0.00609335582703352
-0.544035792350769 -0.11172743141651154 -0.9921841621398926
0.916111409664154 0.7459403276443481 -0.6988181471824646
-1.363832712173462 -0.32243984937667847 -0.7119794487953186
1.8557305335998535 -0.05993877351284027 0.6090162396430969
2.85699725151062 0.25770115852355957 0.9821364879608154
2.195690393447876 -0.006448738276958466 0.29416587948799133
-0.9246883392333984 0.36639338731765747 -0.9751231670379639
0.5432527661323547 -0.055464327335357666 1.030065894126892
-2.0404820442199707 -0.10468649864196777 -0.29818952083587646
0.4529666304588318 0.5400450825691223 -0.9068515300750732
-2.6410164833068848 0.2664428949356079 0.8467656970024109
2.7735159397125244 -0.19829851388931274 -0.5606197714805603
-1.394613265991211 0.24943754076957703 1.028526782989502
-2.0091559886932373 0.35358333587646484 1.0214946269989014
-0.9291242361068726 0.7411344051361084 0.8152545690536499
2.385516881942749 0.414659708738327 -0.49029242992401123
2.881272792816162 0.3809625804424286 -0.232761949300766
-1.5127065181732178 0.18348294496536255 1.0404136180877686
-0.9484646320343018 0.12220758944749832 1.0179152488708496
-1.100104808807373 0.3514072299003601 -0.9959964156150818
-1.2164878845214844 -0.1381087601184845 -0.17710785567760468
0.6310577392578125 0.4638718366622925 0.9901303648948669
2.109435796737671 -0.20197845995426178 0.03885522857308388
1.5835907459259033 0.4318668246269226 0.9377544522285461
1.9443122148513794 0.14636825025081635 -0.7297254204750061
2.929642677307129 -0.21978852152824402 -0.7497656941413879
1.3975805044174194 -0.22044865787029266 0.5851679444313049
0.7991061806678772 -0.21907274425029755 0.04650246351957321
2.997886896133423 0.12826091051101685 -0.5014413595199585
2.693053722381592 -0.19025936722755432 0.5211941599845886
-0.5247094631195068 0.8917679786682129 -0.6562067270278931
1.8716574907302856 0.4435262680053711 0.6802490949630737
-1.892574429512024 0.5661367177963257 -0.05705586448311806
1.8750345706939697 0.47404584288597107 -0.46874499320983887
-1.1399680376052856 0.02220775932073593 -0.6347458362579346
0.6786717772483826 -0.21555665135383606 0.04799538850784302
-1.0595550537109375 0.7647311687469482 0.16392973065376282
2.4863381385803223 -0.2704997658729553 -1.0354061126708984
0.030624117702245712 0.9168108701705933 -0.4197424054145813
0.6341549158096313 0.9130550026893616 -0.5100221633911133
1.5702489614486694 -0.24805158376693726 0.49587446451187134
2.723499298095703 0.3388811945915222 0.735365629196167
2.5089919567108154 0.41416043043136597 0.2820017337799072
2.1024980545043945 0.1752461940050125 -0.7402508854866028
1.613118052482605 0.04064907878637314 1.0533385276794434
1.1033152341842651 -0.2213965207338333 -0.34362488985061646
1.654227375984192 0.49722152948379517 -0.05761648714542389
-1.2382642030715942 0.6380655765533447 0.37910693883895874
-1.065462589263916 0.15651582181453705 1.02065908908844
-1.479351282119751 0.5795226693153381 0.06990958005189896
-0.5980069637298584 0.8932849168777466 -0.467194527387619
-1.6095995903015137 0.5804792642593384 -0.24588797986507416
-0.8313122391700745 0.12977975606918335 -0.9989736080169678
-2.6641931533813477 0.1467503160238266 0.8229047656059265
-1.6465376615524292 0.05543997138738632 1.0318336486816406
1.480851173400879 -0.2163899838924408 0.0933213084936142
-2.485586166381836 -0.06674805283546448 0.2612559497356415
-0.1459990292787552 0.9242522120475769 -0.5383610129356384
1.8197826147079468 -0.20894593000411987 -0.13676251471042633
2.8901522159576416 0.11665701866149902 -0.6995082497596741
-0.7750007510185242 -0.19651362299919128 -0.18740005791187286
1.8680332899093628 0.4997883439064026 0.49721047282218933
1.8863916397094727 0.07348319888114929 -0.7974324226379395
0.11143065989017487 -0.03988330066204071 1.0312979221343994
-0.3816242218017578 -0.21427679061889648 -0.5382134318351746
-1.007344365119934 0.0353877916932106 -0.705356776714325
3.1469929218292236 0.06048562377691269 -0.3364371657371521
-1.296651005744934 -0.12838469445705414 0.45823919773101807
-1.0982723236083984 0.07161930948495865 -0.9806106090545654
-1.3711391687393188 0.4146527051925659 0.9986205697059631
-1.6835808753967285 -0.003143027424812317 -0.6451346278190613
-0.13163790106773376 -0.20523521304130554 -0.3660418689250946
-0.3414035737514496 0.25873643159866333 -1.0073723793029785
-0.23941245675086975 -0.18957862257957458 0.9521257281303406
-1.8906676769256592 0.07350093871355057 1.0423282384872437
2.0792832374572754 0.14743907749652863 -0.3564385771751404
1.3509751558303833 -0.2233731895685196 -0.051477596163749695
2.8945915699005127 0.30070358514785767 -0.8476599454879761
-1.4139374494552612 -0.15090325474739075 0.7504048943519592
0.5096848607063293 -0.21294337511062622 -0.6112600564956665
-1.5240980386734009 0.5940667390823364 0.30115529894828796
-0.5755175948143005 -0.21510116755962372 -0.5546503663063049
2.4376416206359863 0.058707691729068756 1.030820608139038
2.1972131729125977 -0.2141871154308319 1.0326125621795654
1.3158873319625854 0.5430758595466614 0.19994647800922394
-1.6905497312545776 0.5713107585906982 -0.2243981510400772
-0.4519774317741394 -0.2202235460281372 -0.7831496596336365
2.9973766803741455 -0.13571906089782715 0.3912957012653351
1.285227656364441 0.5161688923835754 0.4994310140609741
-2.3978776931762695 -0.10557243227958679 0.7541633248329163
-0.06358011066913605 -0.20581144094467163 -0.7599133253097534
-2.425553321838379 -0.08044350147247314 -0.8979126214981079
1.0550711154937744 0.6985878944396973 0.10746744275093079
1.617660641670227 0.1363702416419983 0.650108814239502
-0.2749801278114319 0.3227308392524719 -1.0068215131759644
2.3335533142089844 0.07253221422433853 -0.7229300141334534
-2.029282331466675 0.20376832783222198 1.0341012477874756
-0.024542629718780518 -0.20791348814964294 0.01610393635928631
-2.633188486099243 0.16245828568935394 0.46190816164016724
-0.08866804838180542 -0.20435455441474915 -0.09154964238405228
1.9519098997116089 0.40699541568756104 -0.916645348072052
2.401736259460449 0.3322436213493347 -0.9778473377227783
-1.4488447904586792 0.605741024017334 -0.026997821405529976
1.9354561567306519 0.43705958127975464 0.6731222867965698
1.4031833410263062 0.5059300065040588 -0.38168802857398987
1.2690167427062988 0.4942775368690491 -0.6763418912887573
0.8643491864204407 -0.21882279217243195 -0.557209849357605
0.0722634494304657 -0.2007690668106079 -0.938174843788147
-2.4172377586364746 0.536429762840271 0.17769046127796173
2.7218148708343506 -0.1058206707239151 -0.36640483140945435
-0.6719383597373962 -0.2169778048992157 -0.8166126012802124
-0.6301460266113281 -0.21184223890304565 -0.6402446031570435
-1.45170259475708 0.5008354187011719 -0.9642304182052612
-2.689366579055786 -0.05445808172225952 -0.7074390649795532
0.0038821622729301453 0.8542548418045044 0.7212169170379639
-1.923307180404663 -0.09518449008464813 -0.608721911907196
2.6795971393585205 -0.19589142501354218 -0.12641680240631104
1.3187178373336792 0.47690626978874207 0.8969528079032898
0.8996432423591614 -0.2220245897769928 -0.4943273067474365
-0.9886636734008789 -0.17270724475383759 0.33396604657173157
0.5399881601333618 -0.21375876665115356 -0.880722165107727
1.7327523231506348 -0.2084978222846985 0.08194733411073685
1.4043241739273071 -0.2285214066505432 0.7950284481048584
0.47099485993385315 0.9220624566078186 0.25047188997268677
1.2094212770462036 -0.22118496894836426 0.6948173642158508
1.2183159589767456 -0.07790899276733398 -1.0064500570297241
1.0436830520629883 0.6578838229179382 -0.6338837146759033
2.165363073348999 -0.7037162780761719 -0.841893196105957
-0.10009005665779114 -0.20899488031864166 0.3658986985683441
2.047508478164673 -0.21372047066688538 0.23404870927333832
1.5773229598999023 -0.25822514295578003 0.044492945075035095
-0.9978730082511902 0.49896660447120667 -0.9431847929954529
0.9033535718917847 0.34178656339645386 -1.0007120370864868
-1.1846957206726074 -0.32012665271759033 -0.935681939125061
2.7825965881347656 0.41887128353118896 0.12379498034715652
0.5031494498252869 0.91631019115448 -0.2585318982601166
-1.6748969554901123 -0.1147424727678299 -0.09357345104217529
-0.28135064244270325 -0.16623319685459137 0.9718595743179321
1.0404632091522217 -0.22700774669647217 -0.8914157748222351
0.90973299741745 -0.2161400020122528 -0.7172220349311829
-0.03662578761577606 0.7449421882629395 0.7929138541221619
-2.3128035068511963 -0.08020871877670288 0.9861036539077759
1.200851559638977 -0.07660514116287231 1.017992377281189
-2.6120386123657227 0.44163957238197327 0.28902119398117065
-2.5909621715545654 0.36410146951675415 -0.7327796220779419
0.7391425371170044 0.11808686703443527 1.0592668056488037
1.4920066595077515 -0.11119674146175385 -1.005561351776123
-2.6022655963897705 0.3227902054786682 -0.677837073802948
-0.021451473236083984 -0.2519155740737915 -0.8450430035591125
2.122537136077881 -0.20949973165988922 -0.5735099911689758
0.7008662819862366 0.9098130464553833 0.538431704044342
-1.138987421989441 0.6992894411087036 0.1204640343785286
-0.19675981998443604 -0.21018947660923004 -0.299835741519928
-0.41655343770980835 0.37120169401168823 -0.9813895225524902
1.3909889459609985 -0.12994235754013062 -0.9944190979003906
1.32731294631958 0.2978318929672241 -1.0092376470565796
-1.8312745094299316 -0.11446413397789001 0.35423544049263
2.1180317401885986 -0.11906799674034119 -1.0282567739486694
0.8365206122398376 0.30792319774627686 1.0514261722564697
-1.7677595615386963 -0.25363287329673767 -0.7942158579826355
1.8366549015045166 0.2026124745607376 -0.7269927263259888
1.8806045055389404 -0.31573617458343506 -0.7528347969055176
-1.5336648225784302 -0.13156737387180328 0.4621991217136383
-0.6089302897453308 -0.19730713963508606 -0.024935290217399597
2.217299222946167 -0.6263293027877808 0.9554719924926758
1.7858399152755737 -0.08698965609073639 -1.0164074897766113
1.6593419313430786 -0.04415827989578247 -1.0157803297042847
1.161729097366333 0.5554090142250061 0.7519310116767883
2.2109968662261963 -0.20872753858566284 -0.17690032720565796
0.577507734298706 -0.20946478843688965 0.9088858366012573
0.6869223117828369 0.37909770011901855 -0.9883447289466858
-2.6003012657165527 0.48178228735923767 0.4840317368507385
-0.1550576537847519 -0.21180452406406403 0.15264061093330383
2.056521415710449 0.005880296230316162 -0.8191171884536743
0.4879094958305359 0.9612222909927368 0.659813642501831
2.4279496669769287 -0.2908029854297638 -0.8894563913345337
-0.5989181995391846 -0.2105889469385147 -0.6373416185379028
-1.4399981498718262 -0.29824525117874146 1.0108429193496704
-1.314205288887024 -0.1305425465106964 0.16508468985557556
0.7041154503822327 -0.21731272339820862 0.3494970500469208
1.6002051830291748 0.4928886294364929 0.3303358256816864
1.8616429567337036 0.44194933772087097 0.769676148891449
-2.053426742553711 -0.051519930362701416 1.0119692087173462
-1.4023346900939941 -0.42685186862945557 0.9648914337158203
-1.316228985786438 0.4171481430530548 1.0251121520996094
1.6902798414230347 -0.23793475329875946 -0.900018572807312
0.9193448424339294 0.19821777939796448 -1.017714023590088
1.9839155673980713 0.10950157791376114 0.6592654585838318
-1.341672420501709 -0.49064701795578003 0.804705798625946
2.0707900524139404 0.20495447516441345 -0.5823851823806763
0.2151292860507965 -0.22515875101089478 0.8006225228309631
-2.607365369796753 0.20965415239334106 0.7585468292236328
1.6200937032699585 -0.186876580119133 -0.975139319896698
0.9634298086166382 -0.2150169014930725 0.6079701781272888
0.08990852534770966 -0.21607595682144165 -0.7114906311035156
-2.610407590866089 0.23472341895103455 0.511688232421875
-1.8289793729782104 0.5817748308181763 0.033494897186756134
2.9041569232940674 0.3750760555267334 0.2633460760116577
-1.7437405586242676 -0.23552721738815308 0.8838794827461243
-1.1433907747268677 0.6931992769241333 0.31345134973526
-1.245526671409607 0.22474375367164612 -1.0457584857940674
-0.7171684503555298 0.8961421847343445 0.32996612787246704
2.6777303218841553 0.03492552042007446 -1.020928978919983
2.3548498153686523 0.4388594627380371 0.05806661769747734
1.9158903360366821 -0.4997709393501282 0.842969536781311
-2.3055825233459473 -0.1577635407447815 0.8562901020050049
2.160568952560425 -0.496410608291626 1.075880765914917
0.9005674123764038 -0.23162579536437988 -0.2680068612098694
0.9244979619979858 0.7984654903411865 0.4212944209575653
-1.514775037765503 0.11903895437717438 1.0388846397399902
-2.659092903137207 0.10057070851325989 0.3688591420650482
-1.7659066915512085 0.5408937335014343 -0.7645878195762634
2.305769443511963 -0.16029290854930878 -0.6596079468727112
-0.7632881999015808 0.1076539158821106 1.037928819656372
-2.601330280303955 0.3923596143722534 -0.45103272795677185
2.1334142684936523 0.2199896275997162 -0.3477543294429779
1.9506266117095947 0.1619851142168045 1.0498378276824951
1.9581122398376465 -0.2139538675546646 -0.13109610974788666
-0.025112539529800415 0.39757776260375977 -0.9749332070350647
-1.9121202230453491 -0.08462601155042648 -0.639863908290863
-0.09318824112415314 0.4710841774940491 -0.9432628154754639
2.121098041534424 -0.04565092921257019 0.6099839806556702
2.0227596759796143 -0.5057517290115356 -0.7773316502571106
1.8696364164352417 -0.2813258171081543 -1.03041410446167
-1.2977039813995361 0.3170146942138672 1.0323128700256348
-2.5796926021575928 0.47032836079597473 -0.24272017180919647
2.7522830963134766 0.3937901556491852 -0.4888993501663208
-2.0554120540618896 0.5594444870948792 0.42168930172920227
-2.082336902618408 0.5395997166633606 0.876371443271637
-2.6017110347747803 0.3697383403778076 -0.6384714841842651
1.5440967082977295 -0.22388452291488647 -0.6637688279151917
0.3385322391986847 -0.2255985140800476 -0.8312536478042603
-1.3428685665130615 0.2686555087566376 -1.003434419631958
-0.28022515773773193 0.3461037874221802 -0.9972273111343384
0.7415399551391602 -0.2189216911792755 -0.7279804348945618
1.8678758144378662 -0.1118336021900177 0.6862910985946655
0.8197739720344543 0.8599241971969604 0.39253267645835876
-0.08109882473945618 -0.2053801715373993 -0.32244646549224854
3.1398322582244873 -0.13079418241977692 0.05699392408132553
-1.3680779933929443 0.07205149531364441 -0.6294316053390503
-0.13490483164787292 -0.21532076597213745 -0.7646146416664124
-2.1509859561920166 0.5316996574401855 -0.5715804696083069
0.7667840719223022 -0.21084481477737427 0.2245044857263565
0.3144523501396179 0.5808008909225464 0.8874712586402893
1.5972983837127686 0.49667033553123474 0.10071785002946854
0.39498671889305115 0.9122778177261353 -0.3626098334789276
-1.2295812368392944 -0.20361196994781494 -0.5821307897567749
-0.6006811261177063 -0.19992801547050476 -0.3776136040687561
2.9031624794006348 0.21604880690574646 -0.6939507126808167
-0.8799034953117371 -0.1816883385181427 -0.20759278535842896
2.383488178253174 -0.20326849818229675 -0.16946576535701752
1.9469492435455322 0.4714953899383545 0.2799522280693054
-1.0605509281158447 0.7447251677513123 -0.5259297490119934
0.46490365266799927 -0.21269439160823822 -0.16049790382385254
-1.596638560295105 0.4777405261993408 -0.9738242030143738
-0.7101665735244751 0.9013216495513916 0.28219085931777954
-2.107954502105713 -0.06232321262359619 1.0065279006958008
1.7244154214859009 -0.20845083892345428 0.8188176155090332
-0.15182951092720032 -0.21933725476264954 -0.7741106748580933
0.22097814083099365 0.9103976488113403 0.5782349109649658
2.2271406650543213 -0.3932356536388397 -0.7878152132034302
1.7725203037261963 0.4758974611759186 -0.4531320631504059
2.6697194576263428 0.38010141253471375 -0.24744094908237457
-2.6224658489227295 0.25621968507766724 0.7978726029396057
-0.6727381944656372 0.87200927734375 -0.6895292401313782
2.0572407245635986 -0.14098024368286133 -0.76541668176651
1.7612801790237427 0.2947719097137451 1.0585639476776123
2.5455427169799805 0.3849998116493225 -0.8338958621025085
-1.1489750146865845 -0.2698519825935364 0.8283982872962952
-2.7097463607788086 -0.034117281436920166 0.08835723251104355
2.325340747833252 -0.0545743852853775 0.709931492805481
-1.9719350337982178 0.5598920583724976 -0.15194055438041687
-1.4611579179763794 -0.42028141021728516 0.9258723855018616
-0.3255579471588135 0.9271929264068604 -0.030211573466658592
-0.4788323938846588 -0.18907898664474487 0.016273079439997673
-1.7826707363128662 -0.08376269787549973 0.8370804190635681
2.2649381160736084 0.0840192437171936 0.6615008115768433
1.890648603439331 -0.4824432134628296 -0.8666701912879944
1.5503910779953003 0.486607164144516 0.49501270055770874
2.172288179397583 0.20195834338665009 1.0394128561019897
0.09213992953300476 0.21047937870025635 1.0967727899551392
3.102407932281494 0.09773459285497665 -0.09917505830526352
-1.6601942777633667 0.016461431980133057 -0.7741721868515015
2.2121024131774902 -0.024460643529891968 -0.7509688138961792
-2.534891128540039 0.5431654453277588 -0.021054819226264954
-0.06939635425806046 -0.20896875858306885 -0.845037043094635
-0.18305280804634094 0.5021923780441284 -0.9329513907432556
2.2052559852600098 0.41417396068573 -0.7883026003837585
-0.1833210289478302 -0.21164658665657043 -0.885613203048706
2.020221710205078 0.4458470344543457 0.44405925273895264
-1.0625207424163818 -0.030913203954696655 -0.9803955554962158
2.0698087215423584 0.4425644874572754 0.39890313148498535
2.6012961864471436 0.2746219336986542 1.017917513847351
-1.097938895225525 -0.13754305243492126 -0.2845805883407593
-1.0084648132324219 0.00814712792634964 -0.6204854249954224
0.9383577704429626 0.5012310147285461 0.9627686738967896
-1.6508580446243286 0.5691702365875244 0.6849257349967957
1.4488551616668701 0.5065284967422485 0.1636677235364914
-0.2791200578212738 0.7829554080963135 -0.7853332757949829
3.014075994491577 0.12117230147123337 0.09304404258728027
0.38100895285606384 0.9190654158592224 -0.15810485184192657
2.862880229949951 -0.1527523249387741 0.8797440528869629
-0.15617689490318298 0.5822466015815735 -0.8897078037261963
-2.5941286087036133 0.49077239632606506 0.43308907747268677
1.6681911945343018 -0.22118258476257324 -0.2821683883666992
1.3459678888320923 -0.2145947515964508 -0.676723837852478
1.7286406755447388 0.24804866313934326 -0.6879224181175232
-2.6054632663726807 0.4943814277648926 0.4100896716117859
-1.7737776041030884 0.18804146349430084 -1.0167423486709595
-2.537360429763794 -0.06045486032962799 0.21548470854759216
-1.515782356262207 -0.2778245210647583 -0.9595943689346313
0.1548328846693039 0.9201733469963074 -0.03656971827149391
1.715254306793213 0.11194643378257751 -0.7751837968826294
-1.6028612852096558 0.5742182731628418 0.6974673271179199
-1.9001219272613525 0.08172265440225601 -0.9955997467041016
2.2014782428741455 -0.18950065970420837 -0.8191779851913452
-1.1277910470962524 -0.12969262897968292 -0.24312278628349304
1.4925543069839478 0.1658824235200882 1.078998327255249
0.10729314386844635 -0.24843260645866394 -0.8958841562271118
-1.7849043607711792 0.5382257103919983 0.922232985496521
1.2546271085739136 0.4902416169643402 -0.7558041214942932
-0.8091747760772705 0.8001660108566284 -0.749525249004364
2.076510429382324 -0.34565412998199463 -0.9947201609611511
2.093621015548706 0.4154757559299469 0.7865636348724365
-1.4254344701766968 0.5763788223266602 0.8474954962730408
-0.8981432318687439 0.6446720361709595 -0.8680804967880249
0.8342311978340149 0.8669431805610657 0.07201220840215683
2.151085376739502 -0.30093908309936523 -0.6964441537857056
-2.674173355102539 0.013690650463104248 0.46069958806037903
-1.17557954788208 -0.31851714849472046 -0.9355630874633789
2.7312583923339844 0.39650800824165344 0.31888121366500854
0.9265905022621155 -0.19945810735225677 -0.1270938217639923
1.96251380443573 -0.0007814317941665649 -1.00896155834198
-1.403165578842163 -0.02826119214296341 -0.5115242004394531
2.706117868423462 -0.21206533908843994 0.10202912241220474
-1.8972485065460205 0.2671116292476654 -0.9950652718544006
0.7886744141578674 0.8865428566932678 0.33758941292762756
-0.801869809627533 0.2654484212398529 -1.005602240562439
1.1462465524673462 0.5403556823730469 0.8163250088691711
0.7649528384208679 0.9243487119674683 -0.3984394669532776
0.7980177998542786 0.8557690382003784 -0.3940911889076233
-0.15530958771705627 0.6285298466682434 0.855951189994812
2.1332550048828125 -0.5108758807182312 -0.7995688319206238
-0.9217576384544373 -0.22904813289642334 -0.6933731436729431
-1.1731075048446655 -0.14945702254772186 -0.18538758158683777
2.4473085403442383 -0.19945453107357025 0.6155974864959717
-0.7303752303123474 -0.023373231291770935 -1.0044760704040527
-1.1367348432540894 -0.13461479544639587 -0.21476873755455017
0.2332550585269928 -0.22078745067119598 0.44668811559677124
0.06452495604753494 0.6145017147064209 -0.8726780414581299
-2.4042513370513916 0.5445182919502258 0.2532939612865448
1.923909306526184 -0.09571842849254608 0.6024863123893738
-2.331747055053711 -0.09661298990249634 -0.9186542630195618
3.051624298095703 -0.05980297923088074 -0.6173511743545532
2.755488157272339 0.061674781143665314 -1.0430076122283936
-0.3076919913291931 0.7910193204879761 -0.778283953666687
1.7689417600631714 -0.2844741642475128 -0.8113860487937927
2.3692636489868164 -0.24922390282154083 -1.018100380897522
1.8462116718292236 0.38394612073898315 -0.9664018154144287
1.7964465618133545 -0.14209523797035217 0.7034285664558411
2.289721727371216 -0.043583035469055176 -1.0128681659698486
-0.9093157052993774 0.4278244972229004 0.9886402487754822
-0.3399699330329895 -0.21916833519935608 -0.14335374534130096
-2.2672204971313477 0.37360692024230957 -0.977876603603363
1.0474992990493774 0.13225392997264862 -1.0288175344467163
0.9703707098960876 0.7484199404716492 -0.3058925271034241
-1.4888240098953247 0.45692163705825806 0.9976249933242798
-2.275665521621704 0.016548842191696167 1.011871576309204
-2.564913272857666 0.5183791518211365 -0.2514984905719757
2.3138978481292725 0.04917170852422714 0.8023713827133179
1.9111227989196777 -0.0699596256017685 1.0428698062896729
-2.1284866333007812 0.23040971159934998 1.0370393991470337
-1.0059492588043213 -0.13244329392910004 -0.03776441514492035
-0.9688682556152344 0.16182774305343628 1.0186208486557007
-1.1631553173065186 -0.16938036680221558 -0.3380883038043976
-1.1089640855789185 0.6680576205253601 -0.7985268831253052
2.5423946380615234 0.3090290129184723 -0.9794052839279175
3.086221933364868 0.1568768173456192 -0.07288230210542679
-0.2364567220211029 -0.20370540022850037 -0.07200656086206436
-0.9107402563095093 0.41703882813453674 1.008812665939331
-1.4800093173980713 0.4444185495376587 0.9993422627449036
2.0718226432800293 0.2872297465801239 -1.022495150566101
1.1081793308258057 -0.25930970907211304 0.30625465512275696
-1.5062676668167114 -0.4603005051612854 -0.829961895942688
-1.9706981182098389 -0.12032032012939453 -0.8611111640930176
-1.172839879989624 0.5679787397384644 -0.9014283418655396
-2.5031914710998535 -0.10025045275688171 0.7299708724021912
1.4424341917037964 -0.21637023985385895 -0.5072070360183716
1.7593475580215454 -0.27168458700180054 -0.9017640948295593
-2.615617513656616 0.33171069622039795 -0.40822282433509827
3.173086404800415 -0.0030909180641174316 -0.37246015667915344
0.9240481853485107 0.7198278307914734 -0.7200183868408203
-2.402512788772583 0.5511012077331543 0.7440768480300903
-0.9558612108230591 -0.17648528516292572 0.3984590768814087
1.852824330329895 -0.2275478094816208 1.022373080253601
1.6956729888916016 -0.21141669154167175 -0.48377642035484314
1.031797170639038 0.7217748761177063 -0.02003597281873226
2.8588593006134033 0.3414492905139923 -0.8596475124359131
0.23386915028095245 -0.06420332193374634 -1.0160773992538452
-2.053954601287842 0.5391525626182556 -0.9023972749710083
1.3814330101013184 -0.22013098001480103 -0.874128520488739
1.6843425035476685 0.48847031593322754 0.374233216047287
2.092730760574341 -0.6172294020652771 1.0277326107025146
-0.7091731429100037 -0.19303297996520996 0.11064190417528152
1.883093237876892 0.4053364396095276 -0.9199429750442505
0.7913058996200562 0.7286732196807861 0.863299548625946
2.045024871826172 -0.5853320360183716 -0.9958253502845764
1.7785924673080444 0.10450123250484467 -0.7565332055091858
1.0081621408462524 -0.22044816613197327 0.3272697627544403
-0.5656036138534546 -0.208055317401886 -0.44515079259872437
1.1935416460037231 0.5705771446228027 -0.4219233989715576
2.0905370712280273 -0.20328208804130554 0.48165175318717957
1.9092539548873901 0.28679364919662476 -1.0138214826583862
0.1943117380142212 0.9230051636695862 -0.14060580730438232
-1.199540615081787 0.08178786933422089 -0.9795419573783875
-0.125808984041214 0.2617626190185547 -1.0115545988082886
-0.955992579460144 -0.1960597187280655 0.6115298867225647
0.63444983959198 -0.018603399395942688 -1.0222433805465698
-2.660703659057617 0.061729609966278076 -0.23906195163726807
2.714171886444092 0.08454623073339462 -1.0126904249191284
-1.3593717813491821 0.10295665264129639 0.7486013174057007
2.3989832401275635 -0.5384324789047241 -0.8682337403297424
0.6199495792388916 -0.20926186442375183 0.5712095499038696
-0.10293407738208771 0.8822651505470276 0.6457242369651794
-1.3319082260131836 -0.3478228747844696 -0.7014119029045105
-1.7581684589385986 -0.09131437540054321 -0.42935606837272644
-0.005456693470478058 -0.036878347396850586 -1.0171220302581787
1.7190533876419067 -0.09643170237541199 0.6974131464958191
-0.9788976311683655 -0.15891271829605103 -0.4958637058734894
-0.23179006576538086 -0.20863716304302216 0.36054983735084534
2.885043144226074 0.16666461527347565 -0.5239137411117554
0.5740408301353455 0.41589096188545227 1.0141375064849854
1.8492084741592407 -0.21473658084869385 0.25260084867477417
-0.6091330647468567 -0.2144557535648346 0.2740185260772705
-1.820231556892395 0.5452249050140381 -0.4844405949115753
-0.5160658955574036 0.9211334586143494 -0.14550863206386566
-0.006693542003631592 -0.21386408805847168 -0.539607048034668
2.2996268272399902 -0.5022292137145996 -1.0615556240081787
2.4194295406341553 -0.5199570655822754 0.87537682056427
1.7621468305587769 0.4533534646034241 0.732846200466156
-2.1926136016845703 0.5387892723083496 0.8143165707588196
0.7909719944000244 0.16693586111068726 -1.032920479774475
1.3301334381103516 0.01345650851726532 -1.0155845880508423
-1.311253309249878 -0.1314290463924408 0.039245426654815674
-0.3642733693122864 0.8933801651000977 0.6454821228981018
1.6351529359817505 -0.24416285753250122 0.02307923138141632
-1.618270993232727 0.03679974377155304 -0.9419876933097839
0.5996495485305786 -0.015120819211006165 1.0470558404922485
2.426084041595459 -0.036210283637046814 0.6099342107772827
2.092603921890259 -0.014493823051452637 0.4169899821281433
-2.103245496749878 -0.09128008782863617 0.6183955073356628
-1.7261666059494019 -0.209293395280838 -0.9563560485839844
-1.6952173709869385 -0.10225421190261841 -0.3636471629142761
0.2804785668849945 -0.2084454447031021 0.012604811228811741
-0.5757361054420471 0.899976909160614 -0.5600389242172241
1.0034111738204956 -0.22325724363327026 0.4928336441516876
3.164130449295044 0.15096420049667358 -0.08323250710964203
-0.5241357088088989 -0.20971114933490753 0.6439313888549805
-1.5992507934570312 -0.11830355226993561 0.20954813063144684
-2.2719011306762695 0.5448504686355591 0.31459856033325195
-2.656428813934326 -0.04022270441055298 -0.7060860991477966
2.3925507068634033 -0.40065085887908936 1.0553308725357056
0.5961601734161377 0.9452500343322754 -0.2712850868701935
1.6324011087417603 0.4777774214744568 -0.4678974151611328
-0.5570026636123657 0.8914048671722412 -0.0045633744448423386
-1.7797118425369263 -0.08888444304466248 -0.16913801431655884
-0.4986918866634369 0.9253758788108826 0.01065072976052761
1.197824239730835 -0.21842435002326965 -0.6733829379081726
2.5686862468719482 0.35815009474754333 0.8061061501502991
2.41359281539917 -0.1964464783668518 -0.20493976771831512
-2.604079484939575 0.49890175461769104 0.3829699754714966
-1.929496169090271 0.5357416272163391 -0.8061237335205078
2.2598516941070557 0.4519108533859253 0.18495036661624908
-0.9003586173057556 -0.17938914895057678 0.3104068338871002
-1.984836220741272 0.5513264536857605 -0.2745094895362854
2.6070356369018555 -0.19401055574417114 -0.5224311351776123
-2.6240885257720947 0.3233798146247864 0.8582155108451843
1.4260293245315552 0.16879625618457794 -0.7138647437095642
0.03228168934583664 0.4344958961009979 0.9697282314300537
1.4930169582366943 -0.1347007006406784 1.0169143676757812
-1.6835365295410156 0.1448078453540802 -0.770087480545044
2.1922109127044678 0.40432214736938477 0.7719900012016296
-2.2602992057800293 -0.10077826678752899 0.6464892029762268
-0.8582495450973511 0.6860833168029785 0.8549746870994568
-1.8565897941589355 -0.13896381855010986 -0.9639583826065063
-0.7512434720993042 -0.207635760307312 0.6440793871879578
-2.2857887744903564 0.5471919178962708 0.43251946568489075
1.7980823516845703 0.4790554642677307 -0.3072281777858734
1.2188549041748047 -0.21261781454086304 -0.6662153601646423
-1.8379725217819214 0.21721330285072327 1.041116714477539
-0.7935282588005066 0.4877222180366516 0.9529916644096375
-1.7515184879302979 0.5628047585487366 0.6727030873298645
0.14231690764427185 -0.2025710642337799 -0.9343549013137817
-1.0933949947357178 0.0703488439321518 -0.7119348049163818
-0.22297868132591248 -0.2073928713798523 0.8347874879837036
-2.6783182621002197 0.1405678540468216 0.3699996769428253
1.8654663562774658 0.48255932331085205 0.11275402456521988
0.9485641121864319 0.5445870757102966 0.9805145263671875
1.0403380393981934 -0.2193770855665207 0.6248505115509033
0.9344030022621155 -0.09977021813392639 -1.0036088228225708
1.34428870677948 0.3749943673610687 -0.9717774391174316
0.35611671209335327 -0.21038506925106049 0.36129292845726013
2.4423086643218994 0.36851727962493896 0.6475917100906372
1.1662133932113647 -0.22005921602249146 0.3669247627258301
1.4032570123672485 0.4767824411392212 0.6084851622581482
-2.6191341876983643 0.2291344702243805 0.15769775211811066
0.8441087603569031 0.8468040227890015 -0.2418510615825653
1.7559456825256348 0.4641716480255127 0.6399324536323547
-2.0762429237365723 -0.08506385236978531 0.2836804986000061
1.3085600137710571 -0.21056565642356873 0.9301683306694031
0.8821374177932739 -0.22034546732902527 -0.0929095670580864
-0.2316875159740448 -0.20841705799102783 0.7097522020339966
-1.3595331907272339 -0.571258008480072 -0.9167498350143433
1.5144176483154297 -0.2171858847141266 -0.1466452032327652
3.0719363689422607 0.1594255119562149 0.46545490622520447
2.1718385219573975 -0.051652610301971436 0.5151102542877197
2.832638740539551 0.033075153827667236 -0.9535140991210938
-1.1372878551483154 0.707874059677124 -0.008456457406282425
0.01743778958916664 0.046880245208740234 1.0387728214263916
1.5387052297592163 0.19957542419433594 1.064844012260437
2.315842390060425 -0.18123723566532135 -0.7302157878875732
1.5665924549102783 0.021380290389060974 -0.7009656429290771
1.4515094757080078 -0.21885563433170319 0.18223755061626434
1.5349926948547363 0.505071759223938 0.3108753561973572
2.8440563678741455 0.2588174343109131 -0.47545406222343445
2.4050967693328857 -0.4312020242214203 -1.0361989736557007
2.8592331409454346 -0.18252544105052948 -0.058886416256427765
2.6236135959625244 -0.1939854919910431 -0.5947026014328003
2.5378406047821045 0.3573078513145447 0.67661052942276
2.2943179607391357 -0.6285155415534973 0.9783774614334106
-1.4533027410507202 -0.12346123158931732 -0.23124271631240845
2.1885128021240234 -0.2004811316728592 0.560555100440979
-1.516324520111084 0.5836820602416992 -0.25134944915771484
2.5081918239593506 0.3895353674888611 -0.7652972340583801
1.1132967472076416 -0.22029858827590942 0.9098744988441467
2.717963933944702 -0.204901784658432 -0.4984208345413208
1.96518874168396 0.4145117998123169 0.8959518671035767
2.248715877532959 -0.22207027673721313 -0.7236455082893372
-1.5494729280471802 0.5545631647109985 -0.8015223145484924
-2.617281913757324 0.36009514331817627 -0.10833267867565155
-1.5234230756759644 0.5866783261299133 0.014647259376943111
-1.463516354560852 0.5905687808990479 -0.3932254910469055
-1.9824720621109009 -0.07852041721343994 0.9877684116363525
-0.5461142063140869 0.580734372138977 -0.8939306735992432
-1.9770069122314453 -0.0953456237912178 0.49585285782814026
1.2088512182235718 0.5768277645111084 0.22597858309745789
1.7735018730163574 -0.0665564239025116 -1.0303115844726562
0.3367154896259308 0.4174721837043762 -0.9635136127471924
2.731382131576538 -0.19496944546699524 -0.47064071893692017
-2.109431505203247 0.4945642054080963 -0.9709477424621582
-0.9258406758308411 0.41207993030548096 -0.9708715677261353
-1.3338204622268677 0.5915154814720154 0.846143901348114
2.638916492462158 -0.1955513060092926 0.6456728577613831
1.3246824741363525 0.18245254456996918 1.065322995185852
-1.142647624015808 0.025778740644454956 -0.6672946214675903
-1.8124871253967285 0.1877560317516327 -0.9908642172813416
-0.9069888591766357 0.8390861749649048 0.7091519236564636
-2.1671254634857178 0.5351060628890991 -0.5237038731575012
-2.7566847801208496 0.09810131788253784 -0.8503424525260925
-1.5787627696990967 -0.01689031533896923 0.7471350431442261
0.9796281456947327 0.6229248642921448 -0.8474343419075012
2.1816999912261963 -0.1989673227071762 0.40904682874679565
-1.5891584157943726 -0.030424177646636963 -0.726859986782074
2.8273987770080566 0.3351023197174072 -0.8842646479606628
1.4292901754379272 -0.2152085304260254 -0.10082616657018661
-2.695408582687378 -0.01046028733253479 -0.6462259888648987
-2.2429347038269043 -0.057570017874240875 0.44345900416374207
-2.7010841369628906 0.1301022619009018 0.058920424431562424
0.4974129796028137 -0.2119395136833191 0.7468363046646118
0.34955838322639465 -0.20362263917922974 -0.9065981507301331
0.4820546507835388 0.9326115846633911 0.21826927363872528
1.410820484161377 0.5045788884162903 0.26647740602493286
-0.12384936958551407 0.9270410537719727 -0.14394249022006989
-0.9613096117973328 -0.1713031828403473 0.3787745535373688
1.2677843570709229 0.034079283475875854 1.050689697265625
-2.55129337310791 0.10853485763072968 1.0013668537139893
2.306381940841675 -0.27639859914779663 -0.6103253364562988
-0.9876444935798645 0.7998222708702087 0.49753761291503906
-0.05744204670190811 -0.20839518308639526 0.7022390961647034
