ply
format ascii 1.0
element vertex 813
property float x
property float y
property float z
end_header
0.0038216598331928253 -0.3824428915977478 0.5161017775535583
1.8115506172180176 0.4433521032333374 1.440941333770752
-2.0890722274780273 -0.42785751819610596 0.08049116283655167
2.0589046478271484 0.2768104076385498 -0.32745710015296936
-1.4293712377548218 0.35597938299179077 1.0738344192504883
0.766742467880249 -0.6570700407028198 0.31841516494750977
-1.583358883857727 0.6773519515991211 -0.45523586869239807
0.9108333587646484 0.2173008769750595 -0.7845931649208069
-1.0655090808868408 1.0198619365692139 -0.0259908027946949
-1.0863078832626343 -0.5112698078155518 -0.9738463163375854
1.9072327613830566 0.006598338484764099 -0.6755865216255188
0.38727977871894836 -0.7196062207221985 -0.8368586301803589
-2.334338426589966 0.1219407320022583 -1.068237543106079
0.4321609437465668 0.2699371576309204 0.5791948437690735
2.0102012157440186 -0.6898897886276245 0.9857610464096069
1.11627995967865 -0.6596424579620361 0.2646847367286682
-1.2310717105865479 0.10380847752094269 -0.5720634460449219
-0.1592671275138855 0.4720034599304199 0.6455907821655273
2.063621759414673 0.21249127388000488 0.9858981966972351
1.8589351177215576 -0.7331387400627136 1.0030920505523682
0.6285971403121948 0.8802100419998169 -1.0391095876693726
2.3861312866210938 -0.15698356926441193 -1.526159644126892
-0.07884228974580765 -0.3697887659072876 -0.44800251722335815
-0.7317600846290588 0.20622268319129944 -0.7181521654129028
-0.5570548176765442 -0.3059394955635071 0.01861552521586418
-1.4217272996902466 0.05344995856285095 -0.4778071939945221
1.5769864320755005 0.034986257553100586 -0.6249514222145081
-0.6042749285697937 0.5251646041870117 -1.6421573162078857
-0.11500883847475052 -0.6956797242164612 -0.4784529209136963
-1.343247890472412 -0.2382567673921585 -1.187122106552124
2.756326675415039 0.10918711125850677 -1.1681641340255737
1.4699821472167969 0.6485191583633423 -0.11294472962617874
0.4800073206424713 -0.5026328563690186 -1.2572951316833496
0.9149557948112488 0.35180526971817017 -0.5615561008453369
2.0706334114074707 -0.6814519166946411 0.19424529373645782
0.909912645816803 0.8541412353515625 0.4083137810230255
0.006171524524688721 0.9685407280921936 -1.8667582273483276
1.5651583671569824 0.603797972202301 -1.5351060628890991
-0.7224926948547363 0.23653438687324524 1.4170281887054443
-0.7316033244132996 -0.5773664116859436 1.6798487901687622
0.46894606947898865 0.3368050754070282 2.3562889099121094
1.1141271591186523 -0.4165949821472168 -0.6557472348213196
0.1438368260860443 0.610178530216217 0.43866077065467834
-0.2968127131462097 1.0167652368545532 0.17473702132701874
0.4290832281112671 0.2221221625804901 -1.0911785364151
1.142474889755249 0.33245354890823364 0.6932665109634399
-1.6482452154159546 0.08707770705223083 0.24575868248939514
1.416732668876648 -0.42878907918930054 -0.41086870431900024
0.22169575095176697 0.013577699661254883 -1.6112316846847534
0.7798249125480652 -0.6393195390701294 -0.6238350868225098
-0.8642867803573608 -0.266842782497406 0.07072261720895767
-1.5138237476348877 0.43381184339523315 1.1279820203781128
0.3554058074951172 -0.10959479212760925 -1.538048267364502
-0.7495032548904419 -0.46135345101356506 0.4881436228752136
-1.632218599319458 -0.0007601082324981689 1.2067593336105347
0.40407904982566833 0.26781272888183594 -0.03890395537018776
1.1390208005905151 0.30163317918777466 0.4000360071659088
1.9631558656692505 -0.05970260500907898 0.26275530457496643
2.6989898681640625 0.5233748555183411 0.03604944050312042
0.22227177023887634 -0.17477425932884216 1.0009734630584717
1.0635875463485718 -0.08030776679515839 -1.2424837350845337
1.4303189516067505 0.8958605527877808 -0.974757194519043
2.3092751502990723 0.15301735699176788 0.8695029616355896
-0.8592014908790588 0.29224127531051636 1.2968724966049194
0.3570910096168518 -0.6707226037979126 -2.139293670654297
-0.45229020714759827 -0.22182630002498627 0.4745852053165436
0.6564919948577881 0.3653395175933838 -1.5503487586975098
1.513069748878479 -0.34175819158554077 1.0176914930343628
-0.4770025312900543 -0.11907073855400085 1.4450653791427612
1.4061923027038574 -0.2280862182378769 -0.4994085133075714
-0.44757184386253357 0.8210179209709167 0.3307815194129944
1.2218142747879028 -0.31471285223960876 -0.7640987634658813
1.8935943841934204 0.6765004396438599 0.5493797659873962
2.272925853729248 -0.12311552464962006 -0.5337182879447937
1.2116985321044922 1.0110265016555786 0.5570481419563293
-1.4730368852615356 -0.4700470566749573 -0.3652693033218384
2.1211130619049072 0.32480770349502563 0.3152565062046051
-0.9473288655281067 0.38027310371398926 0.44073131680488586
-1.2920324802398682 -0.39235976338386536 1.079308271408081
0.3051684498786926 0.7822495102882385 0.3950842022895813
2.1180107593536377 -0.28574204444885254 -0.24964994192123413
-1.3911346197128296 0.1503218710422516 -0.11033425480127335
2.244499683380127 -0.09396888315677643 -0.552260160446167
-1.9560072422027588 0.30719709396362305 0.17709429562091827
-0.8210282325744629 1.13506281375885 -0.36059999465942383
-1.5104855298995972 0.4877166748046875 -0.6380595564842224
-1.1739381551742554 -0.726787805557251 -1.6093961000442505
-0.6609592437744141 0.46594780683517456 -0.4762590825557709
-0.880199670791626 0.8564060926437378 -0.2302786111831665
-1.4929218292236328 1.1293747425079346 -0.7498697638511658
2.289130449295044 -0.5044007897377014 0.5066694021224976
-0.09575101733207703 -0.15670020878314972 0.15053735673427582
1.8647220134735107 -0.18706616759300232 0.5026171207427979
-0.7134218215942383 0.03245328366756439 -0.5129436254501343
-0.4867575764656067 -0.21378563344478607 -0.269141286611557
-0.9074729681015015 1.0936566591262817 -0.6359748840332031
2.504225015640259 -0.18418020009994507 -0.08481277525424957
-1.540820837020874 0.2701708674430847 0.7754055857658386
-0.2922590374946594 0.27451950311660767 -0.2839968502521515
0.8552639484405518 -0.6946461200714111 1.6345798969268799
1.8164986371994019 0.147415891289711 0.27699413895606995
0.36012762784957886 0.05589216947555542 0.6207616925239563
0.5638177394866943 1.1085177659988403 0.12047594040632248
2.182217597961426 -0.030818656086921692 -0.4590248465538025
-1.2868396043777466 0.740985095500946 0.0559224858880043
1.5862083435058594 -0.3883094787597656 -1.0839805603027344
0.4710506796836853 -0.6701442003250122 0.010488657280802727
-0.5251191258430481 -0.6305851936340332 0.3861304521560669
2.029989719390869 -0.3847934305667877 0.6598334908485413
-0.14263391494750977 -0.6232954263687134 -0.8311017155647278
1.6681842803955078 -0.4762764871120453 0.06696145981550217
2.0824570655822754 -0.07369063794612885 -1.2650353908538818
-0.7545761466026306 0.3780508041381836 -0.4094748795032501
1.6563372611999512 -0.6378989219665527 -0.3054064214229584
0.17445477843284607 0.5456901788711548 -0.03954751789569855
-1.7530066967010498 0.5600551962852478 0.7634960412979126
0.17895521223545074 0.30393338203430176 -1.6319847106933594
-2.356654644012451 -0.369684100151062 -0.7669153809547424
-0.6713319420814514 1.3660414218902588 0.09402933716773987
1.33319091796875 0.09291796386241913 0.07511585205793381
0.8896197080612183 -0.35113441944122314 0.3161639869213104
-0.9288681149482727 -0.36962032318115234 1.6461411714553833
2.652712345123291 -0.6642602682113647 0.5762561559677124
1.6849045753479004 -0.004720285534858704 0.5902240872383118
-0.8744685053825378 -0.020985811948776245 0.0207606703042984
-0.08094272762537003 1.0112967491149902 0.2169131338596344
0.16385065019130707 -0.07802902162075043 0.5282601714134216
-0.8139165043830872 0.22978858649730682 0.04710932448506355
0.08601416647434235 1.1762747764587402 1.0740925073623657
-1.773750901222229 -0.015726029872894287 -1.265573501586914
-1.5024049282073975 0.08679984509944916 1.0305216312408447
-0.009259231388568878 1.256098747253418 0.3499310314655304
1.2071319818496704 -0.4334806799888611 -0.9055830240249634
-1.788540244102478 -0.2983304262161255 -0.7066237330436707
-0.39451485872268677 0.7808462977409363 -0.7148378491401672
0.5191960334777832 -0.06422379612922668 -0.07846222817897797
1.7919360399246216 0.2512561082839966 -0.16389785706996918
0.3425251543521881 1.064253330230713 -0.30228814482688904
0.6536964774131775 0.2318996638059616 -0.8239130973815918
0.6164462566375732 0.5607741475105286 -0.7255371809005737
-0.6728904843330383 -0.37924137711524963 -0.2234526127576828
-1.489720344543457 0.21252790093421936 -1.2704089879989624
1.7658530473709106 0.7455785870552063 -0.22030682861804962
-0.21091483533382416 -0.14327600598335266 -0.856818675994873
1.0787975788116455 0.34270304441452026 -0.6088127493858337
0.7293760776519775 0.6045889854431152 -0.6028853058815002
-1.8978009223937988 -0.3255249857902527 -0.09316391497850418
-0.5607837438583374 0.14535962045192719 1.4101132154464722
1.6690032482147217 0.025630131363868713 -1.6236783266067505
-0.4992303252220154 1.1118412017822266 -0.6744289398193359
1.1440556049346924 0.3702887296676636 -1.0343036651611328
0.6741694808006287 -0.1465960144996643 0.3059779405593872
0.30984723567962646 -0.4567938446998596 -0.5103775858879089
2.7159836292266846 -0.296824187040329 -0.7853948473930359
-1.4487214088439941 0.15870486199855804 -0.205063596367836
-1.4708294868469238 0.5410383343696594 0.3281315863132477
2.658841371536255 -0.30306416749954224 0.42337965965270996
0.33132869005203247 0.04345235228538513 -0.12082712352275848
1.648083209991455 -0.2341950684785843 0.0325050987303257
1.242505431175232 0.19053363800048828 -1.3229576349258423
0.8697585463523865 -0.03788340091705322 0.867952287197113
0.34518253803253174 -0.4304594397544861 0.32927554845809937
0.4429917335510254 1.0666568279266357 0.048339881002902985
1.4460582733154297 0.10101641714572906 -0.91465163230896
0.2384224534034729 0.15187765657901764 0.050238773226737976
2.383105993270874 -0.36595553159713745 -0.32296258211135864
-0.5421531796455383 0.5521816611289978 -0.4862939417362213
1.2438454627990723 -0.8484801054000854 -0.40626034140586853
-0.11509916186332703 -0.6167059540748596 0.5666384696960449
3.181150197982788 0.030550241470336914 0.7361778020858765
1.956909418106079 0.500171422958374 -1.5182887315750122
-2.6354830265045166 -0.23694513738155365 -0.7128250598907471
0.8690128326416016 -0.1495579034090042 -0.0689781978726387
0.8921465873718262 0.3478253483772278 -1.6241624355316162
0.8169814348220825 1.1105024814605713 -0.5039983987808228
-1.8637961149215698 -0.015801072120666504 1.17942214012146
2.052513837814331 0.8427431583404541 1.1088744401931763
2.020390748977661 -0.7468199729919434 -0.9797242283821106
0.20658665895462036 -0.6186859011650085 1.1312565803527832
-0.8286721706390381 0.57030189037323 0.11985843628644943
2.2142035961151123 -0.43280816078186035 0.5301762223243713
-0.38940298557281494 0.5575129389762878 -0.9226961731910706
0.9079018831253052 -0.025352537631988525 -0.11925109475851059
1.1314986944198608 0.007015615701675415 -0.765714704990387
-1.3241705894470215 -0.4278048872947693 -0.18608836829662323
1.4969185590744019 -0.29938456416130066 1.508616328239441
1.8403674364089966 0.6473376154899597 -1.4199104309082031
0.21108020842075348 -0.6759870052337646 -1.8089957237243652
2.8262901306152344 -0.011450767517089844 -0.8368560075759888
-0.3427290618419647 -0.6696034669876099 0.11482995003461838
-2.2228169441223145 0.20139048993587494 -0.47987425327301025
0.5462117195129395 0.04591609537601471 0.3786540627479553
0.6162911653518677 -0.19737796485424042 0.724926233291626
-0.8521003723144531 -0.6605242490768433 0.41955557465553284
1.34060800075531 0.8246062397956848 -1.3714483976364136
0.6980994939804077 0.8790528774261475 -0.29079845547676086
-1.6785331964492798 -0.15398363769054413 1.5703246593475342
-1.6639922857284546 -0.4015238285064697 -0.7359732985496521
-0.3491600453853607 0.2823682427406311 0.6648924946784973
-1.8885023593902588 0.4710008203983307 0.20504982769489288
1.8250504732131958 -0.7750782370567322 -0.10261696577072144
2.5501415729522705 0.6118922829627991 0.7747045755386353
-0.9827781915664673 -0.2670100927352905 1.4158120155334473
0.2604925036430359 -0.10748037695884705 -1.2557510137557983
-0.26475825905799866 -0.15508893132209778 -0.7862996459007263
0.8492410778999329 -0.38203510642051697 -0.8302600383758545
-0.08134153485298157 -0.34574782848358154 0.1287129521369934
1.3000166416168213 0.3363924026489258 -0.1442500501871109
2.9972996711730957 0.3816910684108734 -0.8465307354927063
2.3119895458221436 0.2158968597650528 0.22539249062538147
0.460410475730896 0.9648170471191406 -1.0653223991394043
-1.2792099714279175 -0.288519948720932 1.6145515441894531
0.2840181589126587 0.5500092506408691 1.352866530418396
-1.4193452596664429 -0.6449552774429321 -1.2916719913482666
-1.5849416255950928 -0.6562080383300781 0.6211735606193542
-1.31863272190094 0.19803690910339355 0.7271507978439331
1.5674511194229126 -0.5399416089057922 0.38745933771133423
-1.0832304954528809 0.7757790684700012 0.40791821479797363
-1.0192246437072754 0.6438522934913635 0.5371378660202026
2.0247020721435547 0.05905655026435852 1.2623401880264282
2.2128281593322754 -0.6030942797660828 -1.346967101097107
0.7143787145614624 -0.17967067658901215 0.08150922507047653
0.1387786567211151 -0.3985700011253357 -0.7986667156219482
1.1466485261917114 0.12066929042339325 -1.1471335887908936
-1.3893173933029175 -0.08256299793720245 -0.3539305031299591
-1.2816236019134521 -0.7002670168876648 -1.3586523532867432
-0.12058380246162415 -0.6470746994018555 -0.4335835576057434
-1.4512726068496704 -0.65581214427948 -0.5812555551528931
-0.8096502423286438 -0.5208651423454285 -1.1613332033157349
0.310026079416275 -0.7614439129829407 0.1621469408273697
-2.2646989822387695 0.11081346869468689 -1.306677222251892
1.9079086780548096 0.6850394606590271 -0.6665868759155273
-1.4204206466674805 0.32573166489601135 -0.24405618011951447
2.046865463256836 -0.614897608757019 -0.5005149841308594
-0.8856229782104492 0.2378205507993698 0.9320152401924133
-2.6053390502929688 0.16895966231822968 -0.4336037337779999
-0.8699151873588562 -0.5934664011001587 1.2606207132339478
1.0831252336502075 0.023299410939216614 -1.257521152496338
0.8407591581344604 0.8443170785903931 -0.39914470911026
1.2846345901489258 0.29817450046539307 -0.37929099798202515
0.45878806710243225 -0.027159497141838074 -0.6047958731651306
2.2210464477539062 0.1908453106880188 0.6602712273597717
2.371192693710327 0.08413316309452057 -0.323240727186203
-1.4571645259857178 0.26453134417533875 1.5217293500900269
-1.5894829034805298 0.9411947727203369 0.2665207087993622
-2.061345100402832 -0.5758693218231201 -0.02591567300260067
2.4074509143829346 0.1974971741437912 -0.5662702322006226
-0.24084867537021637 0.23620660603046417 0.5230191349983215
-0.5558575391769409 -0.36961257457733154 -0.19778600335121155
0.11439896374940872 0.8318520784378052 0.368996798992157
-0.5344915390014648 -0.45060253143310547 -0.6768676042556763
1.080342411994934 0.301241397857666 0.5750762820243835
-0.6349306702613831 0.5794334411621094 -0.04896044358611107
0.22047148644924164 0.3120470643043518 0.5703265070915222
1.7064367532730103 0.2646886706352234 0.9144318699836731
2.374199867248535 -0.16480004787445068 0.3729706108570099
2.4860689640045166 -0.7462030053138733 0.591661810874939
2.660539150238037 -0.6509700417518616 -0.13291040062904358
-1.5862447023391724 0.4717046320438385 -0.26876911520957947
1.2817455530166626 -0.671882152557373 -1.0034282207489014
0.23683322966098785 -0.08708178997039795 -0.9229446649551392
1.5781959295272827 -0.3052404522895813 -0.37578296661376953
-1.4236373901367188 0.2690613269805908 -0.7300828695297241
1.229429841041565 0.589414119720459 -1.5985658168792725
1.4525679349899292 0.12492792308330536 0.7613562941551208
-1.5700697898864746 -0.6274086833000183 0.3229575455188751
-0.39897191524505615 0.040713921189308167 -1.5938011407852173
1.5117939710617065 0.8373277187347412 -1.1118885278701782
-0.005648680031299591 0.05897897481918335 0.043891772627830505
-2.150634527206421 0.33922237157821655 0.7387529015541077
1.750911831855774 -0.7367839813232422 0.547778308391571
1.06024169921875 -0.050533801317214966 -0.09197422862052917
0.10161976516246796 0.7854076623916626 -1.1466807126998901
-1.845110535621643 1.1455481052398682 -0.5152941346168518
1.3362280130386353 -0.6192938685417175 -0.9041919112205505
1.1439095735549927 0.5113168954849243 0.7194729447364807
1.589211344718933 -0.49023932218551636 0.9242096543312073
-0.7274051308631897 -0.3662933111190796 -1.4137862920761108
2.851395845413208 0.6153085231781006 -0.4985724687576294
1.9144353866577148 -0.20161139965057373 -0.2917274832725525
2.6980807781219482 -0.6813560128211975 0.7101287245750427
1.0511994361877441 -0.6490758657455444 0.9395009875297546
1.3956619501113892 0.21767444908618927 -1.4363462924957275
-1.8778554201126099 0.5689684748649597 0.0992492288351059
1.924026370048523 -0.4828498959541321 0.609051525592804
2.72511625289917 -0.0848463624715805 0.9766035676002502
2.5678670406341553 -0.733027458190918 -0.7699810266494751
-1.9101321697235107 -0.4241690933704376 -0.012880717404186726
0.1613660752773285 0.7894843220710754 0.6291057467460632
1.3526524305343628 -0.7212083339691162 -0.5899017453193665
1.225858211517334 -0.7086770534515381 -0.4030361771583557
2.474782943725586 -0.1462326943874359 0.9065595269203186
1.2120217084884644 -0.6897790431976318 0.33139264583587646
0.18830817937850952 1.1778018474578857 0.6956303715705872
1.5651562213897705 0.3466929793357849 -1.20704185962677
-0.016190655529499054 -0.3546764850616455 -0.13405174016952515
-0.06488994508981705 -0.48518234491348267 -1.4502546787261963
1.388559341430664 -0.6323046088218689 0.34285762906074524
1.904138207435608 0.037395864725112915 -0.2086249738931656
1.715973138809204 -0.04079297184944153 0.6706876754760742
1.683441400527954 -0.10009053349494934 -0.6349805593490601
1.5561496019363403 -0.6183711290359497 0.5409344434738159
1.3725610971450806 -0.18741761147975922 0.8346725106239319
0.27878692746162415 -0.707638144493103 -0.3837837874889374
-0.5144245624542236 0.6065558791160583 0.6746917366981506
-0.5218899250030518 -0.6799280047416687 0.8672902584075928
-0.6533271074295044 0.7361226081848145 1.0797650814056396
-2.2178518772125244 -0.5714467763900757 0.18087238073349
-1.7730463743209839 -0.38915520906448364 0.08082527667284012
0.7703961730003357 -0.08090852200984955 -0.9156497120857239
2.1650590896606445 0.6916804313659668 -1.238962173461914
1.503056287765503 0.5895443558692932 -0.7436236143112183
-2.4125008583068848 -0.3420681357383728 -0.5485831499099731
1.6828813552856445 0.3410440683364868 0.458296000957489
-1.1286097764968872 0.4351811707019806 0.8515223264694214
-0.6289886832237244 -0.12826386094093323 0.1941802203655243
-1.2867541313171387 -0.4558669328689575 -0.8173086047172546
0.27179092168807983 -0.19724878668785095 -0.2717667520046234
1.7763229608535767 0.45297694206237793 0.08455400913953781
-0.5248841047286987 0.20815669000148773 0.4771985411643982
-2.0133354663848877 -0.20683331787586212 -0.01922908052802086
0.456678181886673 0.7083969712257385 -1.2784472703933716
-0.5962961316108704 0.4061904847621918 -1.5498063564300537
0.042394205927848816 0.4105253517627716 -0.7588728070259094
0.23658406734466553 -0.37250185012817383 -0.8439281582832336
2.3272385597229004 -0.34284794330596924 0.005075204186141491
-0.7209416031837463 0.09418612718582153 -0.7544185519218445
2.3821585178375244 -0.044874340295791626 -0.05272999778389931
1.124240517616272 -0.14380834996700287 -0.1885511726140976
-0.7860511541366577 -0.11726118624210358 0.5060101747512817
1.6749114990234375 -0.46473169326782227 1.4809365272521973
1.6573688983917236 0.9297194480895996 -0.1962146908044815
0.8323301672935486 0.8036708831787109 -0.5514470338821411
3.1818649768829346 -0.03643918037414551 0.3502748906612396
2.5534844398498535 -0.20057478547096252 0.13925516605377197
0.6618924140930176 0.796901285648346 -0.4526125490665436
2.322044849395752 0.4055757522583008 -0.2323967069387436
-1.5123119354248047 -0.1817501038312912 0.12204436957836151
1.6786531209945679 0.0444556325674057 -0.1899452656507492
1.6365947723388672 -0.6608571410179138 0.13679887354373932
0.4221373200416565 -0.04295617341995239 1.08756422996521
-1.997663974761963 -0.39507749676704407 0.9712554216384888
2.0201151371002197 -0.3011671304702759 -1.2314518690109253
0.8521352410316467 1.0608384609222412 0.5626175403594971
0.1469472199678421 -0.019823044538497925 0.5115240216255188
1.1842374801635742 0.4274132251739502 -1.571548581123352
0.19598469138145447 -0.22341692447662354 0.3630628287792206
-1.18502938747406 -0.6643422842025757 -0.7530645132064819
-2.236760139465332 -0.42769289016723633 -1.3579744100570679
1.2868988513946533 0.3349711000919342 -0.359065443277359
-1.464943289756775 0.0555722713470459 -0.3299729824066162
-1.3366518020629883 -0.439380407333374 0.6422387957572937
-0.6328732371330261 -0.6353877782821655 0.4615412652492523
1.564632773399353 0.039905548095703125 -1.5392537117004395
1.1367048025131226 -0.40368205308914185 0.5706003904342651
1.3454537391662598 -0.656679093837738 -0.3031499981880188
0.6052979826927185 -0.0014028400182724 0.029728703200817108
-1.1053738594055176 -0.658891499042511 -0.15788470208644867
2.8644096851348877 -0.6291471123695374 0.20649057626724243
1.8084219694137573 0.09971585869789124 0.202036052942276
1.6950610876083374 -0.9025296568870544 -0.7438656091690063
3.513960361480713 -0.4786297678947449 0.2631992697715759
2.6068661212921143 0.15455040335655212 0.1940564513206482
1.1882851123809814 0.9538569450378418 -0.8460679054260254
0.4171055853366852 0.14153726398944855 -0.0785498097538948
2.288830280303955 -0.8459405899047852 -0.08919472247362137
-1.776069164276123 -0.2253648042678833 -0.6748754978179932
-0.7878206968307495 0.1073976457118988 -0.5621591210365295
1.013673186302185 -0.40076524019241333 0.11764508485794067
2.0246167182922363 0.08276930451393127 -0.6126201748847961
-1.3660072088241577 -0.008763670921325684 -0.5445199608802795
1.5323891639709473 0.31358087062835693 -0.4620221257209778
0.9184282422065735 0.3554452061653137 -1.1223803758621216
-1.4423493146896362 -0.6470991373062134 -0.324360191822052
-0.3483071029186249 -0.4490843713283539 0.14770667254924774
1.3153791427612305 -0.7211060523986816 -0.2664446234703064
-0.42796066403388977 -0.28308776021003723 -1.3998386859893799
-1.2755837440490723 -0.7202492952346802 -1.5393893718719482
0.01873740553855896 0.9946035742759705 -1.1215084791183472
1.7398749589920044 0.21192659437656403 0.6135298609733582
1.7474889755249023 -0.15035763382911682 0.8004510402679443
1.0856724977493286 0.27191150188446045 -1.065933346748352
0.931361973285675 -0.3418799042701721 -0.6280123591423035
0.19092291593551636 0.31760358810424805 -0.35728397965431213
0.8893182277679443 -0.13724331557750702 0.18131959438323975
1.7085105180740356 -0.09047728776931763 -0.9821506142616272
2.2305610179901123 -0.10130858421325684 -0.178259015083313
1.4521924257278442 0.559909999370575 -0.6232868432998657
-1.811652421951294 -0.12927547097206116 -0.36000555753707886
1.5323525667190552 -0.13676008582115173 -0.8676552176475525
-0.6543117761611938 -0.4957260489463806 -1.657613754272461
0.7186906337738037 -0.37357503175735474 -0.5106745958328247
0.03997139632701874 -0.14556077122688293 -1.2906577587127686
-0.37708374857902527 -0.6357171535491943 1.1980324983596802
2.5498006343841553 0.3553319573402405 1.2289024591445923
-0.45787137746810913 0.8835519552230835 1.0287271738052368
2.1064634323120117 0.3811343312263489 0.05175916478037834
-1.7010513544082642 -0.07828526198863983 -0.29247379302978516
2.995861291885376 -0.26498937606811523 0.553225040435791
2.6360483169555664 -0.32874828577041626 0.4829941987991333
0.8606674671173096 -0.6502086520195007 -0.2282070368528366
-1.9959614276885986 -0.6638680696487427 1.1936665773391724
1.506208896636963 -0.49039795994758606 -0.42401400208473206
-1.869354009628296 -0.6424737572669983 0.2532365620136261
2.6390936374664307 -0.2457507997751236 0.04531315714120865
3.1937308311462402 -0.6992291212081909 -0.3694319725036621
1.2947814464569092 -0.09223315119743347 -1.622914433479309
-0.4353487491607666 -0.25313931703567505 1.04383385181427
0.28896382451057434 0.620368480682373 0.9923120141029358
0.6982378959655762 0.13121801614761353 1.1864560842514038
-2.5810036659240723 0.17231564223766327 0.0063802581280469894
1.3845762014389038 -0.04068131744861603 -1.4846957921981812
0.8851721882820129 1.1227439641952515 0.8103772401809692
0.8872438073158264 0.6206241250038147 0.7973897457122803
2.1846768856048584 0.3623841404914856 -0.8840218782424927
1.9763503074645996 -0.47458726167678833 0.21868382394313812
0.8734537959098816 -0.08116623759269714 -1.4988936185836792
0.9901717305183411 -0.37457817792892456 0.10193923115730286
1.3565433025360107 -0.18145476281642914 -0.4241124093532562
-0.4103918969631195 0.20350298285484314 -0.22727656364440918
-1.3412666320800781 -0.48069441318511963 0.9464015960693359
0.8202028870582581 0.6334182024002075 0.2717004120349884
2.7876687049865723 0.4730684757232666 -0.8352654576301575
1.4252963066101074 0.2133990377187729 -0.17857897281646729
1.2740116119384766 0.185101717710495 -0.2556525468826294
-2.2488927841186523 -0.49212127923965454 -0.8926399350166321
-0.7821752429008484 1.0437211990356445 -0.012789658270776272
0.4832312762737274 0.8555266857147217 -0.06595912575721741
-1.50308358669281 -0.4297133684158325 1.265041470527649
-0.9235439300537109 -0.5473172664642334 0.8219139575958252
1.2679575681686401 -0.43821221590042114 0.8397305011749268
-0.6576399207115173 -0.15094947814941406 -0.5592586994171143
1.3795568943023682 -0.6721326112747192 -0.7232238054275513
1.2206904888153076 -0.0441361665725708 -0.31766220927238464
-1.2049226760864258 0.6591103672981262 0.6832285523414612
1.1708565950393677 0.025738149881362915 -1.7349787950515747
2.074906826019287 0.08703537285327911 -0.8040590286254883
0.42356929183006287 -0.027127981185913086 0.3773939907550812
1.0290485620498657 -0.4726654887199402 -0.18111029267311096
0.830350935459137 0.023445501923561096 0.8614193797111511
-0.9588937759399414 0.7462081909179688 -0.7438520789146423
2.083305835723877 0.29926955699920654 -0.8190712928771973
2.2842087745666504 -0.2882356643676758 0.9593315720558167
1.3046231269836426 -0.22593651711940765 -0.5817961096763611
1.6878942251205444 -0.3313654065132141 -0.8657804727554321
0.40906959772109985 -0.1304674595594406 0.3986167907714844
1.8174248933792114 0.14048929512500763 -0.549167811870575
0.7129271030426025 -0.18637190759181976 1.2312264442443848
-1.0981744527816772 0.14907537400722504 0.26412516832351685
-0.4506015181541443 0.37796053290367126 0.719468355178833
-0.04501938819885254 -0.15614813566207886 -0.5872548222541809
1.7501379251480103 -0.040924668312072754 0.6975275874137878
0.6786210536956787 0.8639436364173889 0.18212033808231354
0.7662980556488037 -0.6516116857528687 0.19196540117263794
2.6529927253723145 0.5684671401977539 1.0187121629714966
2.3090097904205322 -0.33959856629371643 -0.4703013300895691
-0.8676719665527344 -0.23837228119373322 1.0435807704925537
2.6134276390075684 0.3434390723705292 0.07805982977151871
1.3612409830093384 0.025622084736824036 -0.8552471399307251
-1.3059377670288086 0.03195038437843323 -0.7851366996765137
2.0754740238189697 -0.6846194863319397 -0.3332442343235016
-0.5088015794754028 -0.23059988021850586 0.7404675483703613
-0.9645323157310486 -0.046061113476753235 -0.39299359917640686
2.715693473815918 0.0500779002904892 0.4976225197315216
1.8581655025482178 -0.7257192134857178 -0.4149589538574219
0.7022579908370972 0.00014069676399230957 1.4708001613616943
-2.3129732608795166 0.9245280027389526 0.46607300639152527
1.1400865316390991 -0.021028384566307068 0.1487644612789154
-0.02030465379357338 -0.31253325939178467 1.567518949508667
1.4174818992614746 -0.6615567207336426 -1.4843478202819824
-0.9907439351081848 0.41420111060142517 0.9222778081893921
0.17391987144947052 -0.036260172724723816 -0.9517635703086853
-1.7600977420806885 0.03415423631668091 -1.6437710523605347
0.403564453125 -0.022145524621009827 -1.022485613822937
-2.218749523162842 0.33271002769470215 -0.3625713288784027
-1.726169228553772 -0.10960030555725098 0.1566353142261505
2.414027452468872 -0.1826477199792862 0.4074106514453888
-0.4734311103820801 -0.6645393371582031 -0.28856348991394043
1.8603414297103882 -0.2755371928215027 -0.33532410860061646
-0.7829064130783081 -0.05337773263454437 -0.5012742280960083
-1.0659821033477783 0.3479340076446533 0.7492930293083191
-1.7283909320831299 0.147426575422287 0.6449863314628601
2.7532410621643066 -0.681989312171936 -0.5748623013496399
-1.2322452068328857 0.8206674456596375 0.001033041626214981
1.3635174036026 -0.5838180780410767 -1.1928143501281738
2.177870512008667 0.009013786911964417 1.6696271896362305
0.49775999784469604 -0.3988337218761444 0.0195083599537611
1.165225863456726 -0.35558024048805237 -0.7735628485679626
1.5945583581924438 0.30960792303085327 0.625136137008667
-1.0291094779968262 0.1363098919391632 0.3439781367778778
-1.5219480991363525 0.2722487449645996 -1.7376012802124023
1.6882169246673584 -0.32039210200309753 -0.2603119909763336
1.6587867736816406 -0.4657786786556244 -0.6934245824813843
0.7565900087356567 0.1753256916999817 0.05641655996441841
-1.3344378471374512 0.2036915123462677 0.10705526173114777
0.6643149256706238 1.1323819160461426 0.12412741035223007
1.1211520433425903 -0.6756410002708435 -0.6138977408409119
2.3077235221862793 -0.5987082719802856 -1.294152021408081
-0.8929206728935242 -0.4771420359611511 1.195000410079956
-1.745607614517212 0.8769072890281677 -0.36478736996650696
0.17814941704273224 -0.6101376414299011 -1.5316060781478882
1.5647509098052979 0.23942969739437103 0.19103766977787018
-1.3506354093551636 -0.19682788848876953 0.08907028287649155
0.938196063041687 0.19090047478675842 0.7363091111183167
0.5144654512405396 -0.7415288090705872 -0.2952203154563904
1.4524108171463013 -0.029252424836158752 0.2856930196285248
-0.38099363446235657 0.7744784951210022 0.5334015488624573
1.9655404090881348 0.00028648972511291504 -0.9471806883811951
-1.7531030178070068 -0.625357985496521 0.08410201966762543
1.6486531496047974 0.05321700870990753 0.09017760306596756
1.710883617401123 0.9818667769432068 -0.5129930973052979
-1.4907915592193604 0.33364391326904297 0.1789914071559906
1.5810987949371338 -0.1282934546470642 0.3930230736732483
0.6059731841087341 -0.18591374158859253 0.3873681128025055
1.367265224456787 -0.7583765387535095 0.5532665252685547
0.7160353064537048 -0.5461543798446655 0.5212998390197754
-0.3861261010169983 0.29309654235839844 -0.6631479859352112
1.6737703084945679 -0.07582227885723114 -0.07415108382701874
0.45398175716400146 0.5187118053436279 0.6229410767555237
3.6473822593688965 -0.539508581161499 0.03615650534629822
1.109010934829712 0.6944360733032227 0.9943196773529053
-0.5855914950370789 -0.6744362711906433 0.03038834035396576
1.7811146974563599 0.8347050547599792 0.387288898229599
-1.4858331680297852 -0.5739787817001343 -0.2327805906534195
2.6584534645080566 0.578423798084259 -0.5846949219703674
0.28321704268455505 0.7002788782119751 -0.008349886164069176
-0.011296078562736511 -0.6613681316375732 0.10241512209177017
1.8264225721359253 -0.4916112422943115 -1.2017689943313599
0.9334301948547363 0.19650010764598846 -0.6417434215545654
-1.8694870471954346 -0.20803894102573395 0.9463459253311157
0.6667206883430481 0.28984883427619934 -0.24044810235500336
-1.9157801866531372 -0.6107426881790161 -1.6081904172897339
-0.5262182354927063 -0.6241559386253357 -0.7711412906646729
-0.6787444949150085 0.07122807204723358 -0.5717818140983582
-0.4837881028652191 -0.4680498242378235 0.3252222239971161
-0.1613798439502716 -0.6236127018928528 -0.32597672939300537
2.5663442611694336 -0.7236927151679993 -0.8355444073677063
-1.4613760709762573 -0.6578745245933533 0.6311723589897156
-0.3534938097000122 0.9402822852134705 0.3844565749168396
2.121790647506714 -0.4355964958667755 -1.3162097930908203
1.6379045248031616 0.6582999229431152 -0.70355224609375
-0.4847942292690277 -0.6686021089553833 1.6405258178710938
0.3808441460132599 0.4416272044181824 1.4442708492279053
-0.8521413803100586 0.8078966736793518 -1.2472879886627197
-0.8688012361526489 1.1960474252700806 0.10724958777427673
-1.5085583925247192 0.05045515298843384 0.4084448516368866
2.1910266876220703 -0.2025575190782547 0.7881027460098267
1.8232477903366089 0.26343151926994324 0.26702162623405457
1.4787311553955078 -0.6595244407653809 -1.202484369277954
-0.20391583442687988 -0.51316237449646 -1.1773231029510498
0.399580180644989 0.6907296180725098 1.5257055759429932
3.1476757526397705 -0.09593440592288971 -0.333161860704422
-1.0573492050170898 -0.34665828943252563 -0.3472529649734497
-1.4853769540786743 0.25895002484321594 -0.504558801651001
-2.123791456222534 0.4799540638923645 -1.3998053073883057
1.030099868774414 0.3294309973716736 -0.16447891294956207
0.8413217067718506 -0.5057876110076904 -0.4341719150543213
-1.6452339887619019 0.5455705523490906 -0.7024712562561035
-2.1794283390045166 -0.5882431268692017 1.2878366708755493
-2.533161163330078 0.27099913358688354 -0.21979041397571564
1.3067052364349365 0.4927016496658325 0.09124821424484253
1.424601435661316 -0.2694075405597687 1.0644128322601318
-0.6674782037734985 0.8419063687324524 0.14326439797878265
-0.454578697681427 -0.32108962535858154 0.7027994394302368
-1.9676425457000732 -0.24041612446308136 0.6766467690467834
1.2689332962036133 0.49340349435806274 -0.21152395009994507
1.8617160320281982 -0.36275583505630493 0.1280592978000641
2.268874406814575 0.42869919538497925 1.3826440572738647
1.0467289686203003 -0.19095103442668915 -0.8513673543930054
0.049476705491542816 0.4206538796424866 0.14913348853588104
0.9403682947158813 -0.6558970212936401 -0.1874590516090393
-1.0207899808883667 -0.3367503881454468 0.9404962062835693
-0.26162415742874146 0.3914785087108612 -0.4834270775318146
1.3299062252044678 -0.11888390779495239 -0.9424669146537781
-0.8824126124382019 0.11149851977825165 0.8954435586929321
-0.6652680039405823 -0.3697925806045532 -1.6825122833251953
0.8134887218475342 0.29337185621261597 -0.8450765013694763
-1.6167196035385132 -0.25049299001693726 0.852024495601654
0.5067829489707947 -0.20128358900547028 0.9561785459518433
-0.7621764540672302 -0.32964658737182617 -0.9819244742393494
1.486257553100586 0.16429778933525085 -0.06295251846313477
1.7057809829711914 -0.5377001762390137 0.5879141688346863
-1.7526357173919678 -0.7107740640640259 1.4078580141067505
-1.4639281034469604 -0.6110939979553223 -1.3144391775131226
0.4200548827648163 -0.6532741785049438 -1.3377035856246948
2.576261043548584 0.5619148015975952 0.4278726577758789
1.7014658451080322 -0.09813414514064789 -0.1559281051158905
1.9070402383804321 0.48867547512054443 -0.24883677065372467
-0.7407557964324951 0.38138657808303833 -0.29074427485466003
2.481701612472534 -0.28655707836151123 -0.10728706419467926
0.4782281816005707 0.05135801434516907 0.7866737246513367
1.107879638671875 0.43203669786453247 -0.4010269343852997
-1.4857901334762573 -0.647471010684967 0.45733001828193665
-0.17973434925079346 1.1585274934768677 -0.392039030790329
1.8690481185913086 -0.6746598482131958 -1.3213151693344116
0.38850677013397217 -0.7245179414749146 0.022878479212522507
2.3681321144104004 -0.2728729844093323 0.9524067044258118
2.3524909019470215 -0.0647943913936615 0.632363498210907
-1.2092652320861816 0.11270926892757416 -0.07616282254457474
-0.3998245596885681 -0.648650586605072 1.0486829280853271
0.36336836218833923 0.09429660439491272 0.2749050557613373
-1.6894237995147705 -0.6588445901870728 -0.10129088163375854
-1.9851747751235962 -0.7115777730941772 1.1381665468215942
2.0859081745147705 0.6423657536506653 -0.2455722838640213
0.06545250117778778 -0.06658600270748138 1.0946240425109863
0.2554998993873596 -0.23898150026798248 1.0136611461639404
-0.9201790690422058 0.394125759601593 0.01136944629251957
1.1382430791854858 0.8551142811775208 -1.4564807415008545
2.020864963531494 -0.3906070590019226 -0.5043653249740601
1.8358166217803955 -0.6639513969421387 1.5005934238433838
0.5003071427345276 -0.7100918292999268 0.8589656352996826
0.4236735701560974 -0.2719053030014038 -0.1352519989013672
-1.0364174842834473 -0.18762697279453278 -0.5194340348243713
-0.9138771891593933 -0.5378116369247437 -1.1332758665084839
-1.3617380857467651 1.1090503931045532 -0.16559550166130066
-1.0583398342132568 0.17635799944400787 -0.36999523639678955
0.6018457412719727 0.21897736191749573 -0.7752661108970642
-2.270232915878296 -0.09753809869289398 -0.17063914239406586
-1.534077763557434 -0.4755074083805084 -1.0729312896728516
-1.0404839515686035 -0.5141170620918274 1.6022363901138306
2.15194034576416 -0.6842801570892334 -0.6701397895812988
1.466522455215454 -0.25541210174560547 0.057518504559993744
-0.9709659814834595 -0.28093451261520386 0.8087628483772278
-1.5993342399597168 0.3062193691730499 1.185302734375
1.278460144996643 -0.6285545229911804 -0.5830816030502319
1.3023631572723389 -0.11104972660541534 0.6910726428031921
0.9854882955551147 0.29276278614997864 1.2970563173294067
-0.48125866055488586 -0.6463131904602051 -0.034961532801389694
-0.547857940196991 -0.07028500735759735 -0.49181169271469116
0.5158969163894653 0.8458991646766663 0.6188721060752869
-1.4458155632019043 -0.42014628648757935 1.5899337530136108
-0.3739702105522156 -0.4595089554786682 0.5479406714439392
-0.792910099029541 -0.6169410347938538 1.581874132156372
-0.33427488803863525 0.20183494687080383 -0.45008552074432373
-0.05722499266266823 0.19475723803043365 -1.6984726190567017
2.2696750164031982 -0.6389173865318298 0.7395952939987183
0.9705257415771484 -0.4440727233886719 -0.6945186853408813
0.437612384557724 0.010088950395584106 0.7742593884468079
2.2873077392578125 -0.0859689861536026 0.7893497347831726
2.3237011432647705 -0.6527974009513855 -1.245393991470337
2.1461739540100098 -0.6356905698776245 -1.1646842956542969
1.667993426322937 -0.3217918574810028 -1.732349157333374
0.6604932546615601 0.07567378878593445 -1.0839171409606934
1.1569151878356934 -0.1079711765050888 -1.057229995727539
2.9046711921691895 -0.3276810646057129 0.9473288655281067
1.0431873798370361 -0.368545800447464 1.5957838296890259
1.0895906686782837 0.2578870356082916 0.8784804940223694
0.7389118671417236 -0.38473600149154663 -1.0745335817337036
-0.19932451844215393 0.7888877391815186 0.8464495539665222
-0.7843107581138611 -0.4647994637489319 -1.6463861465454102
2.733170747756958 -0.5600749850273132 1.1204333305358887
1.8802275657653809 0.02225746214389801 0.8131718039512634
-1.5318078994750977 0.33462613821029663 -0.05919240787625313
3.089073419570923 0.08632795512676239 -0.33751800656318665
2.5990750789642334 0.09675338864326477 0.5213498473167419
-0.717312216758728 0.5197361707687378 -0.8172001242637634
1.9932152032852173 -0.6953569650650024 0.2960676848888397
2.214592695236206 -0.31501927971839905 0.5453764796257019
-1.707664132118225 0.1483401656150818 1.474806547164917
0.633983850479126 0.6739603877067566 0.49184757471084595
1.3357441425323486 -0.23667436838150024 1.2065858840942383
-0.9385502934455872 -0.26852622628211975 -0.5715371966362
1.0437978506088257 0.10475382208824158 0.7727251052856445
1.482470989227295 0.28964465856552124 -0.3250868618488312
-1.3232595920562744 1.1628130674362183 -0.1224244236946106
-2.386868953704834 1.0667800903320312 0.18227623403072357
1.4947538375854492 0.41295289993286133 -0.41406333446502686
-0.06317151337862015 0.16322949528694153 0.6797199845314026
-1.7020100355148315 0.3992862105369568 -0.24879448115825653
3.402552604675293 0.4115208387374878 -0.5884215235710144
0.6078841686248779 0.3748590052127838 -1.5160624980926514
0.47543779015541077 -0.6571512222290039 -0.5880229473114014
1.3142235279083252 -0.28149718046188354 1.0537667274475098
-1.6317784786224365 -0.07606326043605804 1.2753568887710571
1.5256134271621704 0.44203537702560425 0.0681355744600296
2.2021963596343994 0.4015296697616577 -0.22142115235328674
-1.758751392364502 -0.13774800300598145 -1.0448529720306396
-1.352941870689392 0.22649213671684265 -0.2857595384120941
-1.1980726718902588 -0.321830689907074 -0.01703847385942936
0.022885050624608994 0.6436997652053833 -0.7208114862442017
-1.0035574436187744 0.19390720129013062 0.8010603189468384
1.3825715780258179 0.01287996768951416 0.05144650861620903
-1.2298624515533447 -0.10614100098609924 -1.5848859548568726
-2.528560161590576 0.8796115517616272 -0.8033374547958374
1.6154340505599976 -0.6529204845428467 1.4771757125854492
2.110816717147827 -0.5602599382400513 -0.26329609751701355
3.3979811668395996 -0.6032195091247559 0.9331178069114685
-2.4828765392303467 -0.4842151403427124 0.39771613478660583
1.825305700302124 -0.671532154083252 1.3150439262390137
-1.976905107498169 -0.11028873920440674 -0.1918196976184845
-2.182023048400879 0.916212260723114 -0.2107214331626892
0.2388453483581543 0.621408224105835 0.5706954598426819
2.828917980194092 -0.3203811049461365 0.021591443568468094
-0.590776801109314 0.27923065423965454 -1.3346726894378662
-2.236377239227295 0.930100679397583 0.2357531636953354
2.564656972885132 -0.6489474773406982 0.35979965329170227
1.208991527557373 0.7822161316871643 0.4000832736492157
1.5424654483795166 0.4782193899154663 0.9760177731513977
0.1301967054605484 0.08003343641757965 -0.8690885305404663
1.5167644023895264 0.1369601935148239 0.9234102964401245
-0.41375887393951416 -0.1840941309928894 -0.7968958020210266
1.313474416732788 0.1273098886013031 -0.14776098728179932
-2.181739568710327 0.683479905128479 0.2718064785003662
1.5542703866958618 -0.19621239602565765 -0.34776461124420166
-0.8969268798828125 -0.42090100049972534 0.7766978740692139
-0.7489023208618164 -0.47371166944503784 -1.1539833545684814
1.3746050596237183 -0.062334731221199036 -0.5780403017997742
1.835422158241272 0.0003738701343536377 1.4311059713363647
1.079660177230835 -0.3733551502227783 -1.1309709548950195
0.5530588626861572 -0.37327679991722107 0.8900245428085327
0.4913625121116638 0.8292045593261719 -1.152327299118042
1.685901165008545 0.2792845070362091 -1.0026898384094238
-1.4251619577407837 1.0699715614318848 0.6606113910675049
-1.705773949623108 0.25977271795272827 0.2853739559650421
-1.483144998550415 -0.16023388504981995 -0.04801936447620392
-1.8878026008605957 0.2388116419315338 -0.5280633568763733
-0.5459913611412048 0.29148727655410767 0.09131814539432526
2.375828266143799 -0.6526430249214172 0.6887099146842957
-1.6961160898208618 -0.16349920630455017 0.4954043924808502
3.188163995742798 0.08199681341648102 -1.0633736848831177
0.825591504573822 0.5889724493026733 0.30558446049690247
-0.2267170250415802 -0.43919724225997925 0.5620976686477661
-0.7598762512207031 -0.4332655072212219 -1.046041488647461
0.40956851840019226 0.9686921238899231 -1.3182109594345093
-1.903796672821045 0.5081810355186462 -0.44113045930862427
-0.6125296950340271 1.111592173576355 -0.645395040512085
-0.4706624150276184 -0.6615286469459534 -1.3052966594696045
1.74611496925354 -0.33449575304985046 0.41201964020729065
2.1172738075256348 -0.24703389406204224 0.23461981117725372
-1.4767439365386963 -0.6376664638519287 -0.272436261177063
0.7219001054763794 0.7973842024803162 -0.6128286719322205
-1.0729830265045166 0.4782949686050415 0.8880863785743713
-2.0345547199249268 1.0146055221557617 -0.8108024001121521
0.5811415314674377 1.1294059753417969 -0.5132577419281006
3.8884096145629883 -0.7104487419128418 0.19828762114048004
-1.5945836305618286 -0.4503653049468994 -0.4241137206554413
-0.041042767465114594 0.42059263586997986 -0.6085498332977295
2.195387601852417 -0.3748810291290283 1.3911081552505493
-0.9681569337844849 -0.13171444833278656 -0.2269093543291092
0.7051113843917847 0.4832115173339844 -0.17606019973754883
-1.2627570629119873 -0.48848071694374084 1.239729881286621
-0.3600371778011322 0.2287457287311554 0.2538640797138214
-1.9731476306915283 1.0524659156799316 -0.022831499576568604
0.29600951075553894 0.5443206429481506 -0.9354698061943054
2.1855554580688477 0.5443317890167236 0.04107261821627617
1.6593900918960571 -0.4353806674480438 -1.3177496194839478
0.41458916664123535 -0.08954031765460968 1.4630107879638672
0.4395272433757782 0.6486016511917114 -0.4356320798397064
-0.7670639753341675 -0.6997674703598022 1.800910472869873
1.9508167505264282 -0.3283262848854065 -1.6725343465805054
1.514828085899353 -0.6056784987449646 0.7176691889762878
-2.268385410308838 -0.4221937656402588 -1.3585944175720215
-0.17895954847335815 0.07836578786373138 -1.3536920547485352
0.5731664299964905 -0.6381656527519226 -1.1300690174102783
1.148538589477539 -0.05517187714576721 -1.119344711303711
2.07553768157959 -0.4279645085334778 0.25167763233184814
0.6690026521682739 -0.3656541109085083 -0.6212308406829834
2.5813944339752197 -0.7046648263931274 0.5670995116233826
0.9481439590454102 -0.4797537922859192 -0.706015408039093
0.5018725991249084 0.018566951155662537 -0.7982155084609985
1.381205677986145 0.10034869611263275 0.21557988226413727
-0.45610854029655457 -0.6028863191604614 -0.07073000073432922
2.85382080078125 0.05271974205970764 -0.6070506572723389
-0.5541270971298218 0.9045886993408203 1.0070379972457886
1.6466801166534424 -0.06835411489009857 -0.14916840195655823
0.6793044805526733 0.05473494529724121 1.4129635095596313
-1.8907734155654907 0.26364314556121826 0.31596338748931885
-2.132601261138916 -0.15502014756202698 -0.8708038330078125
1.3370403051376343 0.5344787836074829 0.07177387923002243
0.03718113526701927 -0.5850383043289185 1.140403389930725
1.366411805152893 0.35785311460494995 -1.133339285850525
1.1641621589660645 0.6865365505218506 0.6807296872138977
1.5443252325057983 -0.2296352982521057 0.9653529524803162
1.4824546575546265 0.09705989062786102 -0.464048832654953
-1.2043826580047607 0.0251024067401886 1.2149840593338013
-1.3150546550750732 -0.6972328424453735 0.941572368144989
0.6853547096252441 -0.174257293343544 0.3828836679458618
1.9071693420410156 -0.5507545471191406 -0.5961792469024658
-2.015350580215454 -0.42258405685424805 0.8040627241134644
1.0622859001159668 0.39304864406585693 -0.4841577410697937
1.3391979932785034 -0.6850931644439697 -0.46529677510261536
-0.010561041533946991 0.16732889413833618 0.0841236412525177
-1.5411239862442017 0.27446335554122925 -1.560682773590088
0.9375116229057312 0.4799095690250397 -0.18070684373378754
0.4221540093421936 0.6910576224327087 0.4688269793987274
-0.5148241519927979 -0.07501769065856934 0.07897721976041794
-1.5302258729934692 -0.2935933470726013 -1.0247688293457031
0.4748797118663788 1.1953880786895752 -0.8587923645973206
-0.448903352022171 -0.30508309602737427 -0.8119198679924011
1.5081844329833984 -0.07774609327316284 -1.1828917264938354
1.1193221807479858 0.7752591371536255 -0.13970838487148285
0.06372121721506119 -0.06766645610332489 -0.7483263611793518
0.7423902153968811 0.6682306528091431 -0.05046800151467323
1.1864333152770996 0.4508984386920929 -1.0360113382339478
0.8103153109550476 -0.1241292655467987 -0.9183452725410461
0.9412931799888611 -0.30750101804733276 0.6423341035842896
-0.2243327498435974 0.11428730189800262 -0.7320178747177124
-0.48637494444847107 -0.6419860124588013 0.031318917870521545
-0.422791063785553 0.494154691696167 0.22270122170448303
1.9998470544815063 -0.27672845125198364 -1.2671804428100586
2.9943277835845947 0.7169938087463379 1.301783561706543
-2.1613430976867676 0.8559276461601257 0.06760399043560028
-2.1751885414123535 0.32957351207733154 0.02281321957707405
1.7982957363128662 -0.3779211640357971 -0.7775895595550537
1.5716670751571655 -0.6656041145324707 -0.7479074597358704
1.0019757747650146 0.0014303922653198242 0.5665063261985779
2.2323639392852783 0.3920290172100067 1.5371742248535156
1.7918695211410522 0.747134268283844 -0.9258199334144592
1.068872332572937 0.3215656876564026 -0.03832736611366272
1.6449421644210815 -0.10962565243244171 -1.4083198308944702
1.0966417789459229 -0.41044116020202637 1.433018684387207
1.2740607261657715 -0.4825729727745056 1.1619806289672852
-2.118436813354492 0.18441607058048248 -0.7399798035621643
