ply
format ascii 1.0
element vertex 819
property float x
property float y
property float z
end_header
1.1239532232284546 0.5979264974594116 0.8684924244880676
0.750182032585144 0.39635181427001953 0.4773239195346832
-0.8551837205886841 1.0416768789291382 -0.4987759292125702
-2.589047431945801 -0.20039385557174683 0.16973881423473358
-1.3399726152420044 -0.8531029224395752 -0.9071416258811951
0.6214702725410461 0.5165361762046814 0.4014812707901001
-1.551833152770996 -0.3579765856266022 0.01842086762189865
1.1375837326049805 -0.4599471390247345 -1.1154738664627075
0.9453911781311035 0.3685012459754944 -0.8711970448493958
-1.14241623878479 -0.39177218079566956 -1.0782418251037598
2.0440726280212402 0.5288914442062378 -0.6122359037399292
2.873516321182251 0.026062682271003723 -0.19839748740196228
-0.3903008699417114 1.2749485969543457 0.94447261095047
0.322750985622406 1.3163723945617676 0.129285529255867
1.8841311931610107 0.89703369140625 -0.7270510792732239
-0.6268486976623535 -0.6304763555526733 1.105191946029663
-0.36417531967163086 0.8850933313369751 -0.08602744340896606
-0.09177398681640625 1.120547890663147 0.6328184604644775
0.528554379940033 -0.3999343812465668 -0.21977870166301727
-1.1570534706115723 -0.7414196729660034 1.152795433998108
-0.8578502535820007 1.329672932624817 -0.05181443691253662
-0.8527370095252991 0.8996317982673645 0.5212676525115967
-0.4809034466743469 1.3036084175109863 0.1258666068315506
-0.17692118883132935 0.9241013526916504 0.7177451252937317
1.6341809034347534 -0.442688524723053 -1.1297885179519653
0.9297343492507935 -0.34108787775039673 0.7454957365989685
1.5785903930664062 0.4750913381576538 -0.5714723467826843
-0.9588983654975891 0.6982697248458862 1.1698845624923706
2.5982675552368164 0.5452934503555298 -0.04354652017354965
-2.398120164871216 0.5411343574523926 -0.9575749039649963
-2.5423662662506104 -0.16314001381397247 -1.207396149635315
-1.9789414405822754 -0.5043790340423584 -0.8753559589385986
1.1738961935043335 0.10217460244894028 -0.8144445419311523
0.924902617931366 0.722081184387207 1.110829472541809
1.473584532737732 0.45583271980285645 1.1785765886306763
1.8206437826156616 0.9528037905693054 0.4978340268135071
2.6036221981048584 0.23099787533283234 0.8231757283210754
0.7961891293525696 0.00947640836238861 -0.6360950469970703
1.4727706909179688 0.8292350172996521 -0.03959113731980324
-1.6786539554595947 -0.009094864130020142 1.173075556755066
-1.8666855096817017 1.0980112552642822 -0.09168900549411774
0.9378238916397095 0.5033614635467529 0.5052670836448669
1.6662657260894775 -0.02293705940246582 -0.6056377291679382
1.5903351306915283 0.38002699613571167 0.5037078857421875
0.7688079476356506 -0.07482191920280457 -0.38474157452583313
-1.0156664848327637 1.3433512449264526 0.7811855673789978
-2.034605026245117 0.945900022983551 -0.5518848896026611
0.141109436750412 -0.3839187026023865 0.8107602596282959
0.18420255184173584 -0.3926021456718445 0.3579666316509247
-0.7658026218414307 1.33534836769104 0.13541750609874725
-0.914240300655365 0.6938596963882446 0.8972672820091248
0.704978883266449 1.2626782655715942 -0.5857588648796082
2.004960536956787 0.43121033906936646 0.9333606958389282
-2.1553494930267334 0.8008582592010498 0.7647413015365601
2.8160645961761475 -0.1731976717710495 1.1623458862304688
-2.125025987625122 0.8866690993309021 0.34451472759246826
0.03126825392246246 0.6675752401351929 1.158195972442627
2.237875461578369 0.4902579188346863 -1.1132441759109497
-1.5512356758117676 -0.015674754977226257 -1.1896976232528687
0.21460407972335815 1.311470866203308 -0.6818161010742188
1.5494564771652222 -0.09557123482227325 0.9107778668403625
-0.03315166383981705 1.3205583095550537 0.7370079755783081
1.7178796529769897 -0.2538490891456604 1.1862190961837769
-0.27531683444976807 -0.38732391595840454 0.27057355642318726
-2.407660961151123 0.429229736328125 0.7980165481567383
2.13434100151062 0.6248611807823181 1.0508424043655396
2.61861515045166 -0.5884957909584045 0.9748023152351379
2.6798439025878906 0.2013556808233261 0.7019859552383423
-0.8215652108192444 1.0123778581619263 -0.5103829503059387
1.3422120809555054 1.1185321807861328 -0.5426679849624634
-1.5914515256881714 -0.7690788507461548 -1.1633925437927246
0.6361231803894043 0.13724656403064728 -0.40763840079307556
1.8287975788116455 0.9652417898178101 0.07533342391252518
2.206454277038574 0.03315792977809906 -1.0509862899780273
1.4599097967147827 -0.45963528752326965 -0.8891538381576538
2.3199455738067627 0.6561062335968018 0.7482609748840332
-0.9866409301757812 1.0528801679611206 -0.5133129954338074
-0.5963929295539856 0.7895298600196838 -1.1346770524978638
0.6883125305175781 0.11284095048904419 0.16538994014263153
-0.7586473822593689 0.990583598613739 -0.6711483597755432
1.7089420557022095 0.44615745544433594 0.7889798879623413
1.4103947877883911 0.7716953754425049 1.179869532585144
-0.6336618661880493 0.4491119980812073 -1.2130080461502075
2.177123785018921 0.7283201217651367 -0.44034677743911743
-0.5482876896858215 -0.5695158243179321 -1.1453304290771484
2.7429521083831787 -0.24229612946510315 -0.8316376209259033
0.05605890601873398 -0.40137070417404175 -0.10564522445201874
1.134604811668396 0.024292215704917908 -0.2928619980812073
0.05539889261126518 1.334554672241211 0.5283079147338867
1.7845326662063599 0.9401537179946899 0.6057987213134766
-0.4536272883415222 1.087531328201294 0.0899309366941452
-0.16566011309623718 -0.5553303956985474 -1.1439540386199951
-0.31988775730133057 -0.5842707753181458 -1.140956163406372
-1.39577054977417 -0.36047422885894775 0.2548998296260834
-0.4815205931663513 0.9390047788619995 0.7978894114494324
1.904902696609497 0.6470837593078613 1.0760178565979004
2.562631607055664 0.2707599997520447 -0.17953534424304962
3.0468814373016357 0.2653438448905945 0.7203009724617004
0.10988198220729828 1.011258840560913 1.0296635627746582
-2.0183327198028564 0.9466972351074219 -0.32397428154945374
1.5495991706848145 0.07701455801725388 0.9144895672798157
1.5548611879348755 -0.4223414659500122 -0.5114415884017944
0.15782278776168823 0.5374560952186584 0.8481133580207825
1.4646233320236206 -0.2990933656692505 1.1936347484588623
-0.7313682436943054 -0.38676172494888306 0.7392736673355103
-0.5174121856689453 0.6925526857376099 0.5889542102813721
0.893126904964447 0.8323696851730347 0.04983733221888542
1.9535375833511353 -0.5349408388137817 -0.7699418067932129
2.057664155960083 -0.8051320910453796 1.069661259651184
-1.268917202949524 1.2923965454101562 -0.6465244293212891
1.684437870979309 0.2490801066160202 -0.4714600443840027
1.6366443634033203 -0.13953319191932678 -0.4256400167942047
-0.8831662535667419 0.910700798034668 1.0917309522628784
1.081132411956787 0.06461987644433975 1.209895372390747
-2.2618744373321533 0.7085955739021301 -0.47219011187553406
0.9287285208702087 -0.4010270833969116 0.37387293577194214
0.5543276071548462 0.19256624579429626 1.2119839191436768
0.37701818346977234 1.2481399774551392 -0.9198927283287048
-1.5480231046676636 -0.4762054681777954 -1.0834825038909912
1.8827412128448486 0.44651198387145996 -1.1418054103851318
0.36774536967277527 1.082761287689209 -0.6363019943237305
1.905685305595398 0.8996191620826721 0.09289862960577011
-2.5164477825164795 -0.3355630040168762 0.051045842468738556
-0.6462860703468323 0.7562084197998047 0.4759103059768677
-1.8374100923538208 0.947856068611145 1.035736322402954
2.138594150543213 0.42520472407341003 0.8058918714523315
1.2884374856948853 0.08869387209415436 0.87591153383255
2.4539897441864014 0.5891351699829102 -0.534647524356842
2.2240896224975586 0.273526132106781 -1.1617772579193115
-0.19364483654499054 0.9475059509277344 -1.0462660789489746
-1.0050257444381714 0.8135852813720703 0.3455754518508911
0.6455606818199158 0.758522093296051 0.6909159421920776
1.735688328742981 -0.17713557183742523 -0.23596106469631195
-0.6578745245933533 0.944807767868042 0.6042764186859131
2.4757449626922607 -0.6823669672012329 1.1910380125045776
-0.9022594690322876 0.39510825276374817 1.1915473937988281
-1.3819265365600586 0.0019876211881637573 1.1654610633850098
-1.7843599319458008 0.35643094778060913 1.1800998449325562
-2.07132887840271 -0.34570980072021484 0.22087471187114716
2.6459004878997803 0.29625624418258667 0.17089246213436127
1.113376259803772 0.031733572483062744 -0.15556268393993378
2.66294527053833 0.268023282289505 -0.746078372001648
-0.36520472168922424 0.5532388687133789 0.7336123585700989
2.687133550643921 -0.23021729290485382 0.8708878755569458
2.9881484508514404 -0.21127066016197205 1.1169157028198242
0.567505419254303 0.2675602436065674 -0.2729550004005432
-0.31412607431411743 -0.3990510404109955 -0.2682398557662964
-1.8023921251296997 0.03400646150112152 -1.2137936353683472
2.02657151222229 -0.19964221119880676 0.8899720311164856
-0.8148641586303711 -0.044115692377090454 1.1673768758773804
3.1665499210357666 -0.32216328382492065 0.5490928292274475
-2.5620248317718506 -0.12575818598270416 0.31477928161621094
-1.7437527179718018 0.6648523211479187 -1.1513972282409668
0.3364873230457306 -0.4152100384235382 -0.8908340334892273
2.899717330932617 -0.28145068883895874 -0.3512904644012451
1.681053876876831 -0.08285805583000183 0.15509618818759918
2.357008934020996 0.4021371006965637 0.512923002243042
0.441746324300766 0.23078332841396332 -0.6194159984588623
1.722797155380249 0.5000315308570862 0.391468346118927
2.4893317222595215 -0.6966055631637573 -0.8534208536148071
1.204604983329773 0.22395926713943481 0.7339538931846619
1.4298393726348877 0.6187850832939148 -0.29051849246025085
3.0791337490081787 0.1334589123725891 -0.7192879915237427
-1.9123494625091553 0.6876367330551147 1.1169127225875854
2.1269004344940186 0.3347075283527374 -0.8354606628417969
-0.6318541169166565 0.46430596709251404 1.1894237995147705
-0.43405428528785706 1.1439820528030396 0.4894684851169586
1.4047596454620361 -0.3977355360984802 -0.09968972206115723
1.9078593254089355 0.8944310545921326 0.34579795598983765
0.09820030629634857 -0.38735976815223694 1.0062494277954102
1.4978020191192627 0.6751629710197449 -0.6246410012245178
-1.0411677360534668 -0.5274997353553772 0.9018089175224304
1.103102445602417 1.196349859237671 0.6203811168670654
-1.5158443450927734 -0.36541619896888733 0.32632535696029663
-0.35561686754226685 0.6962862014770508 -0.0006277593201957643
-0.47765615582466125 0.862869381904602 0.7196968197822571
-0.34815913438796997 1.3197723627090454 -0.057422127574682236
-2.3441965579986572 0.18167930841445923 1.1455090045928955
-2.137378215789795 0.5809348821640015 1.130462408065796
0.24056431651115417 -0.009724736213684082 0.7416348457336426
1.746111512184143 -0.2619708180427551 0.42275288701057434
2.872770309448242 -0.011996492743492126 -0.3318804204463959
-2.41898512840271 0.27318504452705383 0.9094228148460388
-0.8780900835990906 1.3202545642852783 0.789692223072052
1.415496587753296 0.9013034105300903 0.06683170795440674
1.7325077056884766 0.9365999102592468 -0.9139162302017212
2.509936809539795 -0.6895653009414673 0.8562794923782349
0.9012953042984009 0.513896644115448 -1.211296796798706
1.7731446027755737 0.04470842331647873 1.192756175994873
3.0913245677948 0.16488529741764069 0.7407702803611755
-1.3875553607940674 -0.4082948565483093 -1.1349276304244995
0.27778980135917664 1.323028802871704 -0.3218424320220947
0.6711768507957458 0.24499118328094482 -1.2171742916107178
-0.526147723197937 1.3242377042770386 0.5903950333595276
0.6777713298797607 0.33625108003616333 0.640021562576294
-0.14111313223838806 1.3219032287597656 -0.24642141163349152
0.7630394101142883 0.07509508728981018 1.2029790878295898
-1.9233120679855347 -0.5953111052513123 -0.8659095764160156
-1.57399582862854 -0.3569844365119934 -0.579145073890686
-0.7266216278076172 0.9118663668632507 -0.3536214828491211
0.971519410610199 0.49454519152641296 0.47131669521331787
1.341916799545288 0.22658494114875793 0.7986307144165039
-0.867577850818634 0.8158766627311707 -1.1249206066131592
-0.528278112411499 1.3263567686080933 0.25522512197494507
-0.8433353304862976 -0.5379389524459839 -1.1592223644256592
0.6425603032112122 0.782961368560791 0.46411052346229553
1.294314980506897 -0.2843347489833832 -0.7530139088630676
1.557910442352295 0.1432323008775711 1.202929139137268
1.5517345666885376 0.2907852828502655 0.8480427861213684
1.3621519804000854 -0.23419012129306793 -1.1575853824615479
-0.19462895393371582 -0.3926694393157959 -0.13382591307163239
0.18927928805351257 0.14462214708328247 1.216660976409912
-1.7510480880737305 -0.09623552858829498 -1.1884104013442993
2.9017632007598877 -0.1269051879644394 -0.49983924627304077
-1.2634310722351074 0.4742982089519501 1.1818047761917114
-0.3030098080635071 0.7611590623855591 0.10245245695114136
2.067894697189331 -0.48899710178375244 -0.9556499719619751
-0.6318362355232239 0.8914209008216858 -0.03695432469248772
-1.5038808584213257 -0.3604348301887512 1.0693490505218506
-0.3666650652885437 0.806572437286377 0.7001132369041443
0.5781766176223755 0.9188138246536255 0.7714647650718689
0.08635882288217545 0.5222100019454956 -0.5935096144676208
-1.628071904182434 -0.3762308955192566 -0.8135724067687988
0.05483872443437576 -0.0034100860357284546 -0.5245041251182556
-0.6586625576019287 0.6774855852127075 -1.1839193105697632
0.3909108638763428 0.020690947771072388 1.215774655342102
-0.522953987121582 -0.4718700349330902 1.1822304725646973
0.5887840986251831 0.6993926763534546 0.3798762559890747
-1.7227691411972046 -0.8162089586257935 0.920436441898346
2.1811952590942383 0.6806665062904358 -0.8801363110542297
0.7127746939659119 0.5726319551467896 -1.2085630893707275
-0.7095710635185242 1.3317818641662598 0.3491506576538086
-0.5054534673690796 0.842829704284668 1.1274148225784302
2.9353933334350586 -0.10047920048236847 0.3170284032821655
-2.5761308670043945 -0.035919398069381714 -0.9807057976722717
0.8707606792449951 0.635917067527771 -0.10329782217741013
-2.19690203666687 0.15077149868011475 -1.219740867614746
-1.8327142000198364 -0.5799527168273926 0.8012112379074097
0.5676501393318176 -0.4087011218070984 -0.5180286169052124
0.5326967835426331 0.7328266501426697 1.1231133937835693
-1.4656277894973755 0.3036596179008484 1.1901949644088745
-0.9308542013168335 0.6548359990119934 0.7333006858825684
-1.0267603397369385 0.9412748217582703 -0.28835171461105347
0.7738795280456543 1.07145357131958 0.17664498090744019
1.0413578748703003 -0.3954698145389557 -0.4734547734260559
1.9826123714447021 0.5237117409706116 -0.2739197909832001
1.635663628578186 -0.42183205485343933 0.44543391466140747
1.8797986507415771 -0.18530935049057007 1.1951005458831787
1.8134608268737793 -0.60640549659729 -1.090270757675171
0.23153056204319 -0.4051661491394043 0.9414045214653015
2.5780954360961914 0.1623569279909134 -0.8646146655082703
1.6614904403686523 1.0666230916976929 0.3360854387283325
-0.668846845626831 -0.3820285201072693 0.8745907545089722
-0.016537800431251526 0.7741467952728271 -0.6556880474090576
1.3987717628479004 -0.4101486802101135 -0.5655386447906494
-1.1672799587249756 -0.6225323677062988 0.8451676964759827
1.7175787687301636 0.6439611315727234 -0.03887451812624931
-0.5926585793495178 1.0257877111434937 0.30865487456321716
2.652355909347534 -0.3959857225418091 -0.8654910922050476
2.6212146282196045 0.5482544898986816 0.49534785747528076
-1.3050543069839478 -0.8094637393951416 -1.142158031463623
1.2366111278533936 0.0713152065873146 1.2048673629760742
-1.8795393705368042 -0.35875532031059265 0.658496618270874
0.8989301919937134 0.6556563377380371 -1.1780925989151
-0.052145931869745255 1.039171576499939 1.0409151315689087
-0.17032448947429657 1.1301437616348267 0.30448758602142334
2.8647751808166504 0.09381983429193497 0.4626044034957886
-0.49225932359695435 0.150096133351326 -1.2250093221664429
-0.7409688234329224 0.7126381397247314 0.4536741077899933
-0.9501312375068665 1.1713114976882935 -0.23638252913951874
-0.19180677831172943 0.9122729301452637 0.6515200138092041
-0.08284399658441544 -0.37430649995803833 0.7723419666290283
1.3366938829421997 -0.39893966913223267 0.9862114191055298
3.014101982116699 -0.1846342831850052 1.112475037574768
-2.513800621032715 -0.3394656777381897 -1.0225728750228882
-0.7782374620437622 0.6233824491500854 -1.2043061256408691
-2.540834903717041 0.037509456276893616 -0.6370043754577637
-1.7557555437088013 -0.3503814935684204 0.03493046388030052
-0.3879564106464386 0.7742604613304138 1.1435519456863403
0.2546957731246948 1.1315021514892578 -0.3561052680015564
1.6560200452804565 0.6490666270256042 -0.7506952285766602
-1.9176944494247437 0.9928799867630005 0.7079699039459229
-0.6063472032546997 0.8605072498321533 -0.47644105553627014
-0.18112756311893463 -0.3901609778404236 0.1863909810781479
-0.4577227830886841 0.5655486583709717 0.8424584865570068
-0.9571982026100159 0.06886095553636551 1.2019046545028687
-2.0756704807281494 -0.4075499176979065 -0.895793616771698
-0.10611934214830399 -0.09588368237018585 1.2129273414611816
-0.45258092880249023 -0.4160899817943573 0.6242789030075073
0.930675208568573 -0.35362017154693604 1.1973063945770264
1.6009438037872314 -0.41206711530685425 0.588866114616394
1.2304201126098633 -0.37474119663238525 0.720072865486145
1.5597549676895142 -0.10130594670772552 0.8666202425956726
0.06459381431341171 0.48301219940185547 -0.3904065489768982
-2.3452417850494385 -0.4007825255393982 -1.1359302997589111
-1.0577919483184814 -0.705885648727417 -1.0640759468078613
-0.5917569398880005 1.3242279291152954 -0.17341893911361694
-0.21304088830947876 1.113273024559021 0.4853178560733795
0.6925526857376099 0.9049238562583923 1.0471440553665161
-0.3345622420310974 1.3080531358718872 -0.6757827997207642
1.7623467445373535 0.6764682531356812 -0.289702832698822
-0.8843355774879456 0.8869484066963196 1.1071208715438843
-2.34104061126709 -0.3466746211051941 -0.17605634033679962
-0.6410970687866211 -0.5423811078071594 -1.1444506645202637
0.03379466384649277 0.5081687569618225 -0.39661705493927
-0.5611013770103455 0.5494046211242676 1.1810672283172607
2.4209980964660645 0.26828333735466003 -1.1631919145584106
-0.6348952651023865 -0.3839567005634308 0.24196165800094604
1.4376988410949707 0.08481959253549576 0.6379253268241882
1.2723439931869507 0.6933072209358215 0.8619033694267273
-2.481693744659424 -0.2628912031650543 1.0923407077789307
1.4515929222106934 0.8652392029762268 -0.18711139261722565
1.381064772605896 1.1243090629577637 0.718343198299408
0.11817482858896255 0.5443032383918762 -0.2158307433128357
1.7262746095657349 1.0228248834609985 0.23305849730968475
0.10653235018253326 -0.07973907887935638 -0.5585632920265198
-0.17071618139743805 0.9849146604537964 0.8203046917915344
0.3146611750125885 -0.39220646023750305 0.4945693016052246
2.1643123626708984 0.46827203035354614 0.17419767379760742
-0.4609092175960541 0.7793503403663635 0.5515236854553223
0.721199631690979 1.2648881673812866 0.4984716773033142
-0.9054312705993652 1.0131169557571411 -1.0295698642730713
1.6420447826385498 0.7374237179756165 -1.0707025527954102
1.6266462802886963 -0.4036635160446167 0.7994881868362427
-1.486029028892517 1.2943600416183472 0.8181023597717285
-0.8541491031646729 0.8415102958679199 0.8543514013290405
0.3538179099559784 1.1317980289459229 0.6794062852859497
-1.4023185968399048 0.4160395860671997 1.1840708255767822
0.1211862564086914 1.326574683189392 -0.17741626501083374
-1.9933183193206787 -0.10487161576747894 1.1701010465621948
1.6307882070541382 0.6819629669189453 -0.26198628544807434
-0.9144319295883179 1.136818289756775 -0.030872659757733345
0.08826582133769989 0.3727307915687561 -0.3384319841861725
-0.7574070692062378 0.8820407390594482 0.6550127863883972
-1.064827799797058 1.316206932067871 -0.2738436162471771
2.7074341773986816 0.24071957170963287 -0.6133425831794739
-2.0646820068359375 0.7874791026115417 -1.0816020965576172
-0.49399664998054504 1.1556847095489502 0.4334217607975006
0.22978821396827698 0.3507625460624695 -0.13355572521686554
1.1839876174926758 1.1776173114776611 0.38974934816360474
-0.4917159676551819 -0.6060571670532227 -0.9769152402877808
1.6210561990737915 0.42728209495544434 -0.854202151298523
-2.192445993423462 -0.28133392333984375 1.1659581661224365
2.3435683250427246 0.6372507810592651 -0.4314662516117096
0.4896111488342285 0.021627530455589294 0.7189399003982544
2.2914059162139893 0.4092247486114502 0.6175636649131775
2.9834742546081543 0.33895277976989746 0.2644071877002716
-1.3809523582458496 -0.7902185320854187 0.8674898743629456
-2.1140427589416504 0.8551098108291626 -0.21827077865600586
-1.3943188190460205 -0.8652423620223999 -0.8709255456924438
-0.8458975553512573 1.316335678100586 -0.5372213125228882
-1.4014720916748047 -0.5562707185745239 1.19746994972229
2.520874500274658 0.5630366802215576 0.0664401724934578
-0.1928260624408722 0.1421978622674942 1.2128609418869019
-1.8133271932601929 -0.7978048324584961 0.9600808024406433
1.4672919511795044 0.3516879081726074 -1.173889398574829
0.6309149861335754 0.7514783143997192 1.11618173122406
2.3092784881591797 -0.5754115581512451 -1.1511064767837524
2.512521505355835 -0.7145400643348694 -0.9152324795722961
0.84885573387146 -0.39943790435791016 -0.5308744311332703
0.04401971027255058 0.11479099094867706 1.207599401473999
-1.5330289602279663 -0.36266595125198364 0.18734323978424072
0.8459445834159851 -0.39449816942214966 0.501764178276062
1.5796862840652466 0.36918193101882935 0.546472430229187
-0.9279028177261353 0.2514822781085968 -1.2172222137451172
2.0840322971343994 -0.0745982825756073 1.1816879510879517
0.6067634224891663 0.1679726094007492 -0.5323094725608826
0.737179696559906 0.49250632524490356 0.19562344253063202
0.8593219518661499 0.12964656949043274 -1.1955382823944092
0.3987116515636444 0.6277472972869873 1.1594866514205933
3.154759407043457 -0.28167498111724854 0.5966194868087769
1.714125394821167 0.028441041707992554 0.8987160921096802
-2.465381622314453 -0.35248732566833496 -0.41537681221961975
-0.6775643229484558 1.0534218549728394 0.3685433864593506
1.7131260633468628 0.1371767520904541 0.2254680097103119
1.8193365335464478 0.5093211531639099 0.843731701374054
2.9060847759246826 -0.14613208174705505 -0.7652822732925415
0.5391781330108643 0.11319087445735931 0.7046417593955994
-0.9502567052841187 -0.4877021908760071 -1.168777346611023
1.616881251335144 1.0857175588607788 0.3265020251274109
-1.151383876800537 0.8242964148521423 1.1222087144851685
1.162729263305664 0.8450275659561157 -0.5239694118499756
3.1105988025665283 0.19166961312294006 -0.3052529990673065
1.4222667217254639 0.9230867624282837 1.0433323383331299
0.33378684520721436 1.3315021991729736 0.03224063664674759
-0.054523617029190063 1.166153907775879 -0.9684870839118958
0.3756699860095978 -0.41271716356277466 -0.7789627313613892
1.846155047416687 0.0823027640581131 0.9641091227531433
-0.23905186355113983 1.1181269884109497 -0.1914481520652771
-2.517096519470215 0.0794207751750946 0.31155335903167725
0.9711002111434937 0.9105468392372131 -1.051069974899292
1.8672139644622803 0.283204048871994 -0.7323687672615051
-0.6006820797920227 1.3131992816925049 -0.7973732948303223
0.5308058261871338 -0.09793418645858765 0.3803654909133911
-1.1464123725891113 0.9238495826721191 1.0766260623931885
-1.7938227653503418 -0.20965105295181274 -1.1911017894744873
2.30660080909729 0.6653374433517456 0.28128620982170105
0.798477053642273 -0.3477201461791992 -1.155065894126892
0.11083268374204636 -0.04227067530155182 0.8271772861480713
1.434972882270813 0.2676321268081665 1.205155611038208
0.05864390358328819 1.0419238805770874 -1.0184444189071655
-2.3856029510498047 0.5971096158027649 0.8221695423126221
-0.10175158828496933 0.6907048225402832 -1.1808085441589355
1.4770406484603882 0.5656437277793884 -0.8355569839477539
-2.428225517272949 0.37389039993286133 0.10940301418304443
2.6681790351867676 -0.006492972373962402 1.1793779134750366
1.1690566539764404 1.1613456010818481 -0.10145264118909836
1.2935795783996582 -0.13734889030456543 0.7990292310714722
0.3100070655345917 0.16470405459403992 0.22110331058502197
0.6029985547065735 0.9304778575897217 0.019315142184495926
-2.5648934841156006 -0.13785746693611145 0.9197037816047668
-1.4700250625610352 -0.5217136740684509 0.9244853258132935
-1.7171359062194824 0.15051418542861938 -1.2107561826705933
-0.1202305406332016 0.7011724710464478 0.4660990238189697
-0.23554885387420654 0.432716429233551 -1.2401282787322998
-1.1807819604873657 1.0708540678024292 -0.2334393709897995
2.100534439086914 0.49886274337768555 -0.24006280303001404
-0.8450024127960205 1.1209663152694702 0.08363046497106552
0.855010986328125 1.2307199239730835 -0.5905515551567078
1.8593939542770386 -0.4686429500579834 1.1281015872955322
-0.43245238065719604 0.9977602958679199 0.15070770680904388
2.5400547981262207 -0.7070578932762146 -1.1179234981536865
-1.380416989326477 -0.13796916604042053 -1.147830843925476
2.949584722518921 0.37939950823783875 -0.08675673604011536
-0.47685909271240234 1.3226755857467651 -0.3533584475517273
-1.5740277767181396 -0.8735621571540833 1.0680118799209595
0.9021091461181641 1.0451037883758545 -0.5057260990142822
-1.675952672958374 -0.6109936237335205 0.83268141746521
-2.3638429641723633 0.5981519818305969 -0.8531436920166016
0.1447087526321411 -0.3938611149787903 -1.1664836406707764
2.6425013542175293 0.3034380376338959 0.39659273624420166
-2.3006138801574707 0.6720399856567383 -0.898032009601593
1.8112503290176392 -0.0986272543668747 -1.1576393842697144
2.481966972351074 0.5659401416778564 -0.7625685930252075
0.4054156541824341 -0.38660526275634766 0.4804941713809967
2.6193222999572754 -0.5893383026123047 1.056368112564087
1.0925531387329102 0.6636046171188354 -1.2321330308914185
1.443594217300415 0.5615758895874023 -0.5537347197532654
1.2813564538955688 0.08459658175706863 -0.1285783350467682
1.345495581626892 -0.3389841318130493 -1.1452422142028809
0.652131199836731 1.2894725799560547 0.026730146259069443
0.38572120666503906 0.5479093790054321 -0.13401401042938232
1.2474195957183838 0.9738160371780396 0.2727504074573517
-0.17287001013755798 0.4376647472381592 0.8628837466239929
2.0542685985565186 0.16096343100070953 -0.9262421727180481
2.8937573432922363 0.30065733194351196 1.119632363319397
1.592562198638916 -0.40871214866638184 -0.734234631061554
-2.5650219917297363 -0.25769513845443726 -0.6225645542144775
0.25644123554229736 -0.20329833030700684 -1.1833927631378174
0.8219828605651855 1.2333526611328125 0.3597482144832611
-1.5864735841751099 1.2931694984436035 0.2930590510368347
0.12274333834648132 0.04638074338436127 -0.31908029317855835
-1.1883913278579712 -0.7421053647994995 -1.038485050201416
1.4292628765106201 1.0784192085266113 -0.7305764555931091
0.30134105682373047 1.009300947189331 -0.10348731279373169
-2.563508987426758 -0.11840808391571045 0.593876302242279
-0.6477346420288086 0.050339072942733765 1.2001380920410156
-2.5893545150756836 -0.2634393572807312 -0.3170664310455322
-1.68514883518219 -0.46668753027915955 -1.1418074369430542
-1.4291547536849976 -0.8278040289878845 -0.8409584164619446
-0.16445384919643402 0.830463707447052 0.6666093468666077
2.0172836780548096 -0.3985068202018738 -0.8180813789367676
2.630138874053955 0.3003961145877838 0.07837828248739243
-2.316558599472046 -0.34710168838500977 0.01745181903243065
2.271243095397949 -0.19039347767829895 0.884412944316864
-1.1541640758514404 -0.7786786556243896 -0.8845816254615784
-0.6261962056159973 0.34942758083343506 1.2023835182189941
2.15788197517395 0.2442971020936966 1.174578309059143
-2.402714490890503 0.46334171295166016 0.7514752745628357
3.1559863090515137 0.017616450786590576 0.18364809453487396
-1.061255693435669 0.8807704448699951 0.14886631071567535
0.46139615774154663 0.6830997467041016 0.8548501133918762
1.2408994436264038 -0.40137484669685364 -0.26143282651901245
2.0010623931884766 -0.7500231266021729 -0.926245927810669
0.37117892503738403 1.3210259675979614 0.22065716981887817
0.8429940938949585 -0.012833952903747559 -0.524971067905426
2.061081886291504 0.0010059177875518799 1.1887398958206177
0.9019137620925903 0.09061937779188156 0.12876074016094208
1.3042186498641968 0.008845940232276917 -0.7097673416137695
1.3680369853973389 0.45209211111068726 0.6368873715400696
0.6629366278648376 1.1029597520828247 -0.9941063523292542
1.854936957359314 -0.23557515442371368 0.8247923254966736
-0.8390817046165466 0.5168163180351257 -1.208945393562317
-2.5779969692230225 -0.05903920531272888 0.4186813235282898
1.8031028509140015 -0.25212085247039795 -0.23595832288265228
-1.2459479570388794 -0.3720690906047821 0.35364800691604614
-1.5807307958602905 1.3020752668380737 0.07003410905599594
1.835570216178894 -0.3928411602973938 1.151013970375061
-0.5654780268669128 0.9158272743225098 0.8828063011169434
0.37306222319602966 0.4889478087425232 -0.20818006992340088
-1.4856334924697876 -0.8312138319015503 1.238613247871399
-2.0153913497924805 -0.36650681495666504 -0.6520555019378662
2.6452839374542236 -0.6563087701797485 -1.0137511491775513
-1.346978783607483 -0.36258453130722046 0.3381499648094177
-1.1326180696487427 1.1269115209579468 0.047363635152578354
0.0827808752655983 1.3086464405059814 -0.8244889974594116
1.7210509777069092 0.14504536986351013 -0.7589244246482849
-0.14132697880268097 0.941222608089447 0.31959742307662964
-1.773958683013916 -0.3862023651599884 0.7882816791534424
1.0288280248641968 1.1539226770401 0.05212418735027313
-2.1323423385620117 -0.3518611788749695 -0.09601391851902008
1.5059802532196045 1.0449275970458984 0.9260570406913757
0.1769934445619583 -0.1023046225309372 0.1378968060016632
-0.972831130027771 1.0262415409088135 0.6041317582130432
0.41272884607315063 0.18751390278339386 -0.3285498321056366
0.8231023550033569 0.43750494718551636 -0.195607990026474
0.6691383719444275 0.012371361255645752 -0.5603878498077393
-2.5446431636810303 0.0899830088019371 -1.0556946992874146
1.6909172534942627 -0.11869436502456665 -0.12859812378883362
0.8610782623291016 0.6790157556533813 0.9319924116134644
1.3258901834487915 0.28574472665786743 0.2796461582183838
0.9420254230499268 0.17024552822113037 -0.41182753443717957
-2.321227550506592 0.6313725113868713 -0.6539985537528992
0.1319475919008255 -0.12409903109073639 1.2119604349136353
-0.18887729942798615 1.0061925649642944 0.25820574164390564
1.1301356554031372 0.22783568501472473 -0.7068619728088379
-1.6216636896133423 -0.3060723543167114 1.1829239130020142
-2.485377073287964 0.17313252389431 0.3964116871356964
2.8808772563934326 -0.45887529850006104 -0.8032209873199463
1.9124547243118286 -0.02806548774242401 -0.8994966745376587
-0.4832214415073395 0.27023154497146606 -1.220055103302002
-0.10330449044704437 -0.481602281332016 1.1817350387573242
2.793957233428955 0.21390964090824127 0.3457655608654022
1.3378316164016724 1.1518466472625732 0.5177228450775146
1.1205910444259644 0.8977591395378113 -1.0623761415481567
0.8779730796813965 0.7213078141212463 0.9573483467102051
0.08136123418807983 0.4034912586212158 -0.6122090816497803
-0.2714444696903229 0.046354442834854126 -1.2107713222503662
-0.9347333908081055 1.0521165132522583 0.7691907286643982
2.8429620265960693 0.11579002439975739 -0.2855687439441681
1.4503884315490723 0.41533833742141724 -1.17188560962677
-1.4804885387420654 -0.37129664421081543 -0.3426949381828308
0.4223991930484772 -0.499042809009552 1.170130968093872
0.9941956400871277 0.7171960473060608 0.4219414293766022
2.7148566246032715 0.4987119138240814 0.10151925683021545
0.3216986358165741 0.17643311619758606 0.4923687279224396
-1.2802547216415405 0.9411001205444336 -1.0728663206100464
-0.853000819683075 1.2990864515304565 -0.6878474950790405
0.33404284715652466 0.7619354128837585 -1.1488593816757202
-2.4664180278778076 0.3731608986854553 -1.0932021141052246
1.6241158246994019 -0.37703680992126465 0.8739038705825806
2.0327842235565186 -0.18661631643772125 -0.8440390825271606
1.117453694343567 0.3841397166252136 -1.1920371055603027
2.6501739025115967 0.16361309587955475 -1.1697126626968384
1.6779823303222656 0.15165093541145325 -0.6530755162239075
1.8209480047225952 0.917888879776001 0.6219483017921448
2.03558087348938 0.18017514050006866 0.9506440758705139
0.7472115755081177 0.6383600234985352 -0.15455134212970734
1.6863845586776733 0.13581348955631256 0.2259255200624466
-1.2238714694976807 -0.27360832691192627 -1.1383845806121826
-0.9651756286621094 -0.03816232085227966 1.197232961654663
-1.9241328239440918 -0.3514823913574219 0.3951781988143921
-0.5544509887695312 0.5098271369934082 -1.2189526557922363
2.6037721633911133 -0.16919977962970734 -1.157464861869812
-1.0823934078216553 0.9562326669692993 0.08842847496271133
1.8742560148239136 -0.6637206077575684 1.0560667514801025
1.1504312753677368 0.7073467969894409 1.1009279489517212
-0.3973117172718048 -0.5255594253540039 1.1867846250534058
-1.723654866218567 -0.40787798166275024 -1.1433327198028564
-1.046392798423767 1.3374305963516235 0.13449369370937347
-0.3051324486732483 0.9805577993392944 0.4809754192829132
0.3919471502304077 0.8866989016532898 -1.0967092514038086
-0.55862957239151 1.093385934829712 -0.14796999096870422
-1.355708360671997 -0.8666502237319946 0.9448285698890686
-0.37882137298583984 -0.5694241523742676 1.1723411083221436
-1.1824331283569336 0.8252900838851929 1.118249773979187
0.6797219514846802 0.37948113679885864 0.0019407577347010374
0.36883872747421265 0.4208925664424896 -0.48605912923812866
0.9525997638702393 0.19377866387367249 -0.8505948781967163
2.2209360599517822 -0.4582003057003021 -1.0490294694900513
1.0392082929611206 0.017321735620498657 0.7484085559844971
0.5011252760887146 1.0197182893753052 -1.0374268293380737
2.5277695655822754 0.5635716915130615 -0.3690493106842041
-0.703285276889801 -0.4699462056159973 0.934009313583374
-2.4342591762542725 0.4670919179916382 -0.9607244729995728
1.0917372703552246 0.11547999083995819 0.3676016628742218
1.1066420078277588 1.1603655815124512 -0.735089898109436
1.9631705284118652 -0.10505862534046173 -0.8742035627365112
-0.09525496512651443 0.6950260400772095 0.41271504759788513
1.870271921157837 0.3910413384437561 -0.7955889105796814
0.2811070680618286 -0.5209851264953613 1.1010111570358276
1.913912296295166 0.5834726095199585 0.2572733163833618
-0.5624368786811829 -0.25756680965423584 1.177229881286621
-1.1337440013885498 0.9900532960891724 -0.100394606590271
0.8237727880477905 -0.050105512142181396 -1.1843065023422241
-0.6695676445960999 -0.6107075214385986 1.044427752494812
1.9025760889053345 0.5593557357788086 1.099980354309082
2.71748948097229 0.2736562192440033 -0.35073408484458923
-0.617906928062439 0.9962419271469116 0.2584192752838135
0.9871034026145935 0.8187188506126404 -0.8160066604614258
0.576337993144989 1.0797340869903564 0.10747360438108444
1.1432032585144043 -0.37991610169410706 0.5807346701622009
-1.1610217094421387 1.322406530380249 -0.3699895739555359
0.5573540925979614 1.2054688930511475 0.9501644372940063
-0.2016066014766693 1.156538486480713 -0.6276839971542358
-1.3773400783538818 -0.3372408151626587 1.157792568206787
-0.19263029098510742 0.8721619248390198 -0.2331431657075882
2.5633208751678467 0.3117559552192688 -0.6248739957809448
-1.094757080078125 -0.376425176858902 -0.3738531172275543
2.5988597869873047 0.31154510378837585 -0.8021430969238281
-0.7030266523361206 -0.5686349868774414 -0.8335952162742615
1.0336902141571045 0.1228858008980751 -0.3522683382034302
2.1059672832489014 0.44982337951660156 -1.120282530784607
0.12160444259643555 0.31639423966407776 1.2161073684692383
1.0951757431030273 0.9964572191238403 0.2592368721961975
-1.378145456314087 -0.8807306885719299 0.9483878016471863
2.5117523670196533 -0.02809944748878479 1.1852571964263916
1.557083010673523 -0.11016976833343506 -0.00020064020645804703
0.9179860353469849 0.23287659883499146 -0.5355978012084961
1.0718088150024414 0.08914294838905334 -0.07154294848442078
-1.911179542541504 -0.3968653976917267 -0.8215138912200928
0.5641730427742004 0.5141398310661316 0.9087487459182739
-0.9881221055984497 -0.4577164053916931 0.9048239588737488
-0.2883317470550537 -0.3901713788509369 -0.29729390144348145
3.151484251022339 -0.19635547697544098 -0.7012330293655396
-0.8598060607910156 -0.38213086128234863 0.09184946864843369
2.132901668548584 0.09541863948106766 1.1854671239852905
2.7569236755371094 0.08587127178907394 1.1768988370895386
0.012018181383609772 0.7988224625587463 0.30445486307144165
-0.709575891494751 1.3290657997131348 0.09202881902456284
-2.0436482429504395 -0.3487952947616577 0.28940877318382263
1.0835306644439697 0.37367141246795654 0.7238820195198059
0.900757372379303 -0.3695470988750458 0.7464581727981567
-1.4698561429977417 -0.3570152223110199 0.07184441387653351
1.2954908609390259 0.05800049006938934 0.9783458709716797
0.7589523196220398 0.46153199672698975 -0.025300612673163414
1.6093579530715942 0.2669106423854828 -0.2543071508407593
-0.049680497497320175 1.0088095664978027 0.15106798708438873
1.557070016860962 0.22949109971523285 1.1983228921890259
0.9432184100151062 -0.40766119956970215 -0.46818211674690247
-0.22915232181549072 -0.40209344029426575 0.662605881690979
-1.243586778640747 0.5524328947067261 -1.1959705352783203
0.932519257068634 0.2657296359539032 -0.8556327819824219
1.7613036632537842 -0.3510475754737854 -1.1405911445617676
0.43057966232299805 0.2792634963989258 1.2095789909362793
-2.3873891830444336 -0.34208807349205017 -0.3046685457229614
1.4932351112365723 0.9892013669013977 0.9916197061538696
-2.488826036453247 0.2977635860443115 -1.0028043985366821
-2.5680668354034424 -0.03588774800300598 -0.39853420853614807
0.6861610412597656 -0.38763657212257385 0.5922647714614868
-2.0914974212646484 0.870145320892334 -0.9640133380889893
-1.456268072128296 -0.4624205231666565 -0.8009487390518188
1.5994784832000732 0.618095874786377 -0.29194626212120056
0.9756304025650024 0.3028044104576111 0.4816990792751312
1.3981740474700928 0.5868859887123108 0.6768447756767273
-0.8137959241867065 -0.39305150508880615 0.15859907865524292
2.1626508235931396 -0.22682936489582062 1.1699206829071045
-1.0321481227874756 -0.4287850856781006 1.1900159120559692
0.5558738112449646 -0.4058598279953003 0.31403133273124695
0.369080126285553 -0.40943196415901184 -0.5086201429367065
0.8009963035583496 -0.39437082409858704 0.5291841626167297
-0.716454029083252 0.8252496719360352 -0.411886066198349
-0.26492682099342346 -0.4061112701892853 -0.6270202994346619
1.1455696821212769 0.5720754265785217 -0.8707624077796936
-0.26747167110443115 0.727837085723877 0.5568451285362244
-1.4404194355010986 1.3290443420410156 0.343994140625
1.0529457330703735 0.7452733516693115 -1.2348300218582153
2.773348331451416 0.24785345792770386 1.1523518562316895
1.7195007801055908 0.676352858543396 -0.22489885985851288
-2.447620391845703 0.25385192036628723 0.7050653696060181
3.078834056854248 0.15988297760486603 -0.7425293326377869
-0.9340708255767822 0.8716394901275635 0.8218291401863098
2.755722999572754 -0.5688159465789795 -0.7905745506286621
-0.8828883767127991 -0.5636885166168213 0.8802785277366638
0.40260079503059387 -0.2664019465446472 1.1936707496643066
3.064912796020508 0.12607787549495697 -0.7763044238090515
1.662381887435913 0.259077787399292 0.30286967754364014
0.11451654881238937 -0.26467829942703247 0.9227805733680725
2.2831523418426514 0.38359129428863525 -0.3486744463443756
-1.0949128866195679 1.3244117498397827 0.10956808924674988
-1.5389368534088135 -0.1977047324180603 1.1967206001281738
1.1853257417678833 0.2597196102142334 0.43743225932121277
-0.26200026273727417 0.9601304531097412 0.295937716960907
1.829325556755066 0.6575729846954346 -0.6469549536705017
1.5854674577713013 -0.1864154040813446 -0.15259075164794922
-2.322756767272949 0.6268597841262817 -0.5351027846336365
0.47719624638557434 0.24516037106513977 1.2104449272155762
1.113952398300171 0.13531304895877838 -0.8298106789588928
-1.7529760599136353 -0.35681578516960144 -0.27713802456855774
1.784153699874878 -0.2615010142326355 0.5042904019355774
-1.3213523626327515 -0.8319951891899109 0.8900426030158997
1.0791752338409424 0.682522177696228 0.9025412797927856
1.3463221788406372 0.031901612877845764 0.4694390296936035
-1.7570867538452148 -0.36149317026138306 -0.30297908186912537
-2.630326509475708 -0.14963960647583008 -0.17638500034809113
-1.8395856618881226 -0.4304521977901459 -0.7598719596862793
-0.34712880849838257 -0.5837896466255188 -0.9313170909881592
0.3626967966556549 1.107895851135254 -0.4102376103401184
0.42135748267173767 -0.03814949095249176 -1.1920276880264282
0.7131707072257996 0.549342155456543 0.6663761734962463
0.08638313412666321 1.3270894289016724 -0.2785826325416565
-2.3984103202819824 -0.3883722424507141 -0.8260767459869385
0.16291077435016632 -0.39664947986602783 -0.6870160698890686
-0.8249721527099609 1.0545120239257812 -0.6447634100914001
2.535015344619751 0.3188747763633728 0.5193906426429749
-1.1890836954116821 0.7930882573127747 1.105726718902588
2.801893711090088 0.4515056014060974 -0.5149336457252502
-1.5416709184646606 -0.36295413970947266 -0.4176954925060272
-2.5856378078460693 -0.1975560039281845 -0.4155382215976715
2.3169140815734863 0.41459763050079346 0.043390657752752304
-1.924835205078125 -0.3657457232475281 -0.6408816576004028
1.3101221323013306 -0.46624237298965454 -0.877166748046875
0.4274091124534607 0.6790885925292969 -1.1845283508300781
-0.22745293378829956 0.7549366354942322 -1.1524388790130615
-0.5857725739479065 0.7584652304649353 0.03698607534170151
-0.8689128160476685 0.9342728853225708 -1.0543025732040405
1.597375750541687 1.0594770908355713 0.7884325385093689
1.5041850805282593 0.07348421961069107 0.2431073933839798
-1.7090071439743042 1.2016558647155762 -0.17128072679042816
-0.24961180984973907 0.6693534255027771 -1.1802911758422852
2.291337251663208 -0.31812968850135803 0.8164874911308289
2.609287738800049 0.374843031167984 -0.9004291296005249
1.2003997564315796 0.21740706264972687 0.1395527422428131
-0.15684783458709717 1.2528454065322876 -0.9283057451248169
-1.5457592010498047 -0.361252099275589 0.08924669772386551
0.07093194127082825 0.1613723784685135 -1.2116670608520508
2.8333263397216797 0.13722079992294312 -0.24332445859909058
-0.9790106415748596 -0.48769611120224 1.187169075012207
1.1438641548156738 -0.019543230533599854 0.8935137391090393
1.5466939210891724 -0.1993369162082672 0.6915076971054077
-2.4627087116241455 0.21194374561309814 0.470971018075943
1.8820143938064575 -0.24257530272006989 1.1834365129470825
-1.671614170074463 -0.6055620312690735 1.201397180557251
1.753904938697815 1.04025399684906 0.283684104681015
3.1186623573303223 0.03709947317838669 0.7489854693412781
1.8874025344848633 -0.5142099857330322 0.7860493659973145
2.2323849201202393 -0.659817099571228 -0.823448657989502
1.5673918724060059 0.8685512542724609 1.0988082885742188
0.8482040762901306 0.3007688522338867 -0.44366133213043213
-2.452852964401245 -0.35968929529190063 0.44237926602363586
3.1522703170776367 -0.36162620782852173 0.24649034440517426
2.7459683418273926 0.44252434372901917 0.6714538335800171
1.1116690635681152 0.9512513875961304 0.3485185205936432
0.3104160726070404 1.3293626308441162 0.03079451061785221
2.528169870376587 0.37765973806381226 -1.129897117614746
-2.472961187362671 0.3259626030921936 -0.6022987961769104
-0.2563821077346802 1.3220853805541992 -0.1284550577402115
-1.4141446352005005 -0.8669152855873108 0.9444588422775269
0.19263581931591034 1.3233588933944702 0.4559258818626404
-1.6161917448043823 -0.27207833528518677 1.190138816833496
0.8577843904495239 0.29128724336624146 0.8229877352714539
-2.180680751800537 -0.16103017330169678 1.1648074388504028
2.8932671546936035 0.40035685896873474 -0.7985588312149048
0.20233334600925446 -0.5644983649253845 1.0782766342163086
1.8611100912094116 0.9720548987388611 -0.24010342359542847
-2.3846540451049805 0.5186217427253723 0.8895007371902466
1.7466115951538086 -0.5072999000549316 1.0892270803451538
0.08087311685085297 -0.3658093214035034 1.197823166847229
-1.5498281717300415 -0.3584064543247223 0.4819878935813904
2.8575921058654785 -0.09810531139373779 -0.7054792046546936
-0.057063959538936615 1.1488397121429443 -0.6523237824440002
-2.3131892681121826 0.6258116960525513 -0.831199049949646
2.5715062618255615 -0.05256769061088562 0.8741501569747925
-1.0785754919052124 -0.546154260635376 -1.1870536804199219
1.660233736038208 -0.41142910718917847 -0.4939429461956024
0.6366122961044312 1.0934041738510132 -0.6325584053993225
1.047590732574463 -0.014220863580703735 0.8173980712890625
1.805722713470459 0.16198861598968506 0.9458417892456055
2.108778476715088 0.5192717909812927 1.121143102645874
1.2087838649749756 0.7603437304496765 0.5422773361206055
1.404283046722412 1.0912981033325195 -0.6799129247665405
2.7592458724975586 -0.18061868846416473 0.871320366859436
1.163181185722351 1.1003880500793457 -0.9099017977714539
-2.3789212703704834 0.5142215490341187 -0.009356053546071053
0.02878200262784958 1.3332033157348633 0.23034927248954773
-0.2320389449596405 -0.39660176634788513 0.17326095700263977
3.060783624649048 -0.3920012414455414 0.4116753041744232
-2.4074888229370117 0.5257462859153748 -0.8687054514884949
-2.0554935932159424 -0.42914777994155884 0.9728086590766907
0.9991397857666016 0.2910451292991638 0.721386730670929
0.5606337189674377 0.6271844506263733 -0.1270478069782257
-1.2844406366348267 -0.35056746006011963 -0.5235848426818848
-2.4424796104431152 0.3622012138366699 0.3470275104045868
0.9443819522857666 -0.3961402177810669 0.33411452174186707
-0.04346811771392822 0.5957546234130859 0.3402295708656311
0.668362557888031 0.44606834650039673 0.1528698205947876
1.3938117027282715 0.7338393926620483 1.246203899383545
0.09054404497146606 0.5692275762557983 0.505726158618927
0.5633063316345215 -0.4086686372756958 -0.574588418006897
2.8491225242614746 -0.44188591837882996 0.8912087678909302
0.1202782541513443 -0.40985190868377686 -0.6197991371154785
1.9778779745101929 0.7730783224105835 0.7450650334358215
-0.983193576335907 -0.5968101024627686 1.1942179203033447
-1.6213411092758179 1.2003165483474731 -0.888616144657135
2.8683481216430664 -0.18826355040073395 0.6692161560058594
-0.6582179665565491 0.21149465441703796 -1.2204798460006714
-1.803538203239441 -0.5469872951507568 1.1904963254928589
1.4593652486801147 1.1261413097381592 0.389129102230072
-1.7967636585235596 0.7561739087104797 -1.119123935699463
-0.8467233777046204 -0.6133376359939575 0.9729123711585999
2.0671517848968506 0.5140474438667297 -0.10379820317029953
1.4439092874526978 0.8236773014068604 -0.7683743238449097
0.40723273158073425 0.7536381483078003 0.5453392267227173
-1.8155291080474854 1.143906831741333 -0.038919847458601
-2.4055330753326416 0.5391671061515808 -0.7319560647010803
1.8471978902816772 -0.4106670022010803 -0.2985668480396271
1.9230365753173828 0.11893439292907715 1.1911969184875488
-0.07652215659618378 0.1948384940624237 1.2149724960327148
1.8898690938949585 0.559514045715332 0.1597631722688675
-0.24691013991832733 -0.007407426834106445 -1.2134448289871216
-1.4812873601913452 -0.8836431503295898 0.9980423450469971
1.412148356437683 0.4306584596633911 -0.12407761067152023
0.014204408973455429 0.6522769331932068 -0.11776359379291534
0.6198080778121948 0.4906981885433197 0.8590590953826904
-0.5062069892883301 0.6970475912094116 0.3047744929790497
2.0295708179473877 -0.4950951933860779 1.1647989749908447
0.8723025321960449 0.5715904235839844 0.29147273302078247
-0.47119927406311035 1.2815955877304077 0.5742958188056946
-2.541633129119873 -0.3806192874908447 0.21616677939891815
-0.6944449543952942 0.029718369245529175 1.19981050491333
-1.527413010597229 1.296652913093567 -0.4303329885005951
1.9743610620498657 -0.6220546960830688 0.8113324642181396
-1.2381058931350708 -0.008674278855323792 -1.185078501701355
-2.3587732315063477 -0.3806551396846771 1.1287119388580322
1.2914384603500366 -0.13088250160217285 0.7280835509300232
3.225051164627075 -0.24797853827476501 0.08575932681560516
-2.4336366653442383 0.3546164631843567 0.1595693826675415
-1.0914746522903442 -0.37219303846359253 -0.4420275390148163
2.044649600982666 -0.23812519013881683 -0.9670931696891785
