ply
format ascii 1.0
element vertex 811
property float x
property float y
property float z
end_header
-1.6758886575698853 0.47408047318458557 -0.30611175298690796
1.9240647554397583 -0.3160034418106079 0.9273878931999207
0.41473981738090515 0.25007006525993347 -0.6126811504364014
-1.2405909299850464 -0.02776239812374115 0.4619537889957428
-1.7582049369812012 1.0031256675720215 -0.7026098966598511
-0.25368964672088623 -0.5941363573074341 1.003761887550354
-2.0537238121032715 -0.32388174533843994 0.1528603434562683
0.484960675239563 -0.545096218585968 0.04367527738213539
-1.0914589166641235 0.4567958116531372 0.0953105092048645
-2.5392677783966064 -0.30451297760009766 0.003561404999345541
0.39622217416763306 -0.2427220642566681 0.19740670919418335
1.6575247049331665 -0.456301212310791 0.401496022939682
-1.3151804208755493 0.05083940923213959 0.8066747188568115
-0.3075159788131714 -0.2573261857032776 0.5148859620094299
0.16875796020030975 0.7654846906661987 0.05923251062631607
-2.174349308013916 0.8020369410514832 0.266705721616745
-1.6976357698440552 0.6783469915390015 -0.773233950138092
0.6373358964920044 0.1838800311088562 -0.5721750855445862
0.8039274215698242 -0.5341110229492188 0.08175167441368103
0.02702023833990097 0.09912934899330139 0.22800111770629883
0.3526419699192047 0.16622324287891388 -0.13963177800178528
1.9409960508346558 -0.22495268285274506 -0.25573182106018066
-2.338129997253418 0.8048750758171082 0.021225130185484886
-0.10560976713895798 0.7186102271080017 0.9424100518226624
-1.6430295705795288 0.37098228931427 -0.6163482666015625
-0.00042052194476127625 0.4573201537132263 0.018159126862883568
2.194852352142334 -0.37879544496536255 -0.5518118143081665
0.7598297595977783 0.36419373750686646 -0.577796459197998
0.7295230031013489 0.19771939516067505 1.1327394247055054
-2.0207724571228027 0.2815566658973694 0.7875291109085083
-1.3817049264907837 0.6429703831672668 0.9552791118621826
0.3742874562740326 1.2808161973953247 0.33766254782676697
0.25945448875427246 -0.5545287728309631 -0.03615417331457138
-1.6664726734161377 -0.22500230371952057 -1.3610594272613525
-1.208350658416748 1.2241030931472778 -0.23614612221717834
-1.3127957582473755 -0.13265451788902283 -1.098193883895874
-0.04990503937005997 0.36130261421203613 -0.2505286633968353
0.3421420156955719 0.13556358218193054 0.596827507019043
-1.920490026473999 0.8944137692451477 0.19145485758781433
-1.821266770362854 0.9795156121253967 -0.0400145947933197
1.395461082458496 0.38206902146339417 0.11879921704530716
-1.507772445678711 1.3175746202468872 0.4734865128993988
-2.44460391998291 0.35613465309143066 -0.14878909289836884
0.0012680217623710632 -0.48060327768325806 0.7973892092704773
-2.3900599479675293 -0.40701180696487427 0.8557231426239014
-1.6901646852493286 -0.3837263286113739 1.1706161499023438
-1.5363922119140625 0.44015371799468994 -0.3601967692375183
-1.7024086713790894 0.08273501694202423 -0.07399968057870865
1.6977243423461914 0.16624388098716736 0.16706714034080505
-0.8503526449203491 0.0013952255249023438 0.817158043384552
-2.0195865631103516 -0.4172637164592743 -0.21165041625499725
-1.5613679885864258 0.6332080364227295 -0.49994948506355286
-1.7835254669189453 -0.13357307016849518 0.6761344075202942
0.788097083568573 -0.2726342976093292 0.03786517307162285
-1.261061668395996 0.36945030093193054 -0.5952192544937134
1.196189522743225 -0.16103439033031464 0.42168277502059937
-1.1574102640151978 0.48786789178848267 -0.6930035948753357
-2.161146640777588 0.6269176006317139 0.2762581706047058
1.9861501455307007 0.50577312707901 -0.3174704611301422
0.8161141872406006 0.7036580443382263 -0.39360693097114563
1.9491711854934692 -0.36065584421157837 0.0949128121137619
-1.4751853942871094 1.2659492492675781 -0.7722128033638
-1.333490252494812 0.7243601083755493 -0.21584688127040863
-0.6871458292007446 1.2635552883148193 -0.31805282831192017
1.4454166889190674 0.18997183442115784 0.7981318235397339
0.7911233305931091 0.130024716258049 0.6224729418754578
0.2682841420173645 -0.2856350541114807 0.4047139585018158
-1.2118288278579712 0.9067702889442444 -0.9891430735588074
-0.24306127429008484 0.5896472930908203 0.9759597182273865
-0.46265485882759094 0.6302541494369507 0.44480833411216736
-1.611570119857788 0.22779515385627747 -0.19611027836799622
1.3128219842910767 0.16854463517665863 0.19467094540596008
2.0709540843963623 -0.4304073452949524 0.6437485814094543
0.9640047550201416 -0.38812729716300964 1.0175623893737793
-2.2309587001800537 0.11739034950733185 0.7310693264007568
-0.5339070558547974 0.81876540184021 0.46149149537086487
-0.18809844553470612 0.23768478631973267 0.03855833411216736
-0.1623195856809616 0.3759356737136841 -1.2263169288635254
-1.500679612159729 -0.06148892641067505 0.5217031836509705
-0.472732812166214 0.8228018283843994 0.051627881824970245
0.33380669355392456 0.5115533471107483 0.5424202680587769
-1.9071155786514282 -0.548835813999176 0.6135095953941345
-1.492957353591919 0.13633742928504944 -0.5621639490127563
0.5122885704040527 -0.3943467140197754 1.1836552619934082
0.7143262624740601 0.5184372663497925 -0.14204992353916168
-2.091121196746826 -0.08176529407501221 1.0965114831924438
-0.7187483310699463 0.5341792106628418 -0.14255499839782715
-0.5302866697311401 1.0730667114257812 -0.22201232612133026
-0.5498890280723572 0.2025400847196579 0.7568117380142212
0.7991511225700378 0.9469216465950012 0.8259850144386292
-1.9636225700378418 -0.23368071019649506 0.4890989661216736
0.7622993588447571 0.7509325742721558 0.84897381067276
0.3178550601005554 -0.3890170454978943 0.0975426435470581
1.4806784391403198 0.5689314603805542 0.5909850001335144
1.5581399202346802 0.724223256111145 -1.0874409675598145
-1.9614202976226807 0.5570913553237915 -1.3674488067626953
1.1653963327407837 -0.24522665143013 -1.0245351791381836
-1.4823788404464722 1.298284649848938 -1.109440803527832
-0.8534238338470459 1.0029436349868774 -0.001235774951055646
-2.10256290435791 -0.45002326369285583 -0.6392717957496643
0.19815129041671753 0.1977335512638092 -0.059675220400094986
-0.7396783828735352 0.3217204809188843 0.6146174669265747
0.3802465796470642 0.16578739881515503 -0.23872345685958862
1.2382431030273438 0.21809834241867065 0.7583965063095093
0.8248156309127808 0.05214090645313263 0.6246145963668823
0.2206433117389679 0.43706178665161133 -0.3599224388599396
-1.6437968015670776 0.7528426647186279 0.6337961554527283
-0.08617044240236282 0.6443566679954529 0.5726502537727356
1.4505343437194824 -0.10201315581798553 0.29965516924858093
0.42044302821159363 -0.2435172200202942 -0.578618049621582
0.7126764059066772 -0.4958335757255554 0.2952685058116913
-1.650197982788086 -0.4595411419868469 0.06593912094831467
1.8840248584747314 0.4062908887863159 -0.34561237692832947
0.690329372882843 0.9337753653526306 -0.8055219054222107
-1.3165227174758911 0.8418369293212891 -0.3485995829105377
-1.4283074140548706 0.16241081058979034 -0.43571463227272034
-1.2915621995925903 -0.23692657053470612 0.446445494890213
2.0848238468170166 0.35856521129608154 0.7825543284416199
-0.7507880926132202 0.9800605177879333 -0.4785044193267822
1.545426607131958 0.052782148122787476 0.5846896171569824
0.39358341693878174 0.6697355508804321 -0.1369449645280838
1.2411142587661743 0.2742810845375061 0.6611491441726685
-2.2951760292053223 0.14784637093544006 -0.7617271542549133
-1.9833405017852783 -0.06691549718379974 -0.2799650728702545
-2.139434576034546 0.0377373993396759 0.16659137606620789
-1.679785132408142 1.0578913688659668 0.17498242855072021
-0.05034574493765831 0.3687940537929535 -0.9384995698928833
1.4416146278381348 0.30739837884902954 0.1832284927368164
-0.3592810034751892 0.7639225721359253 0.4335085451602936
-0.0369160994887352 0.7925422191619873 0.3941812217235565
-0.08328011631965637 -0.2864576280117035 0.1953522264957428
0.5827425718307495 -0.4583987891674042 0.09089908003807068
0.7490471601486206 -0.49455639719963074 0.25214213132858276
1.7571240663528442 0.3049011826515198 -0.9257838129997253
-1.9569272994995117 0.7466349601745605 -0.3236854076385498
0.3440490663051605 0.5239342451095581 0.30350133776664734
0.64421147108078 0.423179030418396 -0.5295511484146118
2.071079730987549 0.6179438829421997 0.3261798024177551
-0.06949759274721146 -0.20135904848575592 -0.15384015440940857
-2.207644462585449 -0.56313556432724 0.5998160243034363
-1.835791826248169 -0.2174520492553711 -0.7756789922714233
1.3451322317123413 0.6145470142364502 0.35899975895881653
-1.6832424402236938 0.023598477244377136 0.1826348900794983
-0.9851242899894714 -0.37869328260421753 -0.12791599333286285
0.2973144054412842 -0.17701025307178497 0.6901558041572571
0.993880569934845 -0.05335718393325806 0.4079419672489166
0.6728919744491577 0.4561891555786133 -0.549079418182373
-1.4441341161727905 0.4838007688522339 -0.2662510871887207
-0.7014829516410828 -0.08291591703891754 0.011855660006403923
-1.7954249382019043 0.679111659526825 -0.26177307963371277
-1.07292902469635 0.028882786631584167 0.9896408915519714
-0.321781724691391 -0.33525729179382324 -0.6105791926383972
1.0811264514923096 0.6622889637947083 -0.9807478785514832
-0.2861121892929077 1.2365485429763794 0.014188453555107117
1.2047446966171265 -0.17159080505371094 0.5333770513534546
0.330782026052475 0.5206990838050842 -1.0350630283355713
-1.9265297651290894 -0.2140607237815857 -0.7031554579734802
0.7279949188232422 -0.20259930193424225 -1.1052024364471436
-1.4469712972640991 -0.029924675822257996 0.1980445683002472
-1.0051522254943848 -0.32683274149894714 0.23147155344486237
0.5931167006492615 -0.24262262880802155 -0.6040263175964355
-0.031214453279972076 0.2294866293668747 -0.5527332425117493
-1.849182367324829 0.8628953099250793 0.7403939366340637
-0.7625270485877991 0.259609192609787 0.5132254362106323
-0.9527347683906555 -0.2302815169095993 0.318241149187088
0.4338163435459137 0.7161255478858948 -0.5128268599510193
-1.084527850151062 -0.35492274165153503 -0.11007329076528549
1.5670808553695679 -0.11668337881565094 0.10810539126396179
-2.04263973236084 0.7479117512702942 0.04722632095217705
0.6489970088005066 -0.41989362239837646 0.1768483817577362
-1.7788738012313843 1.2764605283737183 -0.5210109949111938
0.0833631157875061 0.8502500653266907 -0.24911713600158691
0.8948955535888672 -0.2703227996826172 -0.026134159415960312
0.35272687673568726 -0.55586838722229 0.04882809519767761
-2.3148632049560547 0.65924471616745 -1.0810106992721558
1.2789045572280884 -0.3567740023136139 -0.06072118878364563
0.8305056095123291 0.29750603437423706 -0.358310729265213
-2.4393882751464844 0.6145557761192322 1.0623383522033691
1.1957128047943115 -0.3367427587509155 -0.9579267501831055
1.5906873941421509 0.19333229959011078 0.7302485704421997
-1.2457096576690674 0.7232269048690796 0.17739558219909668
0.4003095030784607 0.25377336144447327 0.22420227527618408
-0.35074979066848755 0.31483471393585205 0.23272857069969177
-0.07343970984220505 0.0279695987701416 0.61479651927948
-0.6415981650352478 0.6645844578742981 -1.3596434593200684
0.6683897376060486 0.22895069420337677 0.9328200817108154
-2.227839231491089 0.4103040397167206 -0.4490676522254944
-1.7437257766723633 1.2509901523590088 -0.4553922414779663
-0.8026124835014343 0.4244556427001953 -0.6482009887695312
-0.41701459884643555 1.2243647575378418 0.009598189033567905
-2.009540557861328 -0.41246581077575684 -0.7055305242538452
-1.1802692413330078 0.6465644836425781 -0.3544590473175049
-0.3966149687767029 0.8596271276473999 -1.1514991521835327
-1.8082935810089111 1.232816457748413 0.11979030072689056
0.5955599546432495 -0.19681888818740845 1.2234536409378052
-2.0576171875 0.7798671126365662 -0.5270859599113464
-1.2481745481491089 -0.0020497143268585205 1.2143685817718506
-0.7448629140853882 -0.010063812136650085 0.04405079409480095
-1.3111830949783325 0.0005736202001571655 0.5857294797897339
-0.13581518828868866 1.1682196855545044 0.5110555291175842
-2.2067477703094482 0.04088398814201355 0.6779297590255737
0.7370115518569946 -0.5095996856689453 -0.9295705556869507
1.0138648748397827 0.7194157838821411 0.24966274201869965
0.5057398676872253 0.1606680452823639 -0.24015435576438904
0.4072112739086151 -0.26122379302978516 0.5265167951583862
0.5010601878166199 -0.010407820343971252 0.06588391214609146
1.139427900314331 -0.5203704237937927 0.473601371049881
0.4520512819290161 -0.4289531707763672 -0.8923095464706421
-0.26246851682662964 1.084242820739746 1.0251095294952393
-1.0334428548812866 -0.15839484333992004 -0.5759743452072144
-0.15306925773620605 0.7645512223243713 -0.4244935214519501
0.14919497072696686 -0.5477604866027832 -0.6606127619743347
2.23590350151062 0.28770503401756287 0.20833991467952728
-2.4118223190307617 0.4631885290145874 -0.5031394958496094
0.9010377526283264 0.028696700930595398 0.3315417766571045
-1.0552747249603271 0.7136688232421875 1.0995573997497559
-0.6186878085136414 0.7094114422798157 1.2351655960083008
0.321696400642395 0.17200233042240143 -0.46353575587272644
-0.9127179384231567 -0.037447988986968994 1.307589054107666
-1.5714681148529053 0.13191983103752136 0.08994010090827942
-0.4244163930416107 0.823948860168457 0.30763405561447144
-0.026110898703336716 0.5771409273147583 -0.06870409101247787
0.08935637772083282 1.0869483947753906 -0.7652612328529358
-1.244521975517273 1.1619431972503662 0.20719079673290253
-0.13124151527881622 -0.14718537032604218 -0.1500295251607895
-1.3690299987792969 0.5449513792991638 -0.12468208372592926
-2.1657559871673584 0.6319826245307922 0.2089255154132843
-2.7287254333496094 0.8905595541000366 -0.6241991519927979
-3.0171148777008057 0.016864314675331116 0.47559309005737305
-1.6605288982391357 1.2978960275650024 -0.31225231289863586
-1.6798173189163208 1.2759393453598022 -0.8227059841156006
0.3203798234462738 0.09319713711738586 0.470062255859375
-0.9751856327056885 0.8557229042053223 -0.11478568613529205
-0.2798615097999573 0.7765108942985535 0.33669519424438477
-0.810697615146637 0.41282618045806885 -0.16237136721611023
0.3233241140842438 0.4618419408798218 -0.8863869905471802
-0.7369964122772217 0.2543158233165741 0.25275132060050964
-1.0922051668167114 -0.17414125800132751 0.9175076484680176
-1.5655951499938965 0.23621271550655365 -0.6610377430915833
-1.8470264673233032 -0.3842892646789551 0.4551454484462738
-0.6687119603157043 -0.26624631881713867 -1.1770039796829224
0.9260138869285583 -0.04143786430358887 -0.29533615708351135
-1.3355002403259277 0.6921646595001221 -0.6719205379486084
1.3344875574111938 0.15835687518119812 0.6005139946937561
1.170481562614441 0.21285736560821533 0.7989146113395691
-0.11067865788936615 -0.25792965292930603 1.081107497215271
0.09402292966842651 -0.501582682132721 0.8386499881744385
-1.3050804138183594 0.04986019432544708 -0.2678057849407196
0.07515311241149902 -0.3226484954357147 0.2884681522846222
-1.8021326065063477 -0.20662866532802582 0.01837950199842453
-1.1455053091049194 0.22917942702770233 0.042978785932064056
0.3834306001663208 -0.10629168152809143 0.2350929081439972
-1.336590051651001 0.33935546875 -0.21477895975112915
-0.676258385181427 0.45865559577941895 -1.0507255792617798
-1.7435420751571655 -0.19753850996494293 0.17471712827682495
2.1811487674713135 -0.17781098186969757 0.35377368330955505
-2.0514276027679443 0.7226114273071289 -0.24580806493759155
-1.2684117555618286 -0.2476705014705658 -0.3367152512073517
-1.8805657625198364 0.5231435298919678 -0.005378159694373608
1.493720531463623 0.5361329317092896 -0.9526026844978333
0.3850080966949463 0.9390468001365662 -0.25076791644096375
-1.976248860359192 0.426952600479126 -0.004935091361403465
0.3990514874458313 -0.4542432129383087 1.2673994302749634
-0.4471644163131714 -0.08042743802070618 0.6379607319831848
-1.3123955726623535 0.3662550747394562 -1.0353666543960571
-0.8448984622955322 0.5543751120567322 0.23149073123931885
-0.08177991956472397 -0.18647338449954987 -0.16783063113689423
2.5685226917266846 -0.26526200771331787 -1.164781093597412
0.3269064128398895 -0.4896465539932251 0.2804591655731201
0.2142784595489502 -0.10045839846134186 -0.9606597423553467
0.7376208901405334 0.10954298079013824 0.6680137515068054
-1.640628457069397 1.1600672006607056 0.49419477581977844
-1.7733650207519531 0.1185106635093689 -0.4507877230644226
-0.20622119307518005 0.6892160773277283 0.8594521880149841
-1.330138087272644 1.2635403871536255 0.8378223776817322
0.0853547751903534 0.6971526145935059 0.06354023516178131
-1.9592429399490356 0.49218666553497314 0.46415629982948303
-1.2772523164749146 0.7350389957427979 -0.7367620468139648
-1.4312922954559326 -0.264085590839386 0.1635337620973587
-0.06352868676185608 0.22206029295921326 -0.47835877537727356
1.5047687292099 0.018896400928497314 -0.7700763940811157
-0.6981207132339478 1.2139678001403809 -0.489369660615921
-0.8861029744148254 0.5627060532569885 0.5389477610588074
-0.09664589166641235 -0.23762160539627075 0.6300095915794373
0.25728902220726013 0.4688813090324402 -0.13074176013469696
1.9336650371551514 0.5959753394126892 0.6840077042579651
-2.3379452228546143 0.18003599345684052 -0.6296510100364685
-1.079683542251587 1.06880521774292 0.14116942882537842
0.9932768940925598 -0.329858660697937 -0.24714817106723785
-2.0019659996032715 0.5808628797531128 0.775226891040802
-1.3909789323806763 1.1727603673934937 0.7965231537818909
-1.5666145086288452 0.5915122032165527 0.249165877699852
-1.8760303258895874 0.9300376772880554 0.5337041020393372
-0.46204790472984314 0.42937588691711426 0.5900058746337891
1.7166550159454346 0.45849671959877014 0.06644093245267868
0.5651326775550842 0.9669442772865295 0.3819396197795868
0.048646148294210434 0.26753097772598267 -0.41059720516204834
-0.7769829034805298 0.3163888156414032 0.037330348044633865
-0.803291916847229 -0.44444119930267334 -1.2442920207977295
-1.4202560186386108 0.030235931277275085 -0.7463806867599487
-1.5298136472702026 0.17757001519203186 -0.6152452230453491
-0.6891195178031921 0.3191753029823303 0.021621178835630417
-0.401337206363678 0.0004360973834991455 -0.1683046519756317
-0.4195289611816406 0.0074820369482040405 -0.3257094621658325
-1.3235857486724854 0.9455967545509338 0.6605430841445923
-1.9870600700378418 0.8778711557388306 -1.0678213834762573
-1.3606218099594116 -0.3917238116264343 1.0670440196990967
-0.9132967591285706 -0.3134967088699341 0.8607392311096191
-1.458733320236206 -0.5007539987564087 -0.5332983732223511
-0.13774171471595764 0.31107714772224426 0.6137176156044006
-0.2854231595993042 -0.030522391200065613 0.5113377571105957
-1.8844069242477417 0.42289814352989197 0.13165421783924103
-0.4661286473274231 0.5515009760856628 0.5934592485427856
-1.720150113105774 -0.2352452129125595 0.08967699855566025
-0.8670378923416138 0.05081109702587128 0.8861575722694397
0.3251037001609802 -0.03959763050079346 -0.6053441166877747
0.4609622359275818 0.172930046916008 -0.15686264634132385
2.2043814659118652 0.26360559463500977 0.8179895877838135
-1.1147874593734741 0.28728216886520386 -1.284292221069336
1.12166428565979 -0.28495949506759644 1.0070629119873047
1.047329068183899 -0.22601647675037384 0.2301264852285385
-1.1019287109375 1.0342198610305786 0.7922594547271729
-1.998094916343689 -0.03829421103000641 -0.6163052916526794
-2.344454765319824 0.7048249244689941 1.1186925172805786
1.6266783475875854 0.41604456305503845 0.39911407232284546
-1.0092322826385498 -0.07670830190181732 0.6474133133888245
-1.5188056230545044 0.009762197732925415 -0.10887094587087631
-0.21578460931777954 0.015689462423324585 -0.06481529772281647
-0.6072810888290405 -0.4478577971458435 0.19779562950134277
-1.1941702365875244 0.37947356700897217 0.5622879266738892
-0.9625323414802551 0.8061298131942749 0.6716084480285645
0.05163987725973129 -0.32994332909584045 -1.039530634880066
-0.09723936021327972 0.1755213737487793 1.2729567289352417
0.09720182418823242 0.26885032653808594 0.44295182824134827
0.5815709829330444 0.1875593513250351 0.12218018621206284
-0.7159707546234131 0.7296625375747681 -0.8698873519897461
-0.9052807092666626 0.8843048810958862 0.10031575709581375
-1.917386531829834 0.5479307174682617 1.0815974473953247
0.48253563046455383 0.659541666507721 -0.6183726191520691
1.4906413555145264 0.5810579061508179 -0.5480037927627563
0.2806782126426697 0.3851110637187958 0.34907710552215576
-1.239013671875 0.6000677943229675 0.5360491871833801
1.3177968263626099 -0.4694978594779968 0.4109659194946289
1.6061002016067505 0.268685519695282 -0.941621720790863
-0.6981804370880127 0.622401237487793 -0.8669260740280151
0.5989288091659546 0.3320830762386322 -0.364705353975296
0.7468999624252319 -0.033318787813186646 -1.0794687271118164
-0.6742175221443176 0.39153504371643066 0.12789198756217957
-0.3379773497581482 0.30122271180152893 -1.2377493381500244
-0.13463592529296875 0.6461393237113953 0.26121726632118225
-2.315396308898926 -0.3746083676815033 -0.4865919053554535
-1.9889644384384155 0.2815623879432678 0.7996881008148193
-1.5190625190734863 0.33006206154823303 -0.886803150177002
0.8316375017166138 0.5860079526901245 -0.3723677098751068
-0.7293915748596191 0.5910449028015137 0.8864852786064148
1.0542793273925781 -0.15646113455295563 -0.5784965753555298
-0.5138155221939087 0.0214984267950058 -0.06979179382324219
0.05559038370847702 0.07934965193271637 -1.0924043655395508
0.7378395199775696 -0.42376717925071716 -1.0499186515808105
-1.241693377494812 -0.24548901617527008 -0.08965110033750534
1.4713044166564941 -0.581107497215271 0.854330837726593
0.7721056342124939 0.6747010946273804 0.5743938088417053
-2.4446840286254883 -0.25449398159980774 0.6965383887290955
-1.1954946517944336 0.8845928907394409 0.5312376618385315
1.744105577468872 -0.3553231954574585 0.6653972864151001
-2.1652321815490723 -0.012503862380981445 -1.1373940706253052
-0.6520226001739502 0.9319026470184326 0.06306075304746628
-0.3045005202293396 0.07400023937225342 -0.3191726803779602
0.33384084701538086 0.28498944640159607 0.4177839756011963
2.432492256164551 0.3966260254383087 0.14975470304489136
-1.0134165287017822 0.7791063189506531 -0.08913476765155792
-1.5905770063400269 1.2484623193740845 -0.06398648023605347
-0.5532404780387878 0.7238845825195312 0.5295506119728088
-2.2516095638275146 0.14156141877174377 -1.2222232818603516
-0.6248366832733154 0.20002375543117523 -0.05962487310171127
-0.7705630660057068 -0.049957647919654846 0.34604984521865845
-0.8010023832321167 1.1715844869613647 1.1056565046310425
-0.09917516261339188 0.029848948121070862 0.5998896360397339
-1.0390361547470093 1.2394222021102905 -0.4501330852508545
-0.5395066142082214 -0.49013006687164307 0.18253761529922485
-0.7637323141098022 -0.293552041053772 -0.256156861782074
-1.632079839706421 1.450911521911621 -1.3076317310333252
-1.7419500350952148 1.301560640335083 0.7485514283180237
1.805148720741272 0.4548351764678955 0.05432414636015892
-0.9314821362495422 0.33877629041671753 0.3502204418182373
-0.15014082193374634 1.1208313703536987 0.2847853899002075
-0.8890465497970581 0.7956634163856506 -0.10071425884962082
0.9207431674003601 0.3508205711841583 0.4817836284637451
1.339259386062622 -0.17146438360214233 0.24071073532104492
-1.9809273481369019 -0.26182910799980164 0.05083288997411728
1.2808806896209717 0.22453589737415314 0.39223653078079224
-1.4518332481384277 0.8109651803970337 -0.37389716506004333
-0.9734050631523132 0.19727842509746552 -0.9652805924415588
0.061298638582229614 0.05855344235897064 0.5867948532104492
-1.0394281148910522 0.2938385009765625 0.7840784788131714
-1.8729969263076782 0.48153552412986755 -0.5623719096183777
-0.8487478494644165 1.2147005796432495 0.2011045515537262
2.1852529048919678 0.03779920935630798 0.825512707233429
1.3023279905319214 0.4729967415332794 -1.0955102443695068
-0.5529440641403198 1.0834178924560547 -0.7622023224830627
-1.340075969696045 1.1980152130126953 0.81968092918396
-0.8754299283027649 -0.08975973725318909 -0.13756418228149414
-0.7746536731719971 0.9150209426879883 0.18171490728855133
-1.4321188926696777 0.2986897826194763 -0.38877594470977783
1.9898338317871094 0.6345078945159912 0.1514878123998642
0.25207728147506714 0.9845776557922363 -1.207141399383545
0.5580750107765198 0.4613291919231415 0.8282418251037598
-0.14224594831466675 0.47544974088668823 0.4630337357521057
-1.1166635751724243 0.6651279330253601 -0.9446043968200684
-1.2639433145523071 0.6363818645477295 0.8118069767951965
0.9859870076179504 -0.23568451404571533 -0.9125599265098572
-1.4301100969314575 0.6812238693237305 0.7073345184326172
-1.203842043876648 0.05300082266330719 0.3314352333545685
-0.7616362571716309 0.9148507118225098 -0.7864232063293457
-1.3322256803512573 -0.49005070328712463 -0.2673909366130829
0.4691387414932251 0.06426477432250977 1.2311797142028809
1.8067026138305664 0.6034621596336365 0.08274008333683014
-1.151779055595398 0.545093297958374 1.2388602495193481
1.6475430727005005 0.2915593385696411 -0.40068456530570984
-1.3642137050628662 0.5103085041046143 1.229783296585083
-0.5242543816566467 0.904951810836792 -0.5146012902259827
-0.7573997378349304 0.12492185831069946 -0.20635682344436646
0.8492045998573303 -0.04302892088890076 -0.43364447355270386
0.8354924917221069 -0.23932132124900818 -0.9924416542053223
-0.30089113116264343 0.02086782455444336 -0.24630744755268097
-1.8164629936218262 -0.22869719564914703 0.9873026609420776
0.09044252336025238 -0.31073713302612305 0.43803170323371887
-2.1387767791748047 -0.30459123849868774 -0.03674585744738579
-0.26077553629875183 0.6405529975891113 0.19941475987434387
1.4612150192260742 0.7926411032676697 -0.8293627500534058
-0.13806308805942535 1.0397794246673584 -0.11913066357374191
1.3600252866744995 0.2998296618461609 0.944521427154541
-1.0366331338882446 0.7113109827041626 -0.6019424200057983
-1.4230693578720093 -0.6015698313713074 0.23100097477436066
0.08645127713680267 0.8819919228553772 0.23663218319416046
0.7299425601959229 0.33630141615867615 -0.2694874107837677
-1.8997759819030762 0.2925364077091217 0.3604651987552643
1.594138264656067 -0.5032787322998047 -0.2827669084072113
-1.9184277057647705 -0.13222739100456238 -0.7509148120880127
-1.9936577081680298 0.36185020208358765 0.5562595129013062
-2.5985519886016846 -0.2766213119029999 -0.4318673014640808
-0.4362660050392151 -0.13066433370113373 -0.07130131870508194
0.057611361145973206 0.15219338238239288 -0.6067954897880554
0.384302020072937 -0.3392344117164612 0.6249921917915344
0.3756011724472046 -0.22389034926891327 -0.16460931301116943
-0.9895097017288208 0.6522303819656372 -0.5991823673248291
-1.468841314315796 -0.07700575888156891 0.20709222555160522
1.4944630861282349 0.12707571685314178 0.832642138004303
-1.4541399478912354 -0.24345819652080536 1.1880649328231812
-0.35645365715026855 0.6007190346717834 1.1157801151275635
-0.9968887567520142 0.44934266805648804 0.28618261218070984
-0.33442962169647217 0.7984011173248291 0.18377098441123962
0.11723872274160385 -0.2738838791847229 0.9176741242408752
1.7948287725448608 -0.2858869731426239 1.0050954818725586
0.030356114730238914 0.6255901455879211 0.06342694908380508
-1.4681951999664307 0.3915490210056305 0.5135415196418762
-1.5068612098693848 0.26530721783638 0.44548001885414124
-0.09074407815933228 -0.4671422243118286 -0.474883496761322
0.27612438797950745 0.029571831226348877 -0.5222035050392151
-1.606757640838623 0.8138952255249023 -0.5989089012145996
-1.593946933746338 -0.38386791944503784 0.42321643233299255
1.5624510049819946 0.24232327938079834 -0.26886820793151855
0.1827993094921112 -0.09984530508518219 1.2170053720474243
-1.707984209060669 0.6661905646324158 0.6389840245246887
0.44090545177459717 -0.4647297263145447 0.2706226408481598
1.0710017681121826 0.7026113867759705 -0.184109166264534
2.14096999168396 -0.22718729078769684 0.8431355953216553
1.8202545642852783 0.47943922877311707 -1.044999361038208
-1.384946584701538 0.14536751806735992 0.1221834346652031
-1.9278995990753174 0.3984822630882263 0.08504928648471832
1.8576973676681519 0.5474199652671814 -0.001893061911687255
0.6359103918075562 0.2674241364002228 -0.47932296991348267
-1.2544537782669067 1.0862324237823486 1.3459268808364868
-1.6352492570877075 0.5212980508804321 -0.6518149375915527
-1.0948023796081543 0.96422278881073 0.05461839959025383
-0.05873212218284607 1.0632960796356201 -0.6660642027854919
-0.990300714969635 0.9547910690307617 0.5661978125572205
0.0500929094851017 0.3497008681297302 0.6162877082824707
-1.8104816675186157 -0.5974820852279663 1.1222373247146606
1.4233039617538452 -0.37092506885528564 1.0358688831329346
-1.601596474647522 0.9498449563980103 -0.43191829323768616
-1.190609335899353 -0.2620834708213806 0.13326483964920044
0.9788575768470764 -0.15143825113773346 0.3490402400493622
0.0979502722620964 0.2130575180053711 -0.43851009011268616
1.2070379257202148 0.00937090814113617 0.22041016817092896
-1.1231611967086792 0.9030492305755615 -0.6921071410179138
-0.2526955008506775 1.220924735069275 0.6488022208213806
-0.9596791863441467 0.1268957406282425 -0.7571053504943848
0.7663941979408264 0.575065016746521 -0.7732725739479065
0.7596310377120972 -0.164973646402359 0.9473399519920349
-0.35811758041381836 0.23220424354076385 -0.02158222533762455
-2.1656501293182373 -0.14316308498382568 0.9140980839729309
0.42929261922836304 0.7601733803749084 0.40667393803596497
2.810576915740967 -0.008408516645431519 0.05830372869968414
-2.761655569076538 0.5944066047668457 0.1273621916770935
-0.8175158500671387 0.19040332734584808 0.644554615020752
-1.0931527614593506 0.95978844165802 0.059071723371744156
1.4803704023361206 0.10718478262424469 0.39779525995254517
0.07697011530399323 -0.5089991092681885 -0.37484031915664673
-0.8659560680389404 0.8122669458389282 0.884760856628418
-1.1152503490447998 0.3656112551689148 -1.204641580581665
-1.556474208831787 0.5263544321060181 -0.9848440885543823
-0.24960917234420776 0.0343683660030365 0.46078914403915405
-0.6749135255813599 1.1119413375854492 0.8992007970809937
-0.7579373121261597 0.3047662079334259 0.04926542937755585
-1.2132563591003418 0.8975107073783875 0.8094731569290161
-2.1885430812835693 0.8995275497436523 0.017397630959749222
-0.4346008896827698 0.3567156493663788 -1.086186170578003
-0.5713456273078918 0.9658995866775513 -0.48556554317474365
-0.9633011221885681 0.9606432318687439 0.5213549733161926
0.3955296277999878 0.04366099834442139 -0.20280583202838898
-0.4826902449131012 -0.18022330105304718 0.25398632884025574
1.0876145362854004 0.16958285868167877 0.9104117751121521
1.4615607261657715 0.12213219702243805 -0.3123592734336853
-0.3335816264152527 0.032821670174598694 1.3138890266418457
-0.12612932920455933 0.004336759448051453 1.2408016920089722
0.02608516812324524 0.6384541988372803 0.45883429050445557
-0.2257416844367981 -0.202400803565979 -0.8110904097557068
-1.560612678527832 0.2432275116443634 -1.0404551029205322
-1.5662429332733154 1.1164765357971191 -0.9015746712684631
1.1260014772415161 -0.3684537410736084 0.0034066278021782637
-1.6424589157104492 -0.5420286655426025 0.6194514036178589
-1.5452402830123901 0.4326043725013733 0.38510891795158386
-1.4427120685577393 0.19509316980838776 1.1890060901641846
0.39908337593078613 0.0963943749666214 -0.4260444641113281
-1.5261520147323608 0.24768787622451782 -0.6349583864212036
-0.5849398374557495 0.5444228649139404 -1.1384912729263306
-2.4404571056365967 0.4031411409378052 -0.8701726794242859
-1.7720961570739746 -0.34035390615463257 0.14379249513149261
0.3377235233783722 -0.02011089026927948 0.8976805806159973
-1.9422262907028198 0.3167365491390228 -0.22808361053466797
-0.9473772644996643 0.535506546497345 0.028596583753824234
-0.160861998796463 -0.3394237756729126 -1.086702823638916
-0.7888545393943787 1.0034306049346924 -1.1885517835617065
-0.3363277018070221 0.633179783821106 0.6845421195030212
-1.728559970855713 1.1036479473114014 -0.29325106739997864
-0.5098674297332764 -0.3741704821586609 0.6463769674301147
-1.6336692571640015 -0.09749308228492737 -0.7400915622711182
0.6903983354568481 -0.229675754904747 0.9871312379837036
1.463533639907837 -0.5051965713500977 -0.3545035421848297
1.6694962978363037 -0.06737923622131348 -0.222330704331398
-1.234357237815857 0.35543394088745117 -0.12947455048561096
0.29227036237716675 -0.36506468057632446 -1.1003130674362183
-0.23449048399925232 -0.016624316573143005 -0.10841144621372223
-1.7408815622329712 0.4960523843765259 -1.1750389337539673
-2.9621782302856445 -0.39456650614738464 -0.42814597487449646
-1.0547183752059937 0.5807348489761353 -0.03182220831513405
0.6381931304931641 0.6740937829017639 -0.26607072353363037
-0.13273753225803375 1.0577949285507202 -0.63926100730896
0.7608653903007507 0.10770958662033081 0.4745528995990753
-1.1897956132888794 0.3820681869983673 1.24534273147583
-0.3421553671360016 -0.021225616335868835 0.3480006158351898
-0.5418185591697693 0.9804129004478455 -0.4510495066642761
-0.7784551382064819 -0.4368656873703003 -0.3576323688030243
-0.006266266107559204 0.9889811873435974 -1.1520546674728394
-1.4686992168426514 -0.5568912029266357 1.013776421546936
-1.1474571228027344 0.2672748863697052 -1.2472772598266602
-1.7004306316375732 0.4284486174583435 0.7051591277122498
-0.7336835861206055 1.2404946088790894 0.6368677616119385
1.3555376529693604 0.16774070262908936 0.978063702583313
-1.7542638778686523 -0.21548862755298615 0.0019324937602505088
-1.6486515998840332 0.5257582068443298 -0.29964083433151245
-0.0433187410235405 -0.4421469569206238 -0.32408607006073
0.41033631563186646 -0.3073922395706177 0.881883442401886
1.8829569816589355 -0.13468798995018005 0.18706421554088593
-1.243118405342102 0.4025062322616577 0.3494666516780853
0.27248287200927734 -0.4585164487361908 -0.015988701954483986
-2.200730323791504 -0.17057383060455322 0.8092485070228577
-0.10429898649454117 0.7913869023323059 0.45800158381462097
-0.30616432428359985 0.17972436547279358 -1.2250566482543945
-0.4218960404396057 0.5627307891845703 -0.5291990041732788
0.08431258797645569 -0.25001487135887146 -0.4098595380783081
-0.5239841341972351 1.0921653509140015 0.4161035716533661
2.081676483154297 0.6212524771690369 -0.7675386071205139
0.826526939868927 0.04008015990257263 -0.2203361839056015
1.9554786682128906 -0.2022332400083542 -0.01706520840525627
0.5841929912567139 -0.4174613952636719 -0.4105130136013031
-0.7326722145080566 0.008750572800636292 0.42001965641975403
0.5214865207672119 0.2010093480348587 -0.6570205092430115
1.5855611562728882 -0.10740597546100616 -0.5457423329353333
-2.442657232284546 0.1743057519197464 -1.231480360031128
-0.003428291529417038 0.9503344893455505 -0.8948978781700134
1.0486397743225098 0.8497858643531799 -0.03308552876114845
0.17037560045719147 0.26534366607666016 -1.0859344005584717
-0.2202794849872589 0.629239559173584 -0.4769420027732849
-1.5177054405212402 0.24493716657161713 0.47666868567466736
-1.4233781099319458 1.2482177019119263 -0.35075563192367554
-2.0491299629211426 0.6864349246025085 -0.7262288331985474
-1.3498526811599731 0.21973952651023865 0.8439232110977173
-1.8908833265304565 -0.04312640428543091 -0.7766004800796509
-1.331647276878357 0.5802184343338013 0.48925384879112244
-0.9188433885574341 -0.5371164083480835 -0.7439992427825928
-0.4265478253364563 -0.3763308525085449 0.16904686391353607
1.512586236000061 0.7883427739143372 -0.42488276958465576
-1.682904601097107 0.4024324417114258 0.6742535829544067
1.9628009796142578 0.6165196895599365 0.8928333520889282
0.09658642113208771 0.8086704015731812 -0.5610089898109436
0.531792938709259 0.2117561399936676 -0.13843604922294617
1.916259527206421 0.3677820563316345 0.3735521733760834
-2.4879798889160156 -0.15014757215976715 -0.17347179353237152
-1.2441465854644775 0.9509539604187012 -0.10783951729536057
-0.18466880917549133 0.5133801698684692 0.6207177639007568
-1.0267306566238403 0.2574739456176758 0.13890157639980316
2.5287461280822754 0.5324693918228149 -0.8149654865264893
-0.5379467606544495 1.119407057762146 1.22883939743042
-1.5907871723175049 -0.39037904143333435 0.8627228736877441
-1.8814303874969482 1.1008758544921875 -0.02870003506541252
-0.6211923360824585 -0.18124473094940186 -0.4204229712486267
-2.3337979316711426 -0.33452385663986206 0.12201539427042007
-2.0664572715759277 -0.4790966808795929 0.8436371684074402
0.15589365363121033 -0.36208802461624146 0.0435144416987896
0.7222728133201599 0.02550026774406433 0.6405175924301147
-0.47852814197540283 0.6938892602920532 -1.1979321241378784
0.6572253704071045 -0.0052020251750946045 0.20857805013656616
0.47429439425468445 0.019238382577896118 1.0115406513214111
-1.5712109804153442 0.568459153175354 -0.5201300382614136
-1.9346815347671509 1.009497046470642 -1.7753554582595825
1.5552575588226318 -0.49799177050590515 0.015723995864391327
1.0635961294174194 -0.26103007793426514 -0.19230997562408447
-1.1250081062316895 0.0947001576423645 -1.0414780378341675
0.31638839840888977 0.22955410182476044 -0.2910550534725189
-1.750746726989746 1.130897045135498 0.6568945646286011
1.2016552686691284 0.028191983699798584 0.4432019591331482
-1.38805091381073 0.2978874444961548 -0.5492939949035645
0.7696801424026489 0.1307721585035324 0.7229070067405701
-0.7053917646408081 -0.007781878113746643 -1.3483284711837769
-2.2943029403686523 1.0429186820983887 -0.03426344320178032
-1.7676811218261719 0.2969669699668884 -0.30072975158691406
1.032955527305603 0.8453271389007568 -0.05082891881465912
-0.19977959990501404 0.8594212532043457 0.9501134753227234
-1.8465242385864258 0.45693397521972656 0.21548204123973846
-1.775201439857483 0.5752352476119995 -0.7109565734863281
0.7365579009056091 0.12330257892608643 0.5577168464660645
-0.7717186808586121 1.2067972421646118 1.1267955303192139
-1.7836636304855347 0.11289235949516296 0.8194942474365234
-2.2527759075164795 0.9418632984161377 1.0897092819213867
0.6087570190429688 0.22482909262180328 0.39297541975975037
-0.890138566493988 -0.5690842270851135 -1.1353684663772583
-2.653268575668335 -0.3238688111305237 0.19140495359897614
-1.568510890007019 -0.09322765469551086 -0.2547003924846649
-1.3076801300048828 0.9758452773094177 0.12751470506191254
1.6168397665023804 0.14923232793807983 0.8773481249809265
0.7973687052726746 0.188105046749115 -0.5347990989685059
0.24961429834365845 -0.2845458388328552 0.9510594010353088
-0.9805676341056824 0.10397690534591675 0.8529833555221558
2.386155366897583 -0.4005415737628937 0.60595703125
-0.7280917167663574 -0.04994240403175354 -0.5840688943862915
-1.1787587404251099 -0.2582545280456543 -1.3495588302612305
0.11059252917766571 0.09595359861850739 -1.1772422790527344
0.46176519989967346 -0.037338435649871826 -0.09059935063123703
1.2006454467773438 -0.22216640412807465 -0.03791649267077446
-0.8707457780838013 0.8820942044258118 -0.2157391756772995
-1.3766006231307983 1.2173985242843628 0.8884066343307495
0.7590565085411072 -0.1302005648612976 0.44579723477363586
-1.1803666353225708 -0.5783703923225403 0.15177021920681
1.0988478660583496 -0.4990071654319763 -0.5429226160049438
0.40555813908576965 0.9056383967399597 -0.28305479884147644
1.4684492349624634 -0.1116475909948349 0.6435062289237976
1.4782440662384033 0.7899200320243835 -0.5734506249427795
-1.1839280128479004 0.717624306678772 0.16131079196929932
-1.6604844331741333 -0.48627156019210815 1.081278920173645
0.5413810610771179 0.03776593506336212 0.4086659252643585
0.5771352052688599 -0.580033004283905 -0.11058706790208817
-0.5383020639419556 -0.03511115908622742 0.2974396049976349
1.8215782642364502 0.46753013134002686 -0.08622397482395172
-2.704545021057129 -0.23270104825496674 0.5988594889640808
0.46355170011520386 -0.1252862811088562 -0.4600181579589844
1.342599630355835 0.2839054465293884 -0.5541579127311707
-1.6216741800308228 0.07377707958221436 -0.7557896971702576
0.6938334107398987 -0.10366952419281006 1.0407582521438599
-0.6086982488632202 0.6205254197120667 -0.2359592467546463
-0.19279858469963074 -0.25190892815589905 0.999487578868866
-1.944456696510315 -0.5075049996376038 -0.15251001715660095
-1.8303180932998657 -0.11165332794189453 -0.7154083847999573
-1.2836939096450806 -0.6528912782669067 0.5367839932441711
-0.4883221387863159 0.39317309856414795 -1.0355819463729858
1.363708734512329 -0.5723859667778015 0.678721010684967
0.9970989227294922 0.2561902701854706 0.28899210691452026
-2.282736301422119 -0.49036064743995667 0.2733113169670105
0.28350311517715454 0.12175977230072021 1.0394991636276245
-2.1714110374450684 -0.010298475623130798 -0.4184708893299103
-2.200603485107422 0.9893152117729187 -0.3169974982738495
0.0440748929977417 0.40981316566467285 0.5628618597984314
-1.5525200366973877 0.21006155014038086 -0.6121715307235718
1.3227874040603638 -0.23641063272953033 -0.4849958121776581
2.0675971508026123 -0.027004852890968323 -0.045882463455200195
-1.7846317291259766 -0.4114014506340027 -0.034588851034641266
-2.361616611480713 -0.030034109950065613 -0.2861122786998749
0.0808023065328598 0.9819750189781189 0.018820784986019135
-0.7106150984764099 0.465972363948822 0.8489691019058228
-1.2008230686187744 -0.26368284225463867 0.0837852731347084
-2.2000913619995117 0.8987525701522827 0.6921560764312744
1.5824307203292847 -0.2159672975540161 0.5483815670013428
-0.22780244052410126 0.685171902179718 0.7538468241691589
0.5296564698219299 0.09128820896148682 0.3930971920490265
-1.9171010255813599 -0.09232567250728607 -0.72096186876297
-1.2070019245147705 0.7727980017662048 -0.34267881512641907
-0.6359266042709351 1.2284122705459595 0.4923834502696991
-0.32717934250831604 0.3631986975669861 0.017540499567985535
-0.6578479409217834 -0.1354549676179886 -0.4961487054824829
-1.2266532182693481 -0.3373991847038269 0.7881708145141602
0.36056655645370483 0.6556451916694641 0.6917954683303833
-1.0273398160934448 -0.15890181064605713 0.7552949786186218
0.33414506912231445 0.5730326175689697 0.5948446989059448
-0.9293138980865479 0.6060280799865723 -0.4110971689224243
-1.0761359930038452 -0.30401620268821716 0.7680066823959351
0.377594918012619 -0.1064797192811966 -0.2208540439605713
-0.6999343633651733 0.7102522850036621 -0.05711450055241585
-1.718644142150879 0.3896610736846924 0.42747077345848083
-2.422884941101074 0.8541048765182495 0.6691775321960449
-1.3703862428665161 0.8484969735145569 0.210174098610878
0.004602581262588501 -0.03396286070346832 0.4554276168346405
-1.5001499652862549 -0.3763534128665924 0.4240591526031494
-1.4467180967330933 -0.10546794533729553 -0.23297154903411865
0.3404948115348816 -0.03837244212627411 0.17823272943496704
-0.8344788551330566 1.1562738418579102 0.7300339341163635
-1.6027204990386963 -0.3764643967151642 -0.08803612738847733
1.98251211643219 0.05476918816566467 -0.1317949742078781
2.30539870262146 0.0623871386051178 -0.020740952342748642
-0.39593684673309326 0.7204716205596924 -0.7469379901885986
-0.7384300231933594 0.7013054490089417 0.47383615374565125
-0.8118301033973694 -0.17775709927082062 0.4937119483947754
-1.5562728643417358 -0.03414374589920044 0.4824695587158203
-0.41848084330558777 0.7989386320114136 -0.9149590730667114
-1.7062945365905762 0.01400013267993927 1.0688378810882568
0.2348964512348175 0.20516836643218994 0.0026144557632505894
-0.2251741588115692 1.0131614208221436 1.0454601049423218
2.3918874263763428 -0.0873517394065857 -1.0572785139083862
1.026118516921997 0.29352402687072754 0.48797866702079773
-1.6325206756591797 0.5821167230606079 -0.05063077434897423
-2.0361013412475586 0.7473167181015015 0.11077602207660675
-1.046560287475586 -0.528923749923706 0.07406248152256012
-1.0455571413040161 0.3863304555416107 -0.7170219421386719
2.350144863128662 -0.40231919288635254 0.014951835386455059
0.23046931624412537 0.021856799721717834 -0.1759345978498459
-1.9074689149856567 1.1960296630859375 -0.5047793984413147
-1.7158280611038208 0.41675952076911926 0.5653168559074402
-1.7172244787216187 1.2375761270523071 0.9970815181732178
-1.3767948150634766 -0.5304643511772156 1.0006004571914673
-1.2139027118682861 0.3142439126968384 -0.4893835484981537
-1.1518549919128418 0.12314644455909729 -0.8269047737121582
-1.4831280708312988 0.4781382083892822 -0.2875562608242035
-0.8934731483459473 0.8711943626403809 0.016449477523565292
-0.9146466255187988 0.2048664093017578 -0.15094661712646484
0.9526854753494263 0.978636622428894 -0.7597739100456238
-0.1738629937171936 -0.28210920095443726 -0.9376688003540039
-2.476341485977173 0.37187960743904114 0.5834711790084839
0.910279393196106 0.5165773034095764 0.6896153092384338
-1.7449885606765747 -0.4256148934364319 0.2155257910490036
-2.528723955154419 0.6130490303039551 0.9100547432899475
-1.1285569667816162 0.6452338099479675 -0.2349523901939392
0.36675819754600525 -0.390002965927124 -0.39163973927497864
0.5150713324546814 0.30079367756843567 1.0122331380844116
-1.2523828744888306 -0.3392729163169861 0.2854960262775421
-2.075376510620117 0.9351853132247925 0.4960373044013977
-2.814765691757202 1.0427446365356445 -0.6032832264900208
-1.7556025981903076 1.3009341955184937 -0.3214314579963684
-2.3991079330444336 1.173710584640503 0.980105459690094
0.40272220969200134 -0.43859806656837463 0.48346543312072754
-0.32149481773376465 0.22894063591957092 0.04341265931725502
1.2633986473083496 0.33918631076812744 -0.3680879473686218
-1.4797817468643188 0.9192944765090942 1.2126256227493286
1.1096793413162231 0.06767226755619049 -0.20449486374855042
-2.1282601356506348 -0.1411830335855484 -0.7753729820251465
-2.591646909713745 -0.18294444680213928 -0.7120131850242615
-0.9407222270965576 -0.44432345032691956 0.44901320338249207
-2.509357213973999 -0.3462870121002197 0.49549272656440735
-1.0921989679336548 -0.07403852045536041 -0.5958629250526428
-2.2633938789367676 0.41549360752105713 -1.041664481163025
-1.9527974128723145 0.5568031668663025 0.29140567779541016
-0.5634264349937439 0.4999419152736664 -0.06978480517864227
0.9196857810020447 -0.1950254887342453 0.04646333307027817
-1.0067168474197388 1.09479558467865 0.407815545797348
0.027563832700252533 -0.06974458694458008 0.5555343627929688
-1.0088732242584229 0.8387606143951416 0.09886646270751953
-1.3946354389190674 -0.5417587161064148 -0.7260430455207825
-1.1122633218765259 1.1932424306869507 0.24844743311405182
0.23069880902767181 -0.01588788628578186 0.4639629125595093
1.5689579248428345 -0.17305894196033478 0.19782061874866486
-0.8021787405014038 0.6390310525894165 -0.21791011095046997
0.475048303604126 0.17667511105537415 0.412544846534729
-1.2634010314941406 0.1460130661725998 0.34704461693763733
0.45272231101989746 0.29102468490600586 -0.4591107666492462
1.7202247381210327 -0.4606460928916931 -0.0947667732834816
0.8508808612823486 0.41734713315963745 -0.7438084483146667
-0.06546083092689514 -0.33647453784942627 0.48634010553359985
-1.2047611474990845 0.29462191462516785 -1.2394168376922607
1.3259059190750122 0.3423934876918793 0.26127442717552185
0.14911280572414398 0.01455293595790863 0.46328505873680115
-2.30293869972229 0.5717714428901672 -0.20105978846549988
-1.7269667387008667 0.054405197501182556 -0.310674786567688
1.894234538078308 -0.19552741944789886 -0.7801953554153442
0.921142578125 -0.4752662479877472 -0.12983231246471405
-0.8373345136642456 1.031680703163147 -0.060501743108034134
-1.1058560609817505 -0.15479177236557007 1.2752304077148438
-0.5541573166847229 -0.00179387629032135 0.48579344153404236
-0.5559626221656799 0.8993946313858032 0.3739577531814575
1.108028531074524 0.6402018070220947 -0.41091498732566833
1.1361743211746216 -0.0033598989248275757 0.3044563829898834
-0.432886004447937 0.8097284436225891 -0.7685466408729553
-0.49828168749809265 0.08264252543449402 -0.13971741497516632
1.049755334854126 0.16503532230854034 -0.2491910755634308
-1.2343908548355103 0.140316441655159 0.007341618649661541
-2.3335254192352295 -0.13804581761360168 -0.6544529795646667
-0.788713276386261 0.6798465251922607 1.3326098918914795
0.6292876601219177 0.7050236463546753 -0.5256869196891785
0.009895335882902145 1.1202757358551025 -0.7974444627761841
0.3135404586791992 1.0399991273880005 0.1472795307636261
-1.6504101753234863 -0.5763288736343384 0.25209373235702515
-1.8126331567764282 0.8788247108459473 -0.32672637701034546
-1.406934380531311 -0.1939648538827896 -0.345072865486145
