ply
format ascii 1.0
element vertex 814
property float x
property float y
property float z
end_header
-1.4364356994628906 0.7166703343391418 1.1195977926254272
2.820035934448242 0.35339421033859253 0.5628231167793274
1.6136006116867065 0.07349050045013428 0.8542827367782593
0.2545209527015686 -0.2505650222301483 1.168521523475647
1.8473479747772217 0.16218630969524384 -0.6882739067077637
-2.6552140712738037 0.5189868211746216 -0.8509905934333801
0.6036385893821716 0.9578537940979004 0.41053473949432373
0.9197665452957153 -0.31223008036613464 -0.20581157505512238
-2.0505876541137695 0.34906303882598877 -0.5510889887809753
-2.3778202533721924 -0.16062451899051666 -0.5157801508903503
1.592013955116272 0.0774187371134758 -1.2643905878067017
0.6709166765213013 0.8443771004676819 -0.4052099585533142
0.5179347991943359 0.5095353126525879 1.2337868213653564
1.9759845733642578 -0.4279753565788269 -1.059823989868164
0.7301284074783325 -0.012413129210472107 0.002154819667339325
1.76099693775177 0.6742063164710999 0.3155103623867035
-0.3713464140892029 0.042743533849716187 -1.266963243484497
-0.8038007020950317 -0.2961624264717102 0.5116525292396545
-0.9414480924606323 0.5469712018966675 -0.5205302834510803
-0.9779566526412964 -0.16465681791305542 1.2877933979034424
2.8364992141723633 0.35587722063064575 0.6513273119926453
-1.7389181852340698 0.13114185631275177 -1.3106555938720703
-1.8431107997894287 -0.05674581229686737 -1.3195152282714844
1.326154351234436 0.5467503070831299 0.42014214396476746
0.40505251288414 0.2270749807357788 -1.2535566091537476
-1.2570675611495972 -0.2799804210662842 1.1811221837997437
2.6596293449401855 0.3512425422668457 -1.1625115871429443
-2.3850083351135254 0.11896364390850067 1.3252547979354858
0.930182158946991 -0.3022075295448303 0.4386915862560272
1.599068522453308 -0.044840872287750244 0.1484394669532776
-2.5297718048095703 -0.0673266053199768 0.2425219863653183
-0.9253427386283875 0.6267924904823303 -0.6231961846351624
0.15768758952617645 0.8664394021034241 0.8548883199691772
-1.7856805324554443 -0.30317264795303345 -1.3167589902877808
-2.1720643043518066 -0.08636130392551422 -1.092842936515808
0.2653328478336334 -0.08172430098056793 -0.4470020830631256
-0.22082671523094177 -0.2830392122268677 -0.5220997333526611
2.3621346950531006 -0.29661038517951965 -1.273196816444397
2.68420672416687 -0.28907713294029236 -0.5525738000869751
-2.619755506515503 0.043185725808143616 -1.1138488054275513
3.1024258136749268 0.003109574317932129 -0.10704915225505829
-2.05989146232605 0.7568496465682983 -0.6426054835319519
1.7670974731445312 0.2979136109352112 -1.2559328079223633
-1.1911029815673828 0.45885348320007324 0.041149064898490906
0.8281145095825195 0.18828965723514557 0.32439202070236206
-0.6748880743980408 0.5752454996109009 1.3035022020339966
-2.0124242305755615 0.3039693236351013 1.1895688772201538
2.5732345581054688 -0.2931751608848572 0.43758538365364075
-1.2467094659805298 -0.06407499313354492 -1.0777044296264648
0.3484416902065277 0.9039231538772583 0.35351306200027466
-1.7857964038848877 0.4143868684768677 0.9113712310791016
-1.991966962814331 0.09727895259857178 -0.7497891783714294
2.8859403133392334 -0.2947474718093872 -0.3893928527832031
-1.0733457803726196 0.6205402612686157 0.8013218641281128
-0.27768075466156006 0.5445376038551331 0.5524417757987976
-2.799212694168091 0.1370014101266861 -0.17695869505405426
-1.0261701345443726 0.7286568880081177 -0.7626695036888123
2.454453468322754 -0.29544246196746826 -0.24003131687641144
-1.508467197418213 0.17871423065662384 -0.9451785087585449
-2.722574234008789 0.39213013648986816 0.9479174017906189
1.180322527885437 0.447673499584198 0.03709854930639267
1.4422767162322998 0.5207151174545288 0.9284398555755615
1.274387001991272 0.7814195156097412 0.363355815410614
-0.36809810996055603 0.25622618198394775 -0.507096529006958
-1.073485016822815 0.2745506763458252 -1.0107178688049316
0.2676650881767273 -0.28587794303894043 -1.1182762384414673
-2.6704318523406982 0.17471639811992645 -1.1495392322540283
-0.6917839646339417 0.3131089210510254 -0.8619038462638855
1.5275754928588867 0.1044473722577095 0.08712948858737946
1.4010674953460693 -0.030893370509147644 0.8845598101615906
0.9081800580024719 0.4754059314727783 -1.2247190475463867
-1.7723455429077148 0.3191983103752136 0.1209416389465332
-2.1629858016967773 0.7397530674934387 -0.8679056763648987
1.744910478591919 0.04849869757890701 0.716934323310852
2.801356792449951 -0.2997118830680847 -0.11957553774118423
-1.3795011043548584 0.37569063901901245 -1.008876085281372
0.6166493892669678 0.987228512763977 -0.44644513726234436
1.6321896314620972 0.5786625146865845 1.23819899559021
2.2175045013427734 -0.11267918348312378 -1.2739094495773315
1.3479936122894287 0.4792591333389282 -0.7669143676757812
0.6959993839263916 0.2524237036705017 0.33493098616600037
-0.905328631401062 0.2825918197631836 -0.9608992338180542
-0.3857695758342743 -0.2564288079738617 1.0939899682998657
-2.0944597721099854 -0.0543954074382782 -1.3318556547164917
1.7938393354415894 0.5821229219436646 -1.2475073337554932
-1.3585783243179321 -0.2808147668838501 -0.6630674004554749
-1.7173887491226196 0.42465078830718994 0.33647361397743225
-1.8504887819290161 0.7420559525489807 -0.499411404132843
-2.755206823348999 0.30603545904159546 -0.7484775185585022
-1.2301908731460571 -0.28390052914619446 -1.2819465398788452
-1.5843371152877808 0.3463153541088104 -1.138348937034607
2.192756414413452 -0.3193921148777008 -0.7907418012619019
1.491782784461975 0.48972225189208984 -0.5669813752174377
-1.743222713470459 0.3736981153488159 0.3515736162662506
1.6246788501739502 -0.2645597755908966 -1.296064853668213
2.804565668106079 -0.28773003816604614 0.5132448673248291
1.4000266790390015 0.5081740617752075 0.12273338437080383
0.8114384412765503 0.8792794346809387 0.7671565413475037
2.099492073059082 -0.4331554174423218 0.9669980406761169
2.833334445953369 -0.284489244222641 0.26494354009628296
-0.9599326848983765 0.7053451538085938 -1.0803682804107666
2.859273910522461 -0.29552221298217773 -0.699326753616333
0.7142682075500488 -0.22052139043807983 1.299689531326294
-1.3134855031967163 -0.3223744332790375 1.3561885356903076
1.0701940059661865 -0.021002188324928284 1.3140223026275635
0.8012914657592773 0.5978785157203674 -1.0216304063796997
-1.9307092428207397 0.4614661931991577 -0.691196084022522
-2.1742398738861084 -0.05924665927886963 1.3651219606399536
-1.920343041419983 -0.2465047538280487 0.3469882309436798
0.6881481409072876 -0.28826475143432617 0.09580719470977783
2.680938959121704 0.4000008702278137 0.20993275940418243
-1.241734266281128 0.37649595737457275 -0.25524815917015076
0.5465735197067261 0.4830796718597412 1.24393630027771
-0.07702893763780594 -0.26935577392578125 0.17804811894893646
1.3214951753616333 0.24613720178604126 -0.48831209540367126
1.8271024227142334 0.32751595973968506 -1.0744932889938354
-0.3240998387336731 -0.3008827567100525 -0.737930417060852
-1.2940881252288818 0.6930721998214722 -0.6875277757644653
0.6316298842430115 -0.07362392544746399 -0.24086782336235046
-1.8126132488250732 0.7664288878440857 0.6459236145019531
0.3693462312221527 1.077309250831604 0.08452527225017548
0.35755637288093567 0.5873401761054993 -1.19217848777771
-2.1367528438568115 0.7211511135101318 0.9831165671348572
-1.291089415550232 0.6571452617645264 0.3532693088054657
-1.778251051902771 -0.2862226665019989 -0.2295142263174057
1.9351861476898193 -0.4748026728630066 1.1610547304153442
-1.364074945449829 -0.384194016456604 1.371963620185852
1.1954423189163208 0.20877058804035187 -0.6327102184295654
3.117558479309082 -0.09144711494445801 0.282048761844635
0.863084077835083 -0.28153324127197266 0.1889052540063858
1.6901193857192993 -0.14526382088661194 1.0173300504684448
-1.4787404537200928 -0.04791538417339325 -0.7667602896690369
0.19151228666305542 1.146154522895813 -0.06862862408161163
-1.4144079685211182 -0.045977264642715454 1.1142138242721558
-1.6810574531555176 0.7087618112564087 -0.3720788359642029
0.1942223608493805 0.8532450199127197 -0.9274960160255432
0.7064769864082336 0.6108700037002563 1.1026215553283691
2.9292705059051514 0.3014930486679077 -0.2936989963054657
-1.107269287109375 -0.377538800239563 -0.17815722525119781
-1.0753079652786255 0.3895858824253082 1.317758321762085
-0.22074827551841736 -0.020802676677703857 -1.2718613147735596
-2.786780595779419 0.17745837569236755 -0.22833628952503204
1.2417840957641602 0.5724728107452393 -0.2858137786388397
-0.4224047064781189 0.7772743105888367 -0.9653026461601257
-0.41049903631210327 0.8268249034881592 -0.8815442323684692
1.9054259061813354 -0.286057710647583 1.272249698638916
-0.7032088041305542 0.26383957266807556 -0.5485161542892456
-2.294464349746704 0.7164864540100098 -0.31186506152153015
2.243048906326294 0.18547096848487854 0.83522629737854
2.3714730739593506 -0.2811191976070404 0.9677530527114868
2.006075382232666 -0.27520501613616943 -0.7046435475349426
2.135255813598633 0.015286341309547424 1.291195034980774
-1.0842249393463135 -0.2656221091747284 0.9619620442390442
2.848198890686035 0.3286280930042267 -0.5608134269714355
1.0238163471221924 -0.27124670147895813 -1.040010690689087
-0.4204431176185608 -0.27728694677352905 0.5804552435874939
2.4961435794830322 0.19382642209529877 -1.1135295629501343
2.1504714488983154 -0.2669404149055481 -0.9409416913986206
-1.3784126043319702 0.38263747096061707 -0.35872191190719604
2.9496350288391113 -0.3127555847167969 0.322578102350235
2.024657726287842 -0.5133203268051147 1.121937870979309
-2.310007333755493 0.36071157455444336 -1.3342421054840088
-1.2048112154006958 0.03609010577201843 -1.035750389099121
0.5756786465644836 0.21608473360538483 -1.244023084640503
1.0633482933044434 -0.28306809067726135 -0.3339066803455353
2.272724151611328 0.07220597565174103 0.8172609806060791
-1.3963998556137085 0.2683383524417877 0.8317222595214844
-2.081256866455078 0.748749315738678 0.645012378692627
-2.5584471225738525 0.5634710192680359 1.231124997138977
-2.2435226440429688 0.7048682570457458 0.5239452123641968
-0.6519935131072998 0.4748142659664154 -0.7994440793991089
0.9899969100952148 -0.07435242831707001 0.6219685673713684
1.4340840578079224 0.011192381381988525 0.7541874647140503
1.7308800220489502 -0.41103363037109375 -1.0880705118179321
1.4211561679840088 0.7480357885360718 0.406425416469574
0.8605351448059082 -0.26813894510269165 0.9846250414848328
-0.9345473647117615 0.5825139284133911 -1.2885404825210571
-2.4181084632873535 -0.1270153671503067 -0.938918948173523
-1.3357059955596924 0.08459355682134628 0.7343264818191528
0.8792789578437805 0.7447078227996826 -0.26950427889823914
2.9072353839874268 -0.30096352100372314 -0.6104147434234619
0.5340102314949036 -0.06967565417289734 -0.12315664440393448
-0.21965698897838593 -0.08997276425361633 -1.2614673376083374
2.5285897254943848 -0.15742889046669006 1.0970721244812012
1.9018927812576294 0.2421424686908722 0.7504246830940247
0.5697810053825378 0.9165524244308472 0.7911487221717834
-1.8406038284301758 -0.3455807566642761 -0.8885060548782349
1.5941399335861206 -0.27954307198524475 -0.7586199641227722
-0.43263041973114014 0.2144092619419098 -1.2923413515090942
1.7300900220870972 -0.2594138979911804 -0.4787720739841461
-2.0613651275634766 -0.2572605013847351 -1.3458226919174194
1.6014611721038818 0.18640729784965515 0.7751364707946777
-2.649778127670288 0.6059394478797913 -0.6853028535842896
-0.6298178434371948 0.8492307662963867 -0.7745974659919739
-0.7252655625343323 0.3429935574531555 1.2955912351608276
-1.7037280797958374 0.3056984841823578 0.5635885000228882
-1.9822202920913696 -0.2625623643398285 -0.2748957872390747
-2.249215602874756 -0.009294569492340088 -0.8385699391365051
1.2438037395477295 0.8213236927986145 -0.048811256885528564
-2.1468698978424072 0.7226085066795349 -1.104775309562683
1.3309777975082397 0.42661863565444946 0.8996196389198303
2.540760040283203 0.4685181677341461 0.04918057098984718
1.7540297508239746 0.2818886637687683 -0.6334027647972107
-1.3146378993988037 -0.202735036611557 1.027001142501831
1.7514679431915283 -0.19543509185314178 1.006210207939148
-2.7090566158294678 0.3574609160423279 0.18658222258090973
0.5250806212425232 -0.09191876649856567 -0.7560584545135498
-1.3560147285461426 0.28020939230918884 -0.1692373901605606
0.7745230197906494 0.4046533405780792 -1.247657060623169
1.6393914222717285 -0.34978222846984863 -1.0118749141693115
2.4445583820343018 0.2509409487247467 -1.043186068534851
-0.16167473793029785 -0.2969447076320648 -0.9769071936607361
-1.8832025527954102 0.7229911684989929 0.2706463932991028
0.5651755928993225 0.8637250661849976 -0.27889785170555115
-1.4127075672149658 -0.4905053973197937 -0.9581042528152466
1.6970635652542114 0.14299964904785156 -0.2202252745628357
-0.08384222537279129 0.8050771951675415 0.6338617205619812
0.4588240087032318 0.20818448066711426 -0.9376640319824219
2.9128165245056152 0.316345751285553 -0.10902418196201324
-1.9933055639266968 -0.3800182044506073 -1.2650146484375
2.4575443267822266 0.4738243818283081 0.972737193107605
0.8461369276046753 -0.28273871541023254 -0.7113555669784546
3.0229105949401855 0.27296119928359985 0.32329893112182617
-2.6943435668945312 0.0279848575592041 -0.6873072981834412
0.4259553849697113 0.9962061047554016 0.6848675608634949
0.7261645793914795 0.9493862986564636 -0.4484797716140747
2.157320022583008 -0.32180070877075195 -0.8469285368919373
-1.7216904163360596 0.10594388842582703 0.8976002931594849
-2.217355251312256 0.5641304850578308 0.2020152509212494
2.041923761367798 -0.29334479570388794 -0.2546291649341583
0.689579963684082 0.1479736715555191 -0.8739379048347473
1.2632830142974854 0.5733493566513062 0.09909286350011826
-1.0682313442230225 0.5023363828659058 0.8187664747238159
2.04947829246521 -0.4429776072502136 1.016629695892334
-2.455038547515869 0.6691266894340515 -1.1858384609222412
-1.380854606628418 -0.4427325129508972 -0.8863435983657837
0.20340968668460846 0.4486827850341797 0.9644753336906433
-0.09448512643575668 0.15872450172901154 -0.028940560296177864
1.5861082077026367 0.06843177229166031 0.6158067584037781
0.3196793496608734 1.1126480102539062 0.034628406167030334
0.034807316958904266 1.028319239616394 0.6716002821922302
1.2813917398452759 -0.14849942922592163 -1.1920280456542969
-1.2858645915985107 0.8039535284042358 -0.9784573912620544
2.2521591186523438 0.28953927755355835 -0.8240711092948914
-2.1041195392608643 -0.22538304328918457 -0.6902683973312378
1.3178750276565552 0.08063707500696182 0.6254539489746094
1.6273466348648071 0.043622881174087524 -0.7225728631019592
-0.1827462762594223 -0.2987258732318878 -1.0455687046051025
-1.6885906457901 -0.29326289892196655 -1.054478406906128
0.512299656867981 0.9247449040412903 0.5456946492195129
-1.8667768239974976 0.42923474311828613 -0.6115605235099792
-1.7752608060836792 -0.33142268657684326 -0.9879434108734131
1.2817095518112183 0.3986787497997284 0.7963748574256897
-1.2582590579986572 0.802710235118866 -0.8129230737686157
-1.7554675340652466 0.38316109776496887 -0.9062148928642273
-1.2565213441848755 0.33232539892196655 -0.15883418917655945
-1.4753867387771606 0.18333299458026886 1.1216762065887451
0.9065950512886047 -0.2600466012954712 1.1865730285644531
0.071309395134449 -0.2816038727760315 -0.5287521481513977
1.5154974460601807 0.05905045568943024 0.41513657569885254
-1.899835467338562 0.2074093222618103 -0.5941775441169739
-1.3913190364837646 0.6686466336250305 0.2040424942970276
0.5874316692352295 -0.28895094990730286 0.613710343837738
1.7111581563949585 0.16131004691123962 -0.49633121490478516
2.107544183731079 0.5012855529785156 0.2750110328197479
-1.7281603813171387 0.4225838780403137 0.29935422539711
0.08499174565076828 0.880929708480835 0.4252474308013916
-1.3874118328094482 0.35032933950424194 -0.9852664470672607
1.2177823781967163 0.019947603344917297 0.09874335676431656
0.30560368299484253 0.03467276692390442 0.7852270007133484
-1.3420950174331665 0.7980141639709473 -0.9144090414047241
1.6988939046859741 0.33782655000686646 0.8081266283988953
-0.1197536513209343 0.9242002964019775 -0.10154864937067032
0.4406169056892395 0.9069441556930542 0.5356801748275757
1.7638019323349 -0.08897057175636292 0.5990473628044128
-1.3772162199020386 -0.1299961507320404 1.3718680143356323
-0.6576768755912781 0.19566717743873596 -0.20875415205955505
2.4642999172210693 0.4946230351924896 -1.1625206470489502
1.12825345993042 0.21700206398963928 -0.8638858199119568
-0.7178980112075806 0.28328195214271545 -0.38751086592674255
1.6406465768814087 0.13700281083583832 -0.38245996832847595
0.5973301529884338 -0.27718642354011536 -1.0970489978790283
0.4303112030029297 0.3563070595264435 1.2626250982284546
2.0558602809906006 -0.16569948196411133 0.9900723099708557
-0.429470419883728 -0.29221174120903015 -0.23143506050109863
-1.311513900756836 -0.3027859032154083 -0.6587383151054382
-0.4916110932826996 0.1831974983215332 0.81976318359375
0.7090202569961548 0.48485076427459717 -0.05802767723798752
-1.3373876810073853 0.16559669375419617 1.0587495565414429
-0.25893980264663696 -0.28230851888656616 0.2865292727947235
-0.8301554322242737 0.18358208239078522 -0.48947665095329285
-1.3151218891143799 0.12295942008495331 1.0263270139694214
-2.2087059020996094 0.11820957064628601 1.3499127626419067
-0.693798303604126 0.06954120099544525 0.700884997844696
1.0091489553451538 -0.004591092467308044 0.598108172416687
-2.0855953693389893 0.4039912819862366 -0.6218582987785339
1.6591988801956177 -0.24610407650470734 -0.7636061310768127
-2.432910203933716 0.23476099967956543 1.3220824003219604
-1.586653709411621 -0.49825143814086914 -0.9499763250350952
0.8550311923027039 0.47638577222824097 -1.228772521018982
0.1513383388519287 0.41714268922805786 -0.8952289819717407
0.49554091691970825 -0.2860915958881378 0.09024064242839813
0.6874393224716187 -0.282929927110672 -0.11611716449260712
-1.9117498397827148 -0.15787389874458313 1.1989786624908447
-0.9914677739143372 0.49846506118774414 -0.08031810820102692
1.6477652788162231 -0.45659875869750977 1.0027867555618286
-1.9154719114303589 0.3379209041595459 -0.4885063171386719
-0.6619154214859009 -0.26892924308776855 1.1380454301834106
0.11670848727226257 -0.25746336579322815 0.6152133345603943
-1.013681173324585 0.5849454998970032 -0.3355931043624878
1.3492623567581177 -0.2505108714103699 -1.1340113878250122
-0.7171728610992432 0.05059286952018738 1.3002341985702515
1.7498230934143066 0.6584268808364868 -1.096075177192688
-2.0727925300598145 0.5848222374916077 -0.21307474374771118
-0.23314706981182098 -0.2949070930480957 0.515580952167511
0.6676536798477173 -0.2840213179588318 -0.20163331925868988
1.8441203832626343 -0.21403534710407257 -1.33406400680542
-1.3083772659301758 0.40320727229118347 0.8290013074874878
-1.0133800506591797 -0.08710721135139465 -0.8059618473052979
-0.7185142040252686 0.10556142032146454 -0.8097184300422668
0.35938048362731934 -0.28255218267440796 -1.0071569681167603
-0.39361220598220825 0.3500738739967346 -0.43478238582611084
-1.4931780099868774 0.728416383266449 0.5651575326919556
2.358867883682251 0.5001905560493469 -0.3372628390789032
3.0837490558624268 -0.11701354384422302 -0.43580782413482666
-2.4897782802581787 -0.11587539315223694 -0.6594685316085815
-0.6017683744430542 0.5735868811607361 0.8615187406539917
1.0124154090881348 0.8240058422088623 -0.8611208200454712
-2.360262870788574 -0.1486179232597351 -0.6795093417167664
-1.5120153427124023 0.6843010783195496 -1.2802295684814453
1.6399753093719482 -0.2695711553096771 0.6216474771499634
-1.3385885953903198 -0.060942113399505615 1.067926049232483
0.4639317989349365 -0.13725189864635468 -1.2493497133255005
0.763697624206543 0.12991011142730713 0.31999537348747253
-0.6198170185089111 0.7226967811584473 -0.6920595765113831
0.7535154819488525 -0.016412943601608276 0.40575096011161804
-1.4144705533981323 -0.3420608639717102 -0.1967868208885193
-2.3243279457092285 0.26666128635406494 -1.329865574836731
0.8845576643943787 0.8531175255775452 0.7643430829048157
3.0951967239379883 -0.12937600910663605 0.05883016809821129
-0.24380949139595032 0.9285983443260193 0.6126616597175598
-0.47250252962112427 -0.2911972105503082 0.4223059415817261
2.2732784748077393 0.1483277678489685 -0.9235895276069641
1.4734997749328613 0.39161771535873413 0.5953880548477173
1.1832571029663086 -0.27391672134399414 0.749840259552002
1.7933781147003174 0.6556318998336792 -0.7098158001899719
-1.3005297183990479 -0.19407890737056732 -0.954476535320282
-1.5341686010360718 0.036123126745224 1.1096515655517578
-1.7612806558609009 0.6888797283172607 1.2320977449417114
-2.344383716583252 -0.21631476283073425 -0.973426103591919
-0.5354908108711243 -0.2716867923736572 0.48441141843795776
-0.4209420382976532 0.6133017539978027 -0.8140270709991455
-2.43556809425354 -0.13195106387138367 -0.5760899186134338
0.7154051661491394 0.12248028814792633 0.17558732628822327
-1.72209894657135 -0.298062801361084 1.0981276035308838
2.5401041507720947 0.06996995210647583 0.673450231552124
-1.1427698135375977 0.31791242957115173 -0.23511776328086853
-1.5468831062316895 0.23952040076255798 1.138748049736023
-1.604828953742981 0.36162370443344116 0.7964906692504883
-0.5384733080863953 0.02924235165119171 -1.267850637435913
0.8637346029281616 0.8565077185630798 -0.9128708839416504
1.5906217098236084 0.23403462767601013 0.03295532241463661
1.3698441982269287 -0.26630526781082153 -0.08429944515228271
-2.4129297733306885 0.6995163559913635 0.522344708442688
0.48660850524902344 -0.2740700840950012 -0.04438415914773941
1.8546303510665894 0.018794894218444824 0.6923659443855286
-1.2414915561676025 0.459245502948761 -1.3364514112472534
1.2433496713638306 0.017518922686576843 0.8807509541511536
0.27629420161247253 0.5779239535331726 1.2164231538772583
2.163469076156616 0.1364906132221222 1.3086926937103271
-0.5949293375015259 -0.280065655708313 0.028234701603651047
-1.8486301898956299 -0.2895050048828125 -0.76472008228302
1.529530644416809 0.42985016107559204 -1.2555198669433594
1.3284862041473389 -0.08504936099052429 -0.21283060312271118
-1.9820384979248047 0.20955777168273926 -0.9011699557304382
-2.178497552871704 0.37567147612571716 -0.23767460882663727
-0.6730813384056091 -0.29302892088890076 0.4934813678264618
1.7782343626022339 0.673503041267395 -1.0266742706298828
0.7084232568740845 0.8444925546646118 -0.21434719860553741
-0.5183422565460205 -0.30232343077659607 0.5207644104957581
0.5285099744796753 -0.30459582805633545 -0.15562930703163147
1.4471704959869385 -0.267950177192688 0.6492210030555725
0.9679043292999268 -0.13356627523899078 -1.2424354553222656
0.6723905801773071 -0.06962910294532776 0.2103690207004547
-0.9975157380104065 0.8072115778923035 -0.9565814137458801
0.6341844201087952 -0.05610717833042145 0.08658292889595032
1.2779057025909424 0.33598244190216064 -0.505333662033081
0.167732834815979 -0.2670254707336426 -0.09851223230361938
-1.642208456993103 0.22403863072395325 1.0342379808425903
-0.9223446846008301 0.31154221296310425 -0.10250623524188995
-1.358695387840271 0.241909921169281 1.0675793886184692
-0.0802144780755043 0.08931812644004822 -0.23955565690994263
-2.225653886795044 0.5112662315368652 0.2095581591129303
-1.370282769203186 0.298669695854187 -1.3213317394256592
0.04574408754706383 -0.25422999262809753 1.104542851448059
-1.2461700439453125 0.03452400863170624 0.9478470683097839
1.0349640846252441 0.11830289661884308 -0.9690529704093933
-1.497809648513794 -0.3302963376045227 0.2063087373971939
-0.5680644512176514 0.7902565598487854 -0.6880011558532715
-2.5863304138183594 0.01792307198047638 -1.1404986381530762
-1.6569677591323853 0.06270325928926468 1.112217903137207
1.666489839553833 -0.37303656339645386 0.8819729089736938
-1.4589579105377197 0.6377074122428894 -0.29697391390800476
2.082632303237915 -0.31308144330978394 0.1554262936115265
0.37840259075164795 0.9367601275444031 0.31464123725891113
2.1706504821777344 -0.40412187576293945 1.2217004299163818
1.6407817602157593 -0.354623943567276 -1.1509110927581787
3.072762966156006 0.24536477029323578 0.8640298843383789
2.0463943481445312 0.22221800684928894 -1.1984611749649048
1.0001100301742554 0.016249865293502808 0.8623853921890259
0.5760560035705566 0.6597651243209839 -0.9269471168518066
-1.2276971340179443 -0.2355089634656906 1.078176498413086
2.9372942447662354 -0.03537997603416443 -0.8335943222045898
1.3443918228149414 0.513387143611908 -0.6514968872070312
-2.0998191833496094 0.06056460738182068 -0.8444578051567078
1.5679930448532104 -0.0548461377620697 -0.5855640769004822
0.21464383602142334 -0.03495249152183533 -0.09366161376237869
-1.2565689086914062 -0.31187599897384644 1.2528334856033325
-1.618393898010254 0.6171734929084778 1.3456685543060303
-1.2073781490325928 0.29546189308166504 -1.355966567993164
-0.903706431388855 0.5606912970542908 0.9055262804031372
1.2297214269638062 -0.05061465501785278 1.2863186597824097
1.5822784900665283 0.3425168991088867 0.9737783074378967
-1.7074368000030518 0.37415820360183716 -0.6235394477844238
0.1513178050518036 0.050638049840927124 0.8567951321601868
-0.5299224257469177 0.26161453127861023 -0.12711116671562195
-2.4387099742889404 -0.1476895958185196 -0.36708348989486694
-1.1296077966690063 -0.0804581344127655 0.7798821330070496
2.485175371170044 0.02753165364265442 -0.964653730392456
1.3409771919250488 -0.11151434481143951 0.4862692356109619
-0.8844130635261536 0.4274122714996338 0.4174121618270874
-1.1043639183044434 0.26410990953445435 0.1985471099615097
-1.4751991033554077 0.7460614442825317 0.7401588559150696
-1.5131882429122925 -0.13304990530014038 0.9876090288162231
2.2279751300811768 -0.39187029004096985 1.1171751022338867
-1.5933723449707031 -0.29529106616973877 0.056092891842126846
-2.2749438285827637 0.3128865659236908 0.9379151463508606
-2.4179441928863525 0.18463824689388275 1.3333046436309814
-1.5110208988189697 0.3070782423019409 0.8387951254844666
-2.414262294769287 -0.14246651530265808 -0.771936297416687
-0.01116877794265747 -0.27028340101242065 -0.2943122088909149
0.25066500902175903 0.754267692565918 -1.0422255992889404
1.3116774559020996 0.23901617527008057 -0.8582454323768616
-0.02968486025929451 -0.28849124908447266 0.45240455865859985
0.9659536480903625 -0.06245820224285126 0.4248484969139099
0.05054544657468796 0.7338336706161499 0.8412715196609497
1.0787436962127686 0.8358924388885498 0.4848473072052002
-1.9433025121688843 0.31194353103637695 -1.337507963180542
-2.2624454498291016 -0.23020747303962708 0.08057762682437897
1.0416810512542725 -0.04982505738735199 0.1609673649072647
-0.8224542737007141 0.28585192561149597 0.19612064957618713
2.4478414058685303 -0.30332064628601074 0.1485585719347
1.3702068328857422 0.5061798095703125 -0.15335474908351898
2.3762893676757812 -0.0031873583793640137 -0.8992781639099121
-1.505536675453186 0.7203025817871094 1.1166222095489502
1.6832538843154907 0.08306855708360672 -0.7157211899757385
-1.6450583934783936 0.025777116417884827 1.3608300685882568
-0.18511998653411865 -0.28039586544036865 -0.08485335111618042
-1.2209938764572144 0.20574817061424255 -1.0822871923446655
-1.8796011209487915 0.3872424364089966 1.036163568496704
2.291846752166748 -0.054006993770599365 0.7663559317588806
-2.729470729827881 0.308047890663147 0.016036830842494965
2.6662824153900146 0.4093758761882782 -1.120703935623169
-0.7643465399742126 -0.27508583664894104 0.8831427693367004
1.3281047344207764 0.12758769094944 -1.0134077072143555
-1.60830819606781 -0.30179524421691895 0.12430469691753387
-0.7915585041046143 -0.2753908634185791 -0.2646849751472473
1.496698021888733 0.6107194423675537 1.224815845489502
-0.2004164755344391 0.5099111199378967 0.8515377640724182
-1.909027338027954 0.29755160212516785 -0.676514744758606
1.7900503873825073 0.18720094859600067 -0.6414880156517029
0.9353787899017334 -0.063046395778656 0.2323310375213623
2.7875473499298096 0.10792107880115509 -1.0538362264633179
0.8151816725730896 -0.06593169271945953 0.008382853120565414
2.38847017288208 0.21299105882644653 -1.012149453163147
-0.11623254418373108 1.036851406097412 -0.632395327091217
2.8123204708099365 0.3557218909263611 -0.3936305344104767
-1.3540071249008179 0.3115006387233734 0.8198849558830261
-1.361965537071228 0.24430297315120697 0.26981836557388306
-0.8012965321540833 -0.28335660696029663 -0.4282176196575165
2.2384819984436035 -0.28983423113822937 -0.18493185937404633
-1.8619464635849 -0.27236688137054443 0.05629095062613487
0.06593949347734451 1.1425977945327759 -0.3843832314014435
2.0193674564361572 0.09121540933847427 0.8339309692382812
2.2587809562683105 -0.20041979849338531 -0.7856724262237549
0.7870990037918091 0.3547956347465515 0.8600247502326965
-1.083145022392273 -0.03677341341972351 -1.2362864017486572
-1.5653388500213623 -0.4663130044937134 -1.319069743156433
0.2671818733215332 1.088138461112976 -0.6202192306518555
-0.07871389389038086 0.95172518491745 0.016519565135240555
1.5775805711746216 -0.2746915817260742 -0.12144523859024048
-0.18684202432632446 -0.283566951751709 -0.4682294726371765
-0.8995904326438904 -0.2745935618877411 1.109755277633667
-2.0661587715148926 -0.31614765524864197 -1.2799128293991089
0.6681117415428162 -0.004762008786201477 0.8556339740753174
0.8675488233566284 0.8992829322814941 -0.039928704500198364
-1.7281625270843506 0.33790069818496704 0.5637320876121521
0.8910977840423584 -0.2649037837982178 0.9571993350982666
1.2753974199295044 -0.04589073359966278 0.8092713952064514
-1.2697149515151978 0.38034307956695557 0.6695225834846497
1.1601855754852295 -0.06470689177513123 -0.014958162792026997
0.9930022954940796 0.008952885866165161 -0.6573489904403687
3.088474988937378 -0.09978048503398895 0.8452099561691284
-1.4591703414916992 -0.34504252672195435 -0.06478525698184967
-0.5408565402030945 0.4201424717903137 -0.7894657254219055
1.96088445186615 -0.2851189076900482 -0.4718727767467499
-2.4105541706085205 0.7008456587791443 0.4288192391395569
-1.306868553161621 0.5269432067871094 1.0103623867034912
-0.899295449256897 0.10929034650325775 -0.2664014399051666
2.2470173835754395 -0.2881666421890259 0.058713559061288834
-0.3201504349708557 0.8394600749015808 -0.8162793517112732
-0.8676334023475647 0.4848212003707886 1.3257803916931152
1.630383014678955 0.702269434928894 0.47325289249420166
-1.428882122039795 -0.12151768803596497 1.0584397315979004
-2.5936496257781982 0.6946125030517578 -0.11074206233024597
-1.5726450681686401 0.5606330633163452 1.3364272117614746
-1.8459968566894531 0.34499692916870117 0.9783360362052917
1.2951918840408325 0.36210179328918457 0.4746290445327759
-0.6385699510574341 0.3433869481086731 0.26145240664482117
1.1443018913269043 0.8000882863998413 0.5854405760765076
1.7901943922042847 0.4027722477912903 1.285521388053894
0.4708641469478607 -0.2564636468887329 0.7748060822486877
-1.7072511911392212 0.8106288909912109 0.4166816771030426
-2.2054407596588135 0.6438388824462891 -1.3095264434814453
1.445634126663208 0.2953103482723236 -0.5480142831802368
0.8017692565917969 -0.26353543996810913 0.8970906734466553
-0.3813222348690033 -0.031553298234939575 0.6261478662490845
2.15815806388855 0.09540858864784241 -0.9007900357246399
-0.44968292117118835 0.7957198023796082 -0.7418298721313477
-1.5901230573654175 0.4296150803565979 -0.9669162631034851
0.8141608834266663 0.731016993522644 0.04992799088358879
2.0534167289733887 -0.22472314536571503 -0.7224514484405518
3.140087604522705 0.24524948000907898 -0.10258462280035019
1.493896722793579 0.7536467909812927 -0.08557160198688507
1.779792070388794 -0.4624376893043518 1.2653486728668213
1.8070249557495117 0.34081166982650757 0.796717643737793
0.7154715657234192 -0.3050750494003296 0.43132954835891724
-2.2105698585510254 0.41984179615974426 1.3275580406188965
-0.4156075119972229 0.8621761798858643 0.5406445264816284
0.6352150440216064 0.8043508529663086 0.7577635645866394
1.1781052350997925 0.7957695722579956 0.7497730851173401
2.2627532482147217 -0.20947036147117615 0.9014472961425781
-0.9346663355827332 0.24565157294273376 1.3215588331222534
2.46746826171875 0.16991840302944183 -0.8698425889015198
-1.5565333366394043 0.46967417001724243 0.7479086518287659
-1.3531550168991089 0.6239196062088013 -0.30215123295783997
2.478391170501709 -0.3043985962867737 -0.08473236113786697
2.5691592693328857 -0.2639187276363373 0.8123102784156799
-0.30513906478881836 0.4429742097854614 0.24663417041301727
0.39216911792755127 0.6100154519081116 1.1684212684631348
0.4943915903568268 -0.28942015767097473 -0.08374089747667313
0.9152482151985168 -0.2877166271209717 -0.6501410007476807
-2.440791368484497 -0.119625985622406 0.4182472825050354
-1.5937161445617676 -0.28136342763900757 0.3387342095375061
0.7094371318817139 -0.04414696991443634 -0.09645694494247437
-1.2895139455795288 -0.35203537344932556 -0.9115785360336304
1.6355736255645752 -0.05043281614780426 0.1345006376504898
-1.8654632568359375 0.298430860042572 -1.3316079378128052
-1.5133945941925049 -0.31777340173721313 -0.4121418595314026
-0.3893324136734009 0.44973641633987427 -0.08997862040996552
2.414445161819458 0.24188891053199768 -0.9956541657447815
1.3093383312225342 -0.2640875577926636 0.7731737494468689
2.372161388397217 -0.2958100438117981 -0.44193124771118164
0.6979014277458191 0.22529082000255585 -0.12829643487930298
-0.8385255932807922 -0.23597761988639832 1.2400193214416504
1.404929280281067 0.7223552465438843 0.6318675875663757
-1.2504521608352661 -0.009504303336143494 -0.2866401672363281
-2.5596373081207275 -0.055840909481048584 1.1221702098846436
-2.0811545848846436 0.4505692720413208 0.8901979923248291
1.3350741863250732 -0.024789422750473022 -0.3971482515335083
-1.45720636844635 0.7569730281829834 0.5933024883270264
-0.40707364678382874 0.2410299926996231 1.2801929712295532
-2.214416742324829 0.24564120173454285 1.0558308362960815
2.2081189155578613 0.5414273738861084 -0.08084388077259064
0.7566781044006348 0.5922976136207581 1.1341713666915894
1.3435046672821045 0.4045613408088684 -0.7312701940536499
1.866918921470642 0.12802433967590332 1.0697413682937622
1.283154845237732 0.5745176672935486 0.46043798327445984
-0.004381217062473297 -0.28057509660720825 -0.7240222692489624
2.88584566116333 -0.1250925362110138 -0.9093770980834961
-2.0410704612731934 -0.24202865362167358 0.45339545607566833
-0.7596175074577332 0.016231894493103027 -0.43024367094039917
0.48864471912384033 0.17666971683502197 1.2503814697265625
0.9643703103065491 -0.2738215923309326 -0.2326904833316803
2.7564992904663086 -0.26254746317863464 0.990777313709259
-1.3538968563079834 -0.3719908595085144 -0.25037434697151184
-1.2119489908218384 -0.1495305299758911 -1.3125550746917725
1.2812126874923706 -0.26574569940567017 0.005074923392385244
-2.0471701622009277 -0.04063504934310913 -0.9633625149726868
-1.1818089485168457 0.46057483553886414 -1.331744909286499
-0.5687985420227051 0.3187955617904663 -1.308152675628662
1.2935233116149902 0.5103305578231812 -0.023300092667341232
0.5820054411888123 -0.05652394890785217 -1.2763993740081787
-1.4990088939666748 0.4288056790828705 -0.981293797492981
1.7084813117980957 -0.17772628366947174 -0.7790815830230713
2.5270912647247314 0.028599828481674194 -0.9070796966552734
-1.7541495561599731 0.4365983307361603 0.2645559310913086
1.9082682132720947 -0.2811972498893738 -0.5362251400947571
1.0966544151306152 0.6074694395065308 -1.1326439380645752
3.1818928718566895 -0.011002033948898315 0.6871110796928406
-2.1374142169952393 -0.2005920708179474 -1.3174681663513184
1.7500602006912231 0.22826364636421204 1.2918418645858765
2.332556962966919 0.5416834354400635 -0.779900312423706
1.4535260200500488 0.4136090874671936 0.8948186635971069
-0.02804112434387207 0.4359767436981201 -0.8412894010543823
0.13936206698417664 -0.2556782066822052 0.7261267900466919
2.4292004108428955 -0.2700517773628235 -1.272842526435852
0.8776205778121948 0.2392706573009491 0.2801704406738281
-2.0750949382781982 0.7467711567878723 -0.5446370840072632
1.6703901290893555 0.10555307567119598 -0.41270849108695984
-0.5604870915412903 0.6366764307022095 1.2377426624298096
-0.9827431440353394 0.6486009359359741 0.9594692587852478
2.8399930000305176 0.3386220932006836 -0.7731114029884338
2.201310157775879 0.5353256464004517 1.215619444847107
-1.0180530548095703 0.24361586570739746 -1.3107930421829224
-1.4113397598266602 0.330301970243454 -0.14186988770961761
-1.9547258615493774 0.7251282930374146 1.1017526388168335
-1.9889112710952759 0.013345524668693542 1.03782057762146
0.4011467695236206 -0.2845214605331421 -1.02383553981781
-0.3008370101451874 0.2048296183347702 0.041016776114702225
-1.9486068487167358 -0.1138843446969986 1.1412888765335083
-1.1387529373168945 -0.3175472319126129 -0.36199817061424255
-2.258845329284668 0.4480113983154297 -0.893256425857544
-0.5846269130706787 -0.29019108414649963 -0.5403445363044739
-1.4938050508499146 0.10145778954029083 1.1141728162765503
0.2539575397968292 -0.09087155759334564 1.2979395389556885
-0.16707664728164673 0.5625007152557373 1.2504825592041016
-1.9277055263519287 -0.26229026913642883 1.0581717491149902
-1.8222949504852295 -0.27253466844558716 0.4476674795150757
1.7651160955429077 -0.14906688034534454 0.8851839303970337
-0.4436489939689636 -0.27551281452178955 -0.9126211404800415
3.123490810394287 -0.05938303470611572 -0.45823773741722107
2.5027379989624023 0.17707885801792145 0.6457076072692871
2.331418991088867 0.5042179226875305 0.8582294583320618
-0.4976314902305603 0.2992900311946869 -0.8231183290481567
0.6174572110176086 -0.2948857545852661 -0.8935104012489319
-1.4895321130752563 0.23056620359420776 0.7479047775268555
-2.057929754257202 0.44831669330596924 -0.06391169875860214
-1.03029203414917 0.20518027245998383 0.311970591545105
-1.932276964187622 -0.36888083815574646 -1.3544069528579712
0.2359282374382019 -0.27883440256118774 -0.8785413503646851
0.9652863144874573 -0.273140013217926 0.5077532529830933
1.1652652025222778 0.513149619102478 -0.14372068643569946
1.023021936416626 -0.08545702695846558 0.6761250495910645
2.430058240890503 -0.3235703706741333 -1.0644702911376953
-1.5622901916503906 -0.4542502164840698 1.2233535051345825
-1.6959173679351807 0.33091530203819275 -0.10276766121387482
-1.6667386293411255 0.2221178114414215 0.9300197958946228
0.6039155125617981 -0.3122365474700928 0.33711642026901245
-2.3986852169036865 -0.16407659649848938 -0.030812934041023254
1.2775334119796753 0.5113611221313477 -1.2291818857192993
1.0948189496994019 0.28812211751937866 0.8105301260948181
2.0870542526245117 -0.06776198744773865 0.8800122141838074
2.2645013332366943 -0.3617267310619354 -0.8813196420669556
0.3273743987083435 -0.2821806073188782 -0.5511313676834106
-0.45345672965049744 0.8427492380142212 0.5772628784179688
1.3259106874465942 -0.09624627232551575 0.4018980860710144
-0.23151889443397522 0.11456520855426788 -1.3007779121398926
2.7372140884399414 -0.2792976498603821 0.9297184944152832
1.589801549911499 0.242428719997406 0.9216940402984619
1.24112868309021 0.7570011615753174 0.6691887974739075
-1.815300464630127 0.39264315366744995 -0.6307111382484436
1.4505149126052856 0.6768631339073181 1.1190359592437744
0.13757644593715668 0.013213872909545898 0.581014096736908
-1.890277624130249 0.42460858821868896 -0.8154257535934448
-1.6272426843643188 -0.02265860140323639 1.3451405763626099
1.6434330940246582 -0.012814611196517944 -0.192825585603714
1.0681203603744507 0.8553417325019836 0.053954917937517166
0.9184936285018921 -0.05665832757949829 0.6116706728935242
0.2179998904466629 -0.26620280742645264 0.22949844598770142
2.31089448928833 -0.03421691060066223 -0.829494059085846
-0.5073214769363403 0.1598617136478424 -0.23787251114845276
-0.7658879160881042 -0.05484192073345184 -1.265320897102356
1.3443547487258911 -0.2813524007797241 0.2706831097602844
1.7780742645263672 -0.27611300349235535 0.7049278020858765
-2.475510597229004 0.7705398797988892 1.0780761241912842
0.998323917388916 0.8429388999938965 -0.7999133467674255
0.47610142827033997 1.0250850915908813 -0.4401630461215973
-0.035926513373851776 0.03368529677391052 -0.30345097184181213
-1.194188117980957 0.44270384311676025 -1.3220847845077515
0.571709394454956 0.5949862003326416 -0.9205236434936523
-1.9482940435409546 -0.2651817500591278 -0.629589319229126
1.1884394884109497 0.22434380650520325 -0.7618923187255859
-1.2519755363464355 -0.10367691516876221 1.1521131992340088
-2.613459825515747 0.651105523109436 -0.7253319621086121
-1.7989898920059204 0.27812352776527405 -0.6492409110069275
-1.6897861957550049 0.0729435384273529 1.3388246297836304
0.060634955763816833 0.050415053963661194 -0.002731139538809657
2.933074951171875 -0.30219465494155884 -0.42789652943611145
-2.3148207664489746 0.6506310701370239 0.6511077880859375
0.00426192581653595 -0.2726324200630188 -0.1360519975423813
0.3878956139087677 -0.25808629393577576 -1.1791529655456543
-1.6914043426513672 0.5448000431060791 0.6325487494468689
1.566083312034607 0.014414295554161072 -1.1241973638534546
-2.6904006004333496 0.0553775280714035 0.5080110430717468
-2.6919920444488525 0.03837808966636658 0.7983975410461426
-1.0299694538116455 0.059796594083309174 -0.2734278738498688
1.3712389469146729 0.7943681478500366 -0.049621790647506714
1.8296527862548828 0.2674122452735901 0.880448043346405
0.12432220578193665 0.3880206048488617 0.9556605815887451
-0.8969053626060486 -0.2773757576942444 -0.6656681895256042
-2.0361485481262207 0.7139423489570618 -1.276868224143982
1.851021409034729 0.6508429050445557 0.5136781930923462
1.05869460105896 0.8363521099090576 0.5322484374046326
0.8437215685844421 -0.011492058634757996 -1.2722500562667847
-2.404362916946411 0.7408039569854736 1.0495108366012573
-1.6956970691680908 0.4671294391155243 0.2573140263557434
0.11826653778553009 0.7679728865623474 -0.9964357614517212
-0.4088694155216217 0.6969571709632874 -0.7713286280632019
-2.357287883758545 -0.17870000004768372 -0.8882466554641724
0.0782662034034729 0.37199199199676514 1.260063648223877
-1.4446167945861816 0.0437309592962265 -1.3069802522659302
-1.7992644309997559 0.4918361008167267 -0.9233341217041016
-2.3101985454559326 0.5794707536697388 0.1684018075466156
-1.8482630252838135 0.2924887537956238 1.3461898565292358
-1.7228282690048218 0.34767138957977295 -0.8418996334075928
-0.7987774014472961 0.04054640233516693 -0.2356639951467514
-0.6779736876487732 0.3778449296951294 -0.5673954486846924
-0.3643415868282318 0.9971168041229248 0.5499591827392578
2.515209436416626 -0.0059531331062316895 -0.8141666054725647
-0.3629668951034546 -0.27567169070243835 0.5339222550392151
2.862668991088867 0.2961985468864441 -0.8604335784912109
-1.1540452241897583 -0.08108644187450409 0.98968106508255
-1.2165247201919556 0.24700099229812622 0.5490980744361877
-0.3752284646034241 0.14881835877895355 -0.20711492002010345
-1.8872781991958618 -0.0076041072607040405 1.3575867414474487
2.286738395690918 -0.11136151850223541 -0.9386701583862305
-1.0186846256256104 0.2221524715423584 0.11618278175592422
1.6745645999908447 0.3776271343231201 0.649686336517334
1.7101281881332397 0.16301706433296204 -0.6843094825744629
-2.505889415740967 -0.10551390051841736 -0.9017770290374756
-1.3916841745376587 0.728920578956604 0.5530487298965454
-0.4570000171661377 0.15477506816387177 -0.2608157694339752
-0.27705127000808716 0.23925471305847168 0.41918832063674927
-0.6539387702941895 0.16648517549037933 0.8141174912452698
-2.467721462249756 0.7221977114677429 0.6925804615020752
-1.7753641605377197 0.27169233560562134 -1.3051245212554932
2.8416755199432373 0.33008942008018494 -0.7867523431777954
1.1270817518234253 0.19968803226947784 0.18154053390026093
-1.9161121845245361 0.7398387789726257 -0.8236209154129028
0.771992564201355 0.9136411547660828 0.6111527681350708
-1.3476380109786987 0.7914101481437683 -0.9444361329078674
-2.6571006774902344 0.7047157287597656 0.45929044485092163
0.7975658178329468 -0.06010420620441437 0.38322851061820984
-0.006818797439336777 0.8261635303497314 0.8752208352088928
1.1119693517684937 0.5536738038063049 1.0866825580596924
-2.3191134929656982 0.05336529761552811 0.8173221945762634
-1.0601956844329834 0.5763490200042725 -0.44451475143432617
-1.7952821254730225 0.17555290460586548 -0.6948164701461792
1.3054535388946533 0.02080024778842926 -0.5997363328933716
-1.4383445978164673 0.1758291870355606 -0.8608935475349426
1.9714552164077759 -0.024347975850105286 1.2823833227157593
-2.147143840789795 -0.3139525055885315 1.1452144384384155
2.05853533744812 0.13479384779930115 -0.8168778419494629
0.15813452005386353 -0.2748299241065979 1.150396704673767
1.5029524564743042 -0.289715051651001 0.22332921624183655
2.9021217823028564 0.354947030544281 0.9905406832695007
2.233548402786255 0.5328041315078735 -0.13627034425735474
0.13595575094223022 -0.2732008695602417 0.31849920749664307
-0.6726604700088501 -0.1263599842786789 1.2921780347824097
1.8231618404388428 -0.09458215534687042 -0.2307472974061966
2.043163776397705 0.5725523233413696 -0.19814828038215637
-0.04329722002148628 0.1759544461965561 -0.5024327635765076
-0.9500553011894226 -0.04011647403240204 -1.2918446063995361
-2.4815757274627686 0.7656548619270325 -0.4433482885360718
2.3774540424346924 0.27146220207214355 1.2506893873214722
0.3472835123538971 0.0531739741563797 0.9019139409065247
-0.31867170333862305 0.34563833475112915 -1.3074206113815308
1.7752693891525269 0.6508631110191345 1.0485981702804565
-0.46104875206947327 0.23970967531204224 0.26321032643318176
1.8952680826187134 0.3526424467563629 -0.6957734227180481
-1.9095818996429443 0.7215721607208252 -1.2110294103622437
-0.35385391116142273 -0.0051885247230529785 1.301263689994812
-1.7791720628738403 -0.4337666630744934 -0.8231013417243958
-0.8272563815116882 0.5160470008850098 0.45820510387420654
-0.6237384676933289 0.809918224811554 -0.7842111587524414
0.9773644804954529 0.11516813188791275 0.1685047447681427
-0.8739893436431885 0.6852080225944519 -0.6878545880317688
0.21656885743141174 1.0831687450408936 -0.27318716049194336
-2.713916063308716 0.3639410138130188 -0.22781233489513397
-0.6443653106689453 0.7134842872619629 0.8156092166900635
1.2515535354614258 -0.024384155869483948 0.5742810368537903
1.2185232639312744 0.14630450308322906 0.9463011622428894
-2.327263355255127 0.33712059259414673 0.7995668649673462
3.0931637287139893 -0.05412764847278595 0.1641918122768402
1.390750527381897 -0.016684576869010925 -0.6767704486846924
1.4587433338165283 0.7039943933486938 0.733534038066864
-0.07557322084903717 -0.05790992081165314 -0.9265261292457581
1.4905016422271729 0.21382981538772583 -0.816504716873169
-2.019890069961548 0.6831581592559814 -0.23490385711193085
-2.692218542098999 0.5657434463500977 -0.2356281727552414
-2.6921708583831787 0.47509142756462097 0.933614194393158
-2.2866735458374023 0.17882895469665527 0.8001849055290222
0.13343022763729095 -0.012930557131767273 -0.2605460584163666
2.430983543395996 0.47610583901405334 1.1123015880584717
1.1462070941925049 0.6010730862617493 -0.26553335785865784
0.04683557152748108 -0.04625728726387024 0.35780131816864014
-0.15860602259635925 0.7110286355018616 1.0441371202468872
2.323092222213745 0.5423164963722229 -0.8852928876876831
-0.5961927771568298 0.35805773735046387 -0.7658246159553528
2.853257894515991 -0.2963661253452301 -0.9310635924339294
-0.7223326563835144 0.13966743648052216 -0.35837265849113464
-1.1057541370391846 -0.09797461330890656 1.355244755744934
-1.1680208444595337 0.18851768970489502 0.9621246457099915
-1.5554696321487427 -0.17168548703193665 0.8391022682189941
2.9426703453063965 0.3198164105415344 -0.6502414345741272
0.8127557039260864 0.5437732338905334 0.6498003005981445
1.3313111066818237 0.6841714382171631 1.1858999729156494
-2.730196952819824 0.4143136143684387 1.0806963443756104
1.6217777729034424 0.14876766502857208 0.6476837992668152
-2.1194100379943848 0.38580942153930664 0.6984460353851318
-2.112428903579712 0.05982549488544464 -0.96387779712677
2.4269559383392334 0.20517443120479584 1.2301393747329712
-1.4844163656234741 0.2153477817773819 -1.034285306930542
